ply
format ascii 1.0 
element vertex 1864
comment /media/mkaihara/Seagate Backup Plus Drive/model_iterations/model_46.ply
property float32 x 
property float32 y 
property float32 z 
end_header 
-6.13969 -5.4816 1.07231
-6.91711 -3.22656 0.997777
-6.37437 -4.35869 1.01708
-6.78973 -3.7798 1.02955
-6.87637 -4.17963 1.06747
-7.04165 -2.13229 0.982512
-6.99223 -2.33279 0.991458
-6.89962 -3.26255 1.01923
-6.89892 -3.53513 1.03748
-6.90654 -3.38945 1.0506
-7.0231 -2.15841 1.02068
-6.9227 -3.1757 1.05424
-6.89275 -3.2593 1.05382
-6.84067 -3.64541 1.06964
-6.89624 -2.94187 1.04767
-6.86192 -3.40644 1.06895
-6.87718 -3.74994 1.10162
-6.92609 -3.23206 1.08058
-5.99874 -4.48707 1.06566
-6.881 -3.58021 1.11375
7.71813 6.36599 1.44637
5.22949 8.3859 1.42993
-6.88467 -3.48854 1.11715
7.30669 -3.52574 1.17772
-6.87667 -3.27521 1.11105
-6.87318 -3.38681 1.11714
-6.85694 -3.19649 1.11272
-7.15571 -1.751 1.08546
-6.90808 -2.93833 1.1146
-6.91353 -3.0256 1.11907
7.15085 5.62967 1.40937
-6.36998 -2.28247 1.0494
7.08222 5.18769 1.40128
-7.00492 -2.4076 1.19128
-6.45592 -2.81737 1.14864
3.81253 7.99016 1.45993
-6.30375 -2.25919 1.11132
-6.47208 -2.28723 1.16898
-6.14251 -2.27783 1.14077
2.57831 7.45442 1.49673
7.8458 -8.53714 -10.1915
7.97319 -8.82018 -10.4058
7.70458 -8.76402 -10.1537
8.20567 -8.33774 -10.0208
6.95157 -11.4814 -10.9975
8.15738 -8.28474 -9.53978
6.95595 -11.8982 -11.1901
8.03496 -8.42208 -9.25097
7.9804 -9.17713 -9.46871
8.25112 -8.71151 -9.32988
7.86816 -8.99686 -9.11584
8.31188 -8.72131 -9.14186
6.32815 -13.988 -11.4593
7.4996 -9.43378 -9.00719
7.93621 -9.09297 -8.93555
6.22527 -14.3526 -11.5227
6.26904 -12.8775 -10.5252
9.24643 -8.84888 -9.37189
9.23088 -9.00475 -9.38546
5.96605 -12.7352 -10.2049
5.90309 -13.107 -10.2933
9.37894 -9.006 -9.30367
9.23433 -9.04745 -9.18296
6.92526 -11.2125 -9.34902
5.61499 -12.9611 -9.99584
6.5166 -11.0108 -8.80039
8.46619 -8.85162 -8.36599
11.7879 -10.0025 -10.3782
8.25971 -8.64418 -7.91297
7.44748 -9.29053 -7.85299
8.26615 -8.80294 -7.96615
9.18249 -8.80543 -8.37642
7.622 -9.3455 -7.87715
12.1347 -10.1346 -10.2898
4.67019 -15.807 -10.6573
9.20214 -8.84222 -8.20678
5.01787 -15.3758 -10.4266
7.77513 -9.32331 -7.77067
8.26987 -8.49159 -7.5793
0.349778 15.6851 -10.0066
4.74397 -15.1464 -10.1051
10.9187 -9.60234 -9.2468
7.93449 -9.09825 -7.65133
8.18165 -8.51562 -7.45265
4.72675 -15.7852 -10.3519
-0.394947 13.5942 -8.50414
8.85798 -8.82365 -7.72134
4.22849 -18.6849 -11.8311
7.93718 -9.07726 -7.44471
8.2887 -8.5924 -7.37229
4.2666 -15.4223 -9.80063
8.24033 -8.66289 -7.31065
4.25356 -18.1711 -11.3821
0.152558 15.0561 -9.17151
3.76281 -17.8703 -11.0528
4.181 -15.7779 -9.86973
7.06531 -10.8477 -7.76968
8.07342 -9.23413 -7.36795
4.20189 -16.5914 -10.2003
8.31364 -8.69037 -7.16515
9.43616 -9.0258 -7.78197
10.7073 -9.23151 -8.4532
7.03502 -11.0937 -7.81269
7.75024 -9.28929 -7.18083
9.0861 -8.83871 -7.51163
8.01957 -9.189 -7.13738
8.60298 -8.79726 -7.18251
9.72705 -9.18203 -7.79684
6.79051 -13.3673 -8.65531
9.27056 -9.00116 -7.46273
5.81174 -13.4066 -8.43303
6.90283 -10.8951 -7.4339
9.58639 -9.13386 -7.54022
11.9799 -10.2747 -8.91063
10.8204 -9.50992 -8.1042
6.89979 -11.1314 -7.35149
9.16653 -9.11134 -7.24786
9.2823 -9.04907 -7.24859
12.6565 -10.565 -9.20887
4.66248 -14.3948 -8.45805
10.2313 -9.41513 -7.77259
8.55031 -8.72935 -6.80184
2.74421 -17.3074 -9.66731
14.8248 7.58228 -9.10516
2.70774 -19.8481 -10.8961
2.42839 -8.80067 -4.95153
2.97524 -19.8787 -10.8611
14.7954 7.70626 -8.95986
2.3624 -20.1716 -10.786
10.9931 -9.64105 -7.77862
9.8102 -9.06018 -7.07229
14.9871 7.52074 -8.87549
2.36382 -8.81861 -4.82538
1.65479 -19.7739 -10.2498
2.38456 -20.8172 -10.7478
13.9914 -11.1793 -9.17752
-9.27711 -2.60004 -4.90451
11.3757 -9.85117 -7.64311
2.17147 -20.2498 -10.2641
10.1556 -9.27157 -6.94821
0.851044 17.5206 -8.72433
11.0298 -9.67673 -7.31513
-8.85065 -1.9469 -4.44527
2.20942 -20.1845 -9.9703
3.85838 -9.20375 -4.90197
11.2939 -9.6911 -7.28592
1.99526 -19.8761 -9.76429
-8.34733 16.016 -8.75679
2.50522 -11.2072 -5.49481
1.99463 -21.0933 -10.0893
0.631064 17.0872 -8.09875
14.9526 7.64355 -7.92991
17.4513 16.3455 -11.3109
17.8162 17.0714 -11.4666
14.4037 -11.39 -8.51522
9.8252 -2.6154 -4.71358
17.3842 16.3626 -11.0334
9.77248 -2.47348 -4.6642
-10.2063 16.7562 -8.94264
-9.54926 -2.06906 -4.43136
9.87455 -2.61277 -4.63698
10.2069 -2.40357 -4.75041
9.7808 -2.98368 -4.62887
-5.38118 4.43576 -3.14375
8.10337 -8.34014 -5.24345
17.9601 17.5007 -11.2616
17.8289 17.6722 -11.2869
19.285 5.86657 -9.04412
7.15769 -10.9248 -5.81884
20.4237 5.36245 -9.38378
9.58016 -3.42831 -4.52453
-9.87018 16.2215 -8.43173
-5.33077 4.88481 -3.2027
19.3879 5.60108 -8.92209
-11.2524 17.1534 -9.02713
18.1066 17.9605 -11.1846
-6.51238 14.927 -7.1488
9.60771 -3.60672 -4.47277
20.1609 5.46361 -9.05778
18.2536 18.5204 -11.2134
18.0448 18.6715 -11.1938
14.9197 7.63552 -7.14523
3.86525 -9.3627 -4.29375
-11.1956 17.0295 -8.61095
-13.4289 3.28915 -5.82815
1.26601 -21.467 -9.01123
3.25493 -10.201 -4.4799
14.2359 7.66853 -6.7624
18.8384 19.6666 -11.3947
3.87227 -9.19171 -4.15389
14.8651 7.75083 -6.95568
18.5125 19.7353 -11.2389
14.0708 7.77245 -6.6123
4.00259 -8.47572 -3.84282
6.79046 -10.8788 -5.25291
-13.3631 2.51356 -5.56538
15.025 7.53049 -6.85186
-7.98643 15.45 -7.07028
1.19041 -10.6019 -4.33342
0.758021 -21.7146 -8.79991
-12.9257 2.34117 -5.28529
-9.30011 -1.43591 -3.75728
-5.05833 5.6129 -2.99546
2.83559 -11.7592 -4.77142
14.2528 -11.2448 -7.09739
4.1075 -9.46971 -4.04604
1.52439 19.1977 -7.485
3.95223 -13.1877 -5.32235
19.0729 5.83079 -7.68761
0.88041 -26.0931 -9.96948
4.75484 -8.68471 -3.75836
11.7554 -10.1774 -5.90857
19.4345 5.59631 -7.66724
20.3276 24.1004 -11.7766
20.0302 5.44009 -7.7454
20.6218 24.0372 -11.8039
3.27124 -10.8721 -4.23601
-13.0052 17.5144 -8.04852
11.9242 -10.1194 -5.75043
20.4257 5.21445 -7.72924
21.2324 25.3842 -12.0242
-8.16594 -2.81569 -3.12944
19.3552 5.74222 -7.26972
2.28472 -13.2487 -4.83728
0.810233 15.8045 -5.67321
-4.27065 13.9167 -5.19022
-8.21975 -2.79886 -3.09827
6.7553 -10.5488 -4.44737
-15.9153 18.3895 -8.59703
16.0222 -12.0987 -7.11291
-11.0478 16.6547 -6.98621
19.3984 5.91429 -7.04326
3.72251 -8.68164 -3.25808
-8.77035 15.9482 -6.19257
2.99787 -13.5245 -4.72473
19.0211 -13.6065 -8.00088
34.3614 -21.2887 -13.7384
-14.8651 18.2101 -7.93397
20.1449 5.4736 -6.99964
37.2816 -21.0529 -14.298
40.9625 -20.1594 -15.2155
16.5076 7.40459 -6.02808
3.4577 -10.2879 -3.61881
1.349 -10.9249 -3.63885
-6.23983 14.8848 -5.26344
-12.6389 17.3349 -6.98211
15.8314 -12.1667 -6.4958
6.05628 -9.86708 -3.72124
3.34685 -10.1542 -3.42849
-1.12674 -23.632 -7.55731
2.32645 -11.0354 -3.59281
3.23985 -10.0834 -3.35623
2.82967 -9.04992 -2.99029
13.6716 -10.8105 -5.47817
-17.8586 19.3042 -8.23412
-8.6944 -2.64819 -2.84671
28.8287 -15.8135 -10.3155
1.36564 -21.4098 -6.62484
19.9268 25.8002 -9.82769
3.23103 -9.88951 -3.1367
3.45306 -8.98427 -2.89703
-14.2872 17.8688 -6.84391
-21.257 19.8238 -8.60862
-7.91133 15.3839 -5.08932
4.78773 -12.0263 -3.79185
4.1585 -8.93972 -2.89858
2.08313 20.6203 -6.08715
-4.31925 14.523 -4.43817
4.06442 -8.97385 -2.88039
-15.199 18.2861 -6.8566
-31.9341 -45.6358 -15.9344
7.15547 -11.1418 -3.77769
2.5474 -9.48441 -2.7843
-8.39548 -2.19913 -2.44677
4.45066 -11.047 -3.35773
-2.4416 -24.633 -6.93737
-9.2228 15.9036 -5.06277
4.37189 -11.2809 -3.33554
8.59516 -8.38369 -3.29919
-13.01 17.3342 -5.9321
45.9013 -15.2184 -13.1819
-8.71331 -2.43721 -2.44996
-24.2773 20.3764 -8.57307
3.25206 -9.99559 -2.84068
3.40484 -10.0019 -2.85372
-4.20761 -30.2541 -8.20219
-26.6592 20.446 -8.95564
42.9384 -14.1665 -11.9494
46.2772 -13.3961 -12.7463
-8.43183 -37.9549 -10.2451
-8.18773 -38.6137 -10.406
-14.3649 18.0013 -5.97633
9.86087 -8.96743 -3.48363
11.3437 -10.0726 -3.94082
-10.5757 16.5017 -5.07014
-4.23621 -27.7727 -7.2998
3.26698 -9.87647 -2.68928
3.5262 -10.3177 -2.82171
-26.0785 20.6742 -8.53584
4.28522 -11.074 -3.00428
4.41084 -9.69709 -2.68716
9.49202 -9.17944 -3.32869
6.92694 -11.3816 -3.34394
-27.0473 20.8699 -8.53559
44.2341 -12.8758 -11.4952
-11.4509 16.8711 -5.06006
11.8374 -10.1935 -3.86113
3.37156 -10.2551 -2.65629
-24.3822 20.4815 -7.7898
9.99 -9.02195 -3.23849
-7.79975 15.216 -4.10413
4.06298 -12.0039 -3.05349
15.1254 7.59696 -4.05074
3.38976 -11.1407 -2.79182
3.17042 -9.88769 -2.47478
-6.6576 -38.0831 -9.20232
-11.0379 -42.4043 -10.3901
3.97299 -9.10202 -2.3491
-28.7158 21.4602 -8.46903
14.9352 7.64418 -3.92972
-9.37871 16.2008 -4.39606
3.93817 -11.3544 -2.82888
-12.7557 17.3909 -5.04002
-26.2783 20.8516 -7.79049
3.48397 -10.3203 -2.49779
11.0626 -9.49731 -3.36459
15.699 -11.8349 -4.50362
-37.1371 26.2764 -10.4033
-12.3447 -42.9769 -10.193
10.9312 -9.5579 -3.32177
-11.6335 -41.8141 -9.84796
-6.08956 -30.8837 -7.16438
40.9497 -12.6598 -9.71241
-26.8854 20.7699 -7.66556
14.7446 -11.4423 -4.19661
-30.572 22.2075 -8.47924
4.44754 -5.80256 -1.64116
5.30047 -9.18838 -2.37351
-27.5391 -71.0459 -16.8501
-9.58395 16.0442 -4.11604
-12.8318 -44.0683 -10.1
4.11208 -9.78975 -2.3368
13.4885 -10.8809 -3.82083
4.01339 -9.18983 -2.20532
41.3306 -12.2226 -9.4386
-23.363 20.3651 -6.75884
3.39714 -10.1084 -2.28832
4.40458 -9.91484 -2.34751
15.0095 7.54488 -3.60913
-28.7533 21.5148 -7.71983
-21.0854 -33.4303 -8.49225
-8.25647 -34.9714 -7.68634
-24.2799 20.4781 -6.76806
-30.842 22.4017 -8.11256
3.25402 -9.94812 -2.23367
4.87776 -8.8708 -2.14682
14.8215 7.7394 -3.53913
4.24064 -10.5153 -2.41279
42.011 -10.9482 -9.19984
-10.4719 16.404 -4.10561
4.34276 -9.15776 -2.12591
3.1531 -9.12781 -2.00109
5.16346 -9.05857 -2.18455
14.8257 7.46017 -3.45817
-37.7743 24.8744 -9.41476
-27.0536 -25.0848 -7.62656
3.02648 -9.46995 -2.06665
-28.4946 -30.0477 -8.53264
-19.6848 -30.737 -7.51643
3.85869 -9.34111 -2.08544
3.74051 -8.74348 -1.95188
-15.525 18.3586 -4.92112
-24.28 -64.3586 -14.1206
3.99188 -8.7896 -1.97407
-35.2226 23.5882 -8.61922
-13.9355 3.04864 -2.91469
-33.2875 -23.5256 -8.31278
-26.8285 -74.1089 -16.0453
-11.1631 -35.95 -7.65626
44.2012 -9.65331 -9.18991
14.9807 7.65344 -3.37112
-17.6736 -23.4127 -5.89513
12.3729 -10.1111 -3.21326
-18.5363 -53.0283 -11.2127
4.18968 -10.779 -2.30645
-11.9578 17.1469 -4.15252
-25.9851 20.4464 -6.55422
-35.2014 -20.8387 -8.13299
-31.9601 -24.96 -8.03727
-9.08064 -35.2026 -7.24
14.5763 -11.492 -3.6775
4.03605 -9.83961 -2.09646
3.23013 -9.87343 -2.0365
-35.3055 23.3284 -8.22368
-22.7606 -54.805 -11.4712
-15.7122 -45.3694 -9.15769
3.49269 -8.9173 -1.83407
-20.0535 -32.4784 -7.24754
-31.7613 -24.7876 -7.59724
-28.8273 -25.5978 -7.25751
-21.562 -53.283 -10.8755
3.89195 -9.10576 -1.88593
-16.4241 -44.7968 -8.93029
3.44612 -9.23233 -1.81946
-32.2331 -24.0584 -7.32254
-31.0342 -26.6094 -7.45095
-32.698 23.0205 -7.20862
-19.8917 -49.2153 -9.47235
-31.0266 -24.9936 -7.00786
-23.7853 -61.5863 -11.6312
-33.9541 22.5958 -7.1416
-16.2905 -45.9394 -8.54749
3.40857 -9.58122 -1.77744
14.1384 7.8468 -2.80448
-34.6978 23.7765 -7.29562
-28.6758 -25.1332 -6.63225
3.4797 -9.53013 -1.75938
4.80436 -8.66837 -1.7175
-26.653 20.9255 -5.85593
-30.4728 22.1635 -6.4992
-30.7905 -28.3605 -7.22358
3.89548 -10.0245 -1.85562
13.9875 7.54048 -2.73073
-23.1905 -53.2858 -9.88394
-20.4947 19.5 -4.77357
-31.2763 -24.8592 -6.77519
-19.4172 -48.1415 -8.8029
5.62094 -11.7775 -2.20341
42.5901 -12.0288 -7.5024
-17.9143 -47.8126 -8.59704
41.6954 -10.8485 -7.24696
5.01059 -10.7521 -1.97467
6.70639 -11.1434 -2.19713
-10.27 16.328 -3.12942
-30.1196 -23.3154 -6.20748
42.9827 -11.5431 -7.24228
-21.954 19.943 -4.81095
-20.0707 -49.6554 -8.50664
-22.7382 19.9925 -4.7758
-23.94 20.4083 -4.89456
-32.6227 22.98 -6.17415
3.82119 -10.1219 -1.66255
-31.8612 -24.6353 -6.15646
-13.574 -40.9518 -6.62799
-30.8155 22.4261 -5.79397
-22.3268 -53.7353 -8.86237
-7.57385 15.3363 -2.57873
-33.1036 -23.2638 -6.09634
-32.3793 -23.8047 -6.08983
-27.5814 -25.8787 -5.69217
-32.9621 -23.7238 -6.09169
-31.1387 -24.9259 -5.96287
-34.541 -23.0708 -6.16636
-24.6345 20.6796 -4.74173
-32.8793 -24.6046 -6.05233
-31.8657 -24.131 -5.90314
-25.2944 20.8435 -4.79512
-12.3111 -40.7984 -6.24754
-12.492 17.0879 -3.04929
-7.58903 15.1828 -2.42024
3.5118 -9.56896 -1.45033
38.7768 -12.7531 -5.80555
-33.211 -24.4642 -5.83553
-30.395 -24.1568 -5.46453
-29.869 -25.1923 -5.50273
-20.1737 -48.6094 -7.33485
-6.7591 14.9765 -2.23035
-13.8659 17.7156 -3.0518
-11.5177 -40.3187 -5.71061
-7.33611 14.8681 -2.22611
-23.6759 -61.6336 -8.93398
-22.1917 20.1816 -3.99507
-24.1697 -54.7833 -7.95713
-31.1119 -24.0167 -5.18839
45.8246 -10.5595 -6.1838
45.1758 -9.93114 -6.09294
-13.2033 -41.0325 -5.66586
6.64715 -10.955 -1.68523
-14.8691 18.2125 -3.05995
-22.5992 19.9045 -3.90414
-32.3964 -24.1853 -5.20517
10.7619 8.82683 -1.79713
-33.3062 22.9009 -5.19002
-29.4084 22.3784 -4.65878
-30.7349 -24.063 -4.92482
-12.5927 -35.8285 -4.8027
9.68192 -9.06147 -1.65474
12.8168 -10.4747 -2.08382
-33.4216 23.4457 -5.10533
-35.8182 -22.3147 -5.25632
-30.3934 -25.1215 -4.90007
6.78615 -10.3207 -1.54152
-32.7067 -23.1181 -4.96361
-13.356 -41.6687 -5.38301
13.2121 -11.0141 -2.11142
42.1882 -10.9648 -5.38191
-16.0317 18.4561 -2.9883
-15.7084 -38.0755 -5.0357
-8.65899 15.48 -2.16021
44.099 -10.1586 -5.47924
15.0554 7.85936 -2.04009
9.42514 -8.94316 -1.55105
-33.4982 -23.372 -4.84391
-17.6915 19.2281 -3.05758
-20.6661 9.14533 -2.67823
-31.513 -24.3968 -4.70073
-25.1188 -56.9109 -7.30988
11.3045 -9.72458 -1.74587
42.5469 -11.39 -5.1858
14.7404 -11.4452 -2.14495
14.981 7.70058 -1.91532
-29.6221 22.5275 -4.24587
7.27731 -11.0509 -1.50153
-10.1533 16.2109 -2.14228
9.4585 -9.32482 -1.47853
12.7957 -10.5096 -1.84633
13.9996 -11.0498 -1.98382
9.46152 -9.12441 -1.45887
7.06501 -10.4625 -1.38291
45.0902 -9.84784 -5.02325
-10.8006 16.2243 -2.10185
-32.8295 23.1497 -4.36314
11.7301 -9.85532 -1.6543
6.19304 -12.7353 -1.48957
7.56761 -11.5838 -1.43988
9.85553 -8.91248 -1.398
-15.0648 -43.5328 -4.83053
16.6025 -12.2949 -2.16665
-29.8421 -59.9542 -6.94775
14.9229 7.51441 -1.70787
-30.8182 -24.5608 -4.04846
13.8529 -10.9607 -1.81033
-31.5726 -24.4223 -4.03921
14.9112 7.79086 -1.69055
-12.5542 16.7891 -2.06028
-19.942 -50.5617 -5.26771
-31.8941 -64.4296 -6.88374
-23.1924 20.2881 -2.9117
-30.6752 -25.1294 -3.76996
-30.651 -25.4602 -3.79818
-21.1529 -55.3511 -5.58822
-13.9474 17.8474 -2.12049
-30.9436 -24.2087 -3.66713
-15.4154 -41.9882 -4.16752
-13.6364 -42.3844 -4.15395
9.82623 -9.10778 -1.24501
-32.4616 -63.2335 -6.54948
8.56602 -8.66333 -1.10625
16.5348 -12.32 -1.88643
-14.8395 18.2037 -2.10728
-35.5182 -22.0915 -3.78575
-32.7782 23.1429 -3.53474
-30.7369 -24.7975 -3.49055
14.0649 -11.1866 -1.59532
-31.8879 -19.4319 -3.18666
11.0594 -9.70553 -1.25292
-26.4015 21.4157 -2.85593
-11.1723 -34.7728 -3.08719
9.40308 -9.01605 -1.0938
-33.4899 23.0256 -3.37752
8.68944 -8.69107 -1.00951
16.7988 -12.2515 -1.6984
-16.4033 -42.6238 -3.67118
-21.0216 -48.0879 -4.10883
-15.0558 -37.1685 -3.17924
-13.0966 -36.7462 -3.09996
9.2056 -8.94607 -1.00858
11.2953 -9.79165 -1.17195
14.8877 -11.6448 -1.49637
-29.6299 22.5953 -2.9003
-29.062 -13.5655 -2.49207
11.8695 -10.0557 -1.2058
-22.705 -50.5666 -4.24626
12.7912 -10.6172 -1.25941
-39.83 -75.565 -6.18293
9.95416 -9.1358 -0.979223
10.9151 -9.74307 -1.01978
-32.9562 -20.459 -2.68398
11.9639 -10.0551 -1.0821
14.7341 -11.6009 -1.30334
-15.2838 -38.6197 -2.82714
-14.8854 -39.3787 -2.88644
18.6153 -13.4531 -1.52468
-23.091 20.2176 -2.03745
-24.2892 -56.0309 -4.03905
12.8874 -10.6014 -1.11557
-14.3987 -39.9468 -2.7601
15.2993 -11.5517 -1.24568
-31.619 -64.0183 -4.48471
-14.6741 -45.4839 -2.97038
-32.5014 22.9601 -2.43606
-32.0759 -63.4314 -4.32709
-16.7201 -40.7286 -2.685
31.095 -20.616 -2.27084
42.3037 -11.0318 -2.65382
36.6939 -8.84689 -2.28668
-14.8947 -39.9894 -2.57876
-26.7195 21.6853 -1.95155
-28.7916 -14.1748 -1.8549
-15.5853 -40.602 -2.42623
16.9302 -12.6328 -1.18328
-26.975 -16.2325 -1.69517
42.8999 -9.55603 -2.26002
-9.36762 -12.5166 -0.793828
-15.1788 -40.3955 -2.14984
5.72188 -12.488 -0.682439
-14.0658 17.8312 -1.10785
-14.797 -46.5089 -2.3974
14.929 7.83219 -0.812377
-16.0803 -41.2176 -2.1031
-14.2602 -46.3787 -2.28987
18.7653 -13.3142 -1.1026
-16.8637 -48.906 -2.41352
36.9903 -9.08511 -1.78452
-28.6929 -14.672 -1.44237
-23.886 -54.732 -2.64863
-16.2999 -40.1054 -1.92746
9.66439 -9.11979 -0.5924
12.6179 -10.3565 -0.732584
44.5687 -10.198 -2.03288
-13.8089 -42.0043 -1.8823
-32.4284 22.9243 -1.6544
-52.895 28.7272 -2.40175
-33.4614 23.0279 -1.49096
-18.5073 -48.3985 -1.94503
-34.3263 -21.6158 -1.45039
9.75147 -9.07511 -0.48971
6.61288 -10.8436 -0.440663
-12.869 -38.3639 -1.3396
7.47583 -13.1221 -0.515701
18.658 -13.2151 -0.772072
-26.1069 -57.1785 -2.06982
-13.1699 -37.3632 -1.28374
21.283 24.5467 -1.04369
-22.9133 20.342 -0.965407
-20.4467 -52.3556 -1.74306
21.0938 -14.3847 -0.775905
-27.4613 -14.1318 -0.93651
-12.7941 -40.946 -1.27549
-23.8708 20.2831 -0.90014
-23.2471 -53.5008 -1.65934
-17.2431 -46.6681 -1.4352
22.6182 -10.1787 -0.748404
-34.1922 -20.8333 -1.10778
-9.75865 -12.8033 -0.459926
-22.4682 -52.9861 -1.62452
18.0732 -13.4642 -0.573478
30.9612 51.6685 -1.56155
-29.7821 22.7234 -0.963609
-30.9311 22.6238 -0.948276
-27.0839 -13.0136 -0.736684
9.57036 -9.00612 -0.318009
-20.6468 -33.2558 -0.9128
-39.8799 13.8334 -0.923501
21.294 -14.248 -0.543728
-52.6339 18.9834 -1.0335
18.4846 -13.3264 -0.427301
12.8302 -10.5404 -0.2765
-7.1464 15.4693 -0.298531
-32.9037 10.4057 -0.570939
-28.1315 -13.3961 -0.493589
-36.775 -20.9429 -0.643214
-17.8406 -43.735 -0.730598
-7.78498 16.3722 -0.24652
-32.2835 -24.1167 -0.558951
-33.6301 -22.9258 -0.52117
-33.987 -68.6727 -0.94916
17.3372 -12.9352 -0.2622
18.2707 -13.1548 -0.285241
29.083 -17.9334 -0.455538
-20.9713 -53.7119 -0.699189
-29.9612 22.8428 -0.402426
-37.2851 -20.8424 -0.471995
-27.1997 -58.0388 -0.682131
-18.3597 -42.1103 -0.491565
-52.5797 28.8154 -0.499753
-33.0615 -58.322 -0.617483
-19.659 -51.5585 -0.523815
37.7025 -9.10856 -0.356125
-14.1729 17.9892 -0.161286
-34.3136 -76.4133 -0.572694
-17.6567 -42.8257 -0.315186
9.57826 -9.01287 -0.0408672
13.0574 14.944 -0.0408958
14.8273 7.80554 -0.0285806
-29.243 -13.0453 -0.0582431
-11.6306 -16.9337 0.0249472
-12.8121 -19.2842 0.0440307
-18.4203 -42.2836 0.190716
9.4437 -8.99117 0.0595168
-32.4631 22.9743 0.205981
-21.3524 -53.9052 0.281273
-30.0305 -13.9376 0.198501
16.8607 -12.3023 0.11689
-13.0569 -20.0195 0.155921
14.7249 -11.4703 0.14705
-52.5567 18.8303 0.49325
7.09153 -12.1849 0.118406
16.0169 -11.8688 0.169417
-36.185 -21.8965 0.443449
38.3947 -7.89148 0.408529
-35.0397 -21.9584 0.470816
-12.4237 -34.314 0.426156
-12.8971 -34.6818 0.448609
-11.0845 -31.9186 0.411371
-9.53745 -29.5093 0.375543
26.2695 53.1912 0.772372
9.59039 -9.0206 0.170295
-12.7395 -19.7408 0.319865
-10.7645 -32.6766 0.471532
8.56743 -8.51106 0.183143
6.29561 -12.8798 0.208808
7.15144 -11.0201 0.200582
9.34587 -9.06018 0.188073
8.02836 -9.10955 0.194247
9.72603 -9.00567 0.21842
37.868 -8.11324 0.635821
-23.7431 20.3611 0.55972
-32.9918 -22.1968 0.684022
-34.2536 -25.1316 0.743877
12.9195 -10.6134 0.274086
13.2307 -10.6716 0.318677
-9.88655 -12.5351 0.301293
6.82852 -11.1912 0.255678
7.98474 -9.38417 0.242337
26.8361 55.216 1.23015
6.97666 -10.9662 0.261343
9.17749 -8.6836 0.268494
11.5278 -9.90846 0.333216
17.2547 -7.70701 0.38059
7.21076 -10.9404 0.296607
-9.4259 -12.1685 0.38921
-12.7482 -19.5699 0.557929
7.6431 -9.30538 0.274353
7.82705 -9.36033 0.28333
-25.4991 21.4316 0.864616
-28.8156 -9.24058 0.759042
9.61819 -8.94919 0.338047
17.5027 -12.7861 0.546676
18.3402 -13.2061 0.562294
-22.8555 20.0104 0.790885
-27.5757 21.7936 0.916923
-28.8295 -8.65263 0.78767
-32.9823 -17.5862 1.01488
-13.3068 -20.0938 0.640537
14.7624 -11.4703 0.498991
22.7516 -3.31033 0.647206
-12.1557 -18.9541 0.651395
24.9948 -4.73504 0.740683
16.4157 25.4755 0.908308
-27.901 -20.5542 1.02527
7.22426 -11.3163 0.403169
6.96264 -10.6923 0.388664
14.7888 24.0913 0.867879
-7.60927 -8.79262 0.355437
13.0289 -10.661 0.514221
-7.30595 -9.49556 0.366832
-28.4621 -8.03354 0.983854
-11.8557 -17.3304 0.703109
7.86597 -9.34325 0.404198
16.159 11.0401 0.700946
10.8532 -9.45042 0.522912
11.888 -10.0442 0.567222
22.9887 46.292 1.94121
-7.4376 -8.12006 0.411446
9.64556 -8.95393 0.49144
22.8204 -3.20404 0.884906
26.9478 55.7058 2.39619
-7.43355 -9.86655 0.483082
10.4248 -9.50793 0.553601
12.7229 -10.5079 0.666852
21.5707 -2.64373 0.886224
-29.027 -17.61 1.38803
8.73263 -8.69341 0.509353
-6.9131 -8.45285 0.469262
9.43104 -8.92154 0.542841
12.6907 14.5683 0.853331
-28.7987 -8.45187 1.31861
14.749 19.2107 1.08857
15.0698 25.9471 1.33711
21.7623 42.7941 2.12343
6.17647 -13.7614 0.672618
10.8371 -9.50748 0.652131
18.4807 -1.64013 0.848991
19.5295 37.185 1.97009
15.0119 26.45 1.42612
-11.1711 2.77083 0.554002
-7.23134 -9.53172 0.576876
9.16118 -8.97926 0.607657
11.3897 -8.73841 0.672408
20.1064 -2.30413 0.975115
11.6407 11.8634 0.825455
16.1588 38.8606 2.06913
7.75376 -9.45019 0.601776
10.1774 -9.26926 0.68182
14.6137 24.7808 1.4407
20.1914 39.1551 2.23635
20.9993 -2.61595 1.07627
-7.39501 -8.49587 0.584243
9.37849 -8.92942 0.674423
16.7417 24.5506 1.56119
16.5596 30.0207 1.7896
13.0006 -10.716 0.895349
10.5649 12.3504 0.869316
14.2396 19.3292 1.28979
11.0681 -9.59726 0.792294
15.0283 19.5806 1.36136
-26.1482 20.0442 1.79991
-6.95942 -8.16482 0.593407
10.2604 12.4047 0.901601
-7.25129 -9.36089 0.663096
9.99759 12.4543 0.926314
-27.5993 19.4308 1.91608
6.10484 -12.893 0.816794
11.1902 12.0968 0.947218
-6.87573 -6.78577 0.560144
11.2799 12.0283 0.97104
-6.80031 -8.40302 0.646872
6.24881 -12.5611 0.819818
14.6615 19.5074 1.46747
14.1475 23.1311 1.61761
13.4477 31.0786 2.03246
-6.12521 6.52382 0.549204
-8.1588 -7.73075 0.679742
-7.109 -8.15528 0.664329
5.72015 -12.4401 0.828016
-7.47419 -6.88134 0.631912
7.00048 -11.1538 0.814363
6.98204 -10.5521 0.789814
11.3326 -9.78242 0.924752
12.1218 -10.1405 0.979553
16.2212 7.18406 1.13051
14.908 19.3124 1.54368
-7.23127 -6.30206 0.622007
10.2582 -9.3691 0.896746
-7.37243 -6.25446 0.634064
11.4831 12.1171 1.13755
9.55951 21.5205 1.60353
-7.26274 -9.64051 0.806344
11.644 12.629 1.17848
-6.951 -4.4545 0.567718
-6.74597 -8.1932 0.723682
-6.69577 -4.43109 0.553672
9.26784 -8.8607 0.892767
9.99392 -7.84096 0.894948
12.7236 16.0363 1.48022
-6.66495 -6.65739 0.654433
9.80697 -8.28158 0.938745
11.4777 17.1619 1.55224
11.4107 18.192 1.60425
9.60722 18.2856 1.55773
9.02803 19.5109 1.617
7.354 21.9182 1.7381
10.7849 18.6155 1.63909
10.0114 -7.59581 0.96101
-7.02257 -7.18347 0.769665
-17.1682 -6.22703 1.42779
9.4695 -7.67699 0.955758
9.34643 18.6677 1.64781
-6.37749 -4.25834 0.607812
-6.82383 -8.21277 0.8464
4.83283 -5.73103 0.596115
9.03145 19.8698 1.73123
7.77597 19.0125 1.65169
5.0264 -5.79312 0.618021
12.7891 11.5403 1.39595
11.7888 11.8417 1.36832
6.72768 -9.38553 0.93877
12.2457 11.7128 1.39302
6.6906 19.6411 1.69853
-6.35365 -4.38603 0.629063
-7.15401 -9.46828 0.973962
11.5577 12.1085 1.38507
10.4798 9.16803 1.18573
-5.0321 -11.4807 1.05892
6.12521 -6.04533 0.751305
9.21498 -7.1788 1.0048
-6.79068 -6.68839 0.809668
10.4421 12.3748 1.41358
8.79499 -7.32852 0.995281
10.84 12.2196 1.42967
-7.30345 -7.75783 0.933997
8.18841 -7.2898 0.973506
10.2183 12.4898 1.45082
-7.06579 -7.73543 0.928837
-6.93211 -8.33321 0.972742
10.61 12.3335 1.47743
10.5144 13.563 1.55492
-7.11069 -8.32091 0.996961
11.2302 10.8476 1.43627
-6.31189 -4.22942 0.698503
-6.85525 -8.58592 1.00516
-6.32571 -4.39249 0.709744
11.0933 8.56105 1.31506
10.651 9.33723 1.32079
6.50246 15.4466 1.57645
10.5208 11.3184 1.46236
-11.2166 2.87426 1.0938
6.15691 -5.96473 0.817348
8.00388 -6.6353 0.998707
10.7511 9.20649 1.3742
9.54066 12.5536 1.52687
9.72582 12.4814 1.55908
7.67828 12.2798 1.43879
7.9251 13.2485 1.53684
11.2348 8.06775 1.40977
7.15166 12.7262 1.47342
9.07291 11.3703 1.48026
7.01056 13.5724 1.56354
5.88101 13.9744 1.55667
9.20927 10.4991 1.44356
9.04568 12.3234 1.58847
11.3984 7.66491 1.43306
9.26336 10.018 1.42075
4.97234 -5.81851 0.821767
-6.84301 -4.65408 0.872834
5.59 13.927 1.59309
-7.05586 -4.50459 0.892612
8.93963 10.7116 1.49816
-6.76257 -6.77218 1.02365
5.90932 -5.83272 0.896983
9.70184 8.54195 1.39345
8.9724 9.37141 1.39558
9.26972 10.3336 1.50527
4.79498 13.8969 1.58687
4.23613 -8.05648 0.986078
6.47692 10.8359 1.38937
-6.79878 -3.92336 0.863895
6.35974 11.9247 1.49969
-6.89249 -3.86152 0.875114
9.72095 7.21288 1.35377
6.68194 11.404 1.47223
9.81582 7.03784 1.35702
5.4466 11.6111 1.45037
5.45256 12.1243 1.50175
4.71568 12.2722 1.48782
9.8451 6.69151 1.35681
-6.88929 -4.56191 0.946194
7.40776 -6.23097 1.10349
-7.3268 -0.785039 0.84477
-6.27308 -5.38897 0.952365
5.24951 -5.56844 0.883152
8.8874 7.90112 1.38559
4.41906 -7.1848 0.977245
10.424 5.16056 1.36229
8.97119 7.8045 1.39794
5.20087 -5.61206 0.904068
8.6146 7.92968 1.38947
8.91618 9.07074 1.48827
-7.04495 -5.64875 1.06837
10.151 4.75323 1.33561
-6.91622 -3.8504 0.953671
9.15175 6.1522 1.33761
5.22532 11.4539 1.5264
-6.89073 -3.06444 0.916213
-6.87517 -3.25041 0.919543
4.88161 -5.95341 0.939804
5.97537 -6.1306 1.04245
9.3844 5.62893 1.35292
8.47465 7.23517 1.37789
-6.94803 -4.30903 1.00705
-6.87957 -4.53349 1.01536
8.27265 8.59987 1.48063
5.04615 11.3486 1.54248
-6.54849 -5.61621 1.07356
3.70976 -7.5765 1.05137
8.51635 7.75482 1.44141
6.07944 -5.61887 1.03803
9.17851 6.06884 1.39458
-6.1335 -5.4121 1.03211
8.56105 6.62292 1.3805
8.10073 7.52125 1.40633
-7.09741 -1.78201 0.935873
-7.0105 -2.30501 0.942393
-6.444 -5.31747 1.06588
8.83979 5.66731 1.3463
8.16834 8.05871 1.47909
-7.2593 -1.2525 0.944514
-6.89566 -4.11759 1.03827
7.44178 6.22961 1.25713
8.09026 7.05138 1.39178
7.98224 8.13896 1.47743
-6.90766 -2.82509 0.971528
-6.90896 -2.96493 0.971914
4.56516 10.1098 1.45808
9.00606 4.11475 1.30345
-7.24343 -1.60519 0.974919
6.84113 -4.26015 1.07121
4.92951 -5.94522 1.02404
-7.32835 -1.11641 0.992169
-7.0108 -2.19825 0.982766
-7.04788 -2.26747 0.989037
-5.99368 -4.39727 0.993405
5.18972 -6.56653 1.11558
6.91198 -4.17705 1.08739
8.08485 7.18039 1.46506
-7.1472 -1.71722 0.988131
-7.07878 -1.95463 0.987634
8.80292 4.85998 1.36588
8.34191 5.8802 1.38782
-6.91856 -3.61771 1.0638
8.87529 4.16545 1.34492
3.35789 10.5539 1.51656
-7.30791 -1.19913 1.01367
-6.00886 -4.44049 1.02754
-5.98939 -4.5393 1.02879
7.15001 -3.93531 1.12188
8.08246 6.49439 1.43414
5.36826 9.07351 1.46013
-6.38044 -4.3202 1.05631
4.93417 -5.52727 1.02939
7.18769 -3.83102 1.1337
7.56243 -3.68772 1.16431
3.6314 10.0746 1.49152
3.44614 10.3697 1.5238
-7.36409 -1.08136 1.03903
-7.06967 -2.00264 1.0239
4.97344 -5.28889 1.01502
7.24949 -3.73906 1.14609
7.36604 -3.67377 1.16761
7.87606 -3.35806 1.21735
-7.15042 -1.87357 1.05118
-7.00482 -2.94446 1.10109
-6.00673 -4.37251 1.06851
7.91083 -2.78428 1.22719
8.24266 4.62638 1.38505
5.0054 8.57485 1.45548
8.38003 4.51273 1.40686
7.83637 -2.34255 1.20582
7.15683 5.69729 1.37005
2.9729 9.48983 1.48728
-7.08949 -2.01824 1.10469
7.48925 -3.11196 1.22277
8.23916 4.55345 1.42713
5.79887 7.45787 1.43477
5.30389 7.65188 1.41897
5.14003 7.96372 1.44
5.09359 8.07304 1.44499
7.33921 -3.17216 1.22133
7.68563 -2.75839 1.24363
-6.75175 -1.68167 1.04802
7.83838 -2.25877 1.25107
7.24679 5.43507 1.39117
-7.09895 -1.95114 1.14243
-6.91623 -2.78438 1.15877
6.82624 5.53697 1.3789
-7.3499 -1.09492 1.16064
-7.13961 -1.82294 1.15401
-7.04215 -2.06621 1.14988
-7.11631 -1.87125 1.15467
-6.89149 -2.93271 1.17572
4.82356 7.47936 1.41568
3.44544 -6.03053 1.10915
-7.2706 -1.29848 1.18311
3.52696 -5.70594 1.08075
3.56385 -5.61139 1.07015
7.09068 4.77965 1.39365
4.67683 7.40226 1.42533
-7.06676 -2.02224 1.19789
-7.08871 -1.94572 1.20621
6.98599 4.84098 1.40587
3.83372 7.96463 1.4638
6.05714 -3.32144 1.15088
6.65327 4.88773 1.37673
4.67867 7.19122 1.43141
3.83544 -5.29926 1.09959
7.12597 4.43746 1.41371
7.49293 2.86519 1.35592
6.34034 5.30035 1.40088
-7.27413 -1.25486 1.25699
6.77218 4.0945 1.35932
-6.44773 -2.77059 1.19741
5.51211 -3.63142 1.13402
5.69395 -3.52055 1.1495
2.769 7.89186 1.44639
-7.36743 -1.0388 1.28989
5.3359 -3.78492 1.1405
-6.30787 -2.25855 1.16179
-6.26849 -2.4156 1.17625
4.28069 -4.66421 1.10719
4.49402 -4.47722 1.11289
4.59192 -4.44926 1.12183
-6.79721 -1.73158 1.2356
4.34898 6.52492 1.39913
-7.15486 -0.927672 1.28961
-6.14142 -2.25673 1.16544
6.65786 3.70224 1.36584
6.11807 4.37483 1.3645
3.60756 -5.32583 1.16995
5.16593 5.7055 1.40809
2.52866 7.23675 1.44048
6.50162 3.06002 1.35887
-1.70757 -5.78605 1.14182
6.43372 -1.38754 1.24892
6.28866 2.78482 1.32438
6.23277 2.38707 1.33181
-4.44791 3.93579 1.39611
4.33621 3.54358 1.33973
4.22088 3.30001 1.32669
4.66621 -1.6781 1.24533
4.82046 -1.38143 1.25463
-2.14042 4.79507 1.31137
3.72555 -2.95184 1.22211
3.67173 -2.5486 1.19338
3.40467 -2.96006 1.22532
4.00984 2.5731 1.33174
-2.5958 -3.53584 1.25134
-2.32739 -3.57242 1.21679
3.75854 2.05992 1.30336
3.735 1.9821 1.30273
-2.84091 3.48333 1.38627
-2.29754 -2.42035 1.1877
1.9528 -2.77761 1.21161
-2.12308 2.76637 1.32421
-2.02816 2.75452 1.3304
2.24866 -1.86802 1.22456
2.3784 -1.49716 1.22182
-2.01571 1.87661 1.2957
-2.06525 -1.44343 1.22862
1.44749 -2.06749 1.24438
-1.99309 -1.08803 1.21459
-1.92545 -0.707787 1.22004
-1.92718 -0.70357 1.24563
-1.95616 -0.344396 1.22887
-1.89336 -0.56477 1.22991
-1.89296 -0.530972 1.23499
8.2313 -8.71128 -7.47541
12.1411 -10.3003 -8.81096
-8.73479 15.5912 -6.9337
20.6282 25.1207 -11.6784
-8.79703 -2.51933 -2.5785
-34.3109 -22.9198 -7.62265
-33.9174 -22.1811 -5.97998
-33.6457 -22.865 -6.04145
-31.0603 -19.92 -2.77513
9.29688 -8.85508 -0.392237
-7.62072 16.4266 -0.446908
-29.3633 -11.3626 0.725129
-6.91378 -8.26309 0.460143
16.786 24.104 1.59581
11.4341 16.0807 1.63208
-6.69127 -6.66427 0.882989
4.24531 12.3189 1.50181
8.75132 9.11583 1.47823
7.98767 -8.78055 -10.399
8.85003 -8.55685 -10.5184
6.96969 -11.9581 -11.5339
6.8849 -11.3698 -10.9144
8.16818 -8.28052 -9.5508
7.03417 -12.0488 -11.3447
7.0793 -10.9928 -10.4749
8.01781 -8.39393 -9.22154
6.74019 -11.3051 -10.3072
6.45712 -11.7178 -10.2309
7.77263 -8.86781 -8.98944
6.21727 -14.3415 -11.8284
8.31587 -8.71888 -9.11994
6.31153 -11.9301 -10.1931
6.15818 -12.108 -10.1292
7.50679 -9.46468 -9.0194
7.92507 -9.07367 -8.94405
10.4935 -9.47327 -10.514
6.13035 -14.1354 -11.388
6.11019 -13.6862 -11.0196
6.14227 -12.5981 -10.3084
9.21636 -8.84472 -9.37041
9.30447 -9.09199 -9.48798
5.87556 -12.5267 -10.0509
9.38042 -9.00841 -9.28144
6.87589 -11.1485 -9.29557
5.62565 -12.9917 -10.0199
9.71363 -9.1013 -9.4333
7.62435 -9.36272 -8.48912
10.0199 -9.2074 -9.55977
10.9432 -9.51575 -10.1755
11.4697 -9.72295 -10.0977
8.40222 -8.62583 -7.97218
7.44647 -9.31814 -7.88103
8.18532 -8.73736 -7.9134
7.64423 -9.37157 -7.91207
7.85356 -9.42178 -7.8611
8.33843 -8.55356 -7.63607
0.356852 15.8715 -10.1293
7.54377 -9.34383 -7.64202
10.9375 -9.63055 -9.26549
7.24255 -10.7262 -8.19105
8.17269 -8.51552 -7.44331
4.61959 -15.4247 -10.1262
8.7314 -8.71826 -7.63397
7.93819 -9.05141 -7.42597
4.05384 -18.0369 -11.3873
8.21517 -8.64574 -7.29094
4.08935 -17.3157 -10.8563
0.142898 14.8755 -9.05156
6.66943 -11.2872 -7.98172
7.75865 -9.28703 -7.34245
10.151 -9.33572 -8.36801
6.83569 -11.2756 -7.91556
8.07813 -9.22438 -7.35998
11.2974 -9.72119 -8.91058
5.4115 -13.8826 -8.83664
7.75155 -9.28583 -7.17322
9.37225 -9.05389 -7.72146
6.91787 -11.1399 -7.76078
8.00061 -9.1475 -7.13065
9.77605 -9.20933 -7.82696
14.8974 7.44434 -9.67298
8.68724 -8.85127 -7.16618
6.94797 -10.9879 -7.47121
2.64404 -11.2278 -6.63369
7.87681 -9.09101 -6.88904
9.62794 -9.16176 -7.54937
10.8191 -9.5182 -8.12876
3.27909 -20.5839 -11.7217
6.81505 -11.0043 -7.25611
10.1303 -9.31333 -7.70607
12.3749 -10.3834 -9.05865
9.26135 -9.02781 -7.22686
4.62502 -14.3192 -8.38869
8.02206 -9.23718 -6.79456
14.8203 7.57714 -9.13898
9.72019 -9.1283 -7.32311
0.834165 17.4763 -9.55477
2.74001 -19.8319 -10.9166
11.158 -9.66897 -8.01616
4.24341 -14.4537 -8.15366
14.7333 7.70508 -8.95651
15.131 10.4473 -9.87341
14.0658 7.76011 -8.5845
10.9777 -9.64152 -7.76925
13.3026 -10.8328 -9.12547
3.04203 -19.31 -10.2766
11.3842 -9.84943 -7.6594
2.16808 -20.36 -10.3345
10.2861 -9.36482 -6.99473
14.31 -11.3184 -9.16018
13.8472 -11.2 -8.91546
11.0356 -9.67936 -7.31296
7.52365 -9.35642 -5.94552
3.56657 -8.47623 -4.53195
-8.69353 -1.90878 -4.37592
2.22108 -20.1251 -9.93092
4.53597 -9.30697 -5.06346
0.401266 13.6624 -6.69122
7.62266 -9.28803 -5.86308
-8.4616 16.1448 -8.82669
-9.19293 -2.43024 -4.58155
15.0409 -11.615 -9.13193
19.4398 5.56218 -9.67025
-10.3033 -2.55096 -5.02045
1.9093 -20.5349 -9.80661
17.2844 16.2434 -11.2352
7.59873 -11.2335 -6.39908
20.0959 5.42428 -9.80294
14.0667 -11.1366 -8.34291
2.93475 -17.3583 -8.18544
19.4188 5.74562 -9.35603
17.9048 -13.0482 -10.2332
9.87388 -2.49405 -4.70573
20.3519 5.15845 -9.68735
17.4117 16.3741 -11.0151
1.80876 -20.1917 -9.27807
9.69082 -9.06168 -6.07514
-9.2025 -1.67035 -4.26535
9.4602 -3.47131 -4.58978
6.72705 -11.3399 -5.99693
9.92129 -2.62059 -4.65474
19.3115 5.88873 -9.08986
17.8067 17.6633 -11.2765
9.37605 -3.08863 -4.44369
15.4788 -11.9107 -8.7643
7.05192 -11.5859 -6.06632
7.16423 -10.9361 -5.82721
9.56675 -3.40745 -4.52581
-9.97099 16.3403 -8.52093
17.7138 -12.9276 -9.74432
19.5993 5.64608 -9.04084
16.1552 7.32784 -7.85612
17.9165 18.0975 -11.2639
16.4779 -12.2548 -9.05038
-11.2066 17.0394 -8.96268
-6.54076 14.9437 -7.15086
-5.22718 4.90243 -3.12185
20.201 5.48496 -9.10088
9.56565 -3.40771 -4.38258
18.3159 18.565 -11.2104
15.8711 -12.2134 -8.61706
14.9082 7.45417 -7.1143
3.84275 -9.31188 -4.27985
-11.1327 16.9299 -8.57663
6.95668 -10.9255 -5.46129
-13.559 3.32293 -5.88146
0.743189 -22.3344 -9.41742
15.8521 -12.0024 -8.31492
-5.15483 5.67578 -3.2072
0.997791 -22.1942 -9.31329
1.23249 -20.7664 -8.71499
14.2138 7.62347 -6.74696
18.654 19.4407 -11.2587
3.78621 -8.96272 -4.05736
14.8204 7.75555 -6.96342
18.0169 19.2433 -10.9411
-9.50386 -1.09077 -3.94881
4.00956 -8.50696 -3.85312
14.0808 7.77516 -6.60379
6.85614 -11.0061 -5.30108
-13.5999 2.5405 -5.65949
-7.94327 15.3857 -7.03498
19.3714 21.0501 -11.591
15.1236 7.26703 -6.76117
-5.26433 14.3716 -6.13532
13.9923 -11.0622 -6.98601
1.534 19.3073 -7.52353
-8.72377 15.7534 -6.99647
19.0571 5.81181 -7.72015
-1.75279 13.2603 -5.18021
5.30261 -9.40605 -4.16398
-2.38225 13.4726 -5.25427
19.7139 22.8063 -11.5607
4.66468 -8.52288 -3.68977
19.4863 5.59027 -7.71464
0.873797 -26.3847 -10.0332
14.9504 -11.5207 -7.10276
20.0486 5.4316 -7.77461
9.45084 -3.44331 -3.7608
0.531855 -22.5589 -8.40988
3.25455 -10.8138 -4.21872
20.3229 23.6451 -11.5802
0.909199 -8.71606 -3.24999
14.0665 -11.1398 -6.61608
20.4593 5.20363 -7.76242
17.9814 17.7684 -9.23934
-13.0174 2.28053 -4.8046
20.9881 25.0645 -11.8584
2.29114 -13.2789 -4.85428
13.0682 -10.568 -6.04743
0.794969 15.4676 -5.54256
-8.19467 -2.79646 -3.09704
0.409552 -21.7569 -7.77931
-4.20933 13.8087 -5.13372
0.63761 -21.8583 -7.77143
15.9078 -12.0145 -7.06534
-15.6925 18.1409 -8.45234
5.93693 -11.3539 -4.5048
-10.999 16.5969 -6.95311
0.0943624 -18.4491 -6.48574
14.3044 -11.3363 -6.38171
20.4145 5.3764 -7.36899
0.65665 -22.9622 -7.9337
-5.00467 14.5236 -5.26221
3.64252 -8.45565 -3.16917
4.88186 -9.04272 -3.52139
-14.4693 17.963 -7.89418
2.27731 -10.8954 -3.81441
-8.86733 16.0838 -6.25945
3.03703 -13.7381 -4.79648
-14.9434 18.3403 -8.01904
20.2319 5.50083 -7.04763
22.2209 27.4898 -11.8156
36.3214 -20.5033 -13.9373
-5.29586 14.0428 -4.98342
1.9198 20.8361 -6.94435
1.26768 -10.248 -3.41427
32.665 -20.5345 -12.6878
-5.24407 14.4354 -4.98725
-12.5587 17.1921 -6.90569
18.6375 -13.2809 -7.43138
3.56154 -8.67647 -3.00708
6.22976 -10.1288 -3.81074
2.31484 -11.0124 -3.58099
-4.52589 -34.013 -10.907
-1.13126 -23.734 -7.56414
15.0793 10.3855 -5.7792
-13.1796 17.5369 -6.93306
-17.9396 19.349 -8.29361
2.9982 -9.66932 -3.19413
6.97664 -11.1182 -4.0578
1.38332 -21.8439 -6.77111
-2.55865 -27.2697 -8.40813
7.24279 33.4639 -10.4505
0.770206 15.0601 -4.58119
-11.1066 16.7568 -6.05828
-2.6829 -26.3568 -7.97935
-14.308 17.8888 -6.83409
-5.26418 -34.5328 -10.4018
0.835724 -24.9332 -7.45978
-5.38025 14.7941 -4.68156
2.08763 20.7976 -6.15976
-21.2099 19.7762 -8.55507
18.2757 5.81577 -5.64569
-4.28867 14.399 -4.41653
-7.90801 15.3402 -5.06244
4.26142 -9.15518 -2.96796
4.64617 -11.6409 -3.66466
-12.5983 2.21937 -3.67652
-32.6747 -46.285 -16.304
-15.1553 18.2313 -6.81451
6.97552 -11.1098 -3.77637
2.56595 -9.55334 -2.81055
12.9692 -10.4976 -4.74812
-8.44392 -2.45744 -2.49364
21.2412 27.3956 -9.82325
-8.57094 -2.25898 -2.50466
-2.53367 -25.8663 -7.29469
-13.0039 1.99269 -3.66356
4.39817 -11.3554 -3.37963
-9.28412 15.9652 -5.06941
-13.0217 17.3662 -5.96112
-5.37882 14.3523 -4.18822
-8.43019 -40.949 -11.44
-21.3939 19.9642 -7.86602
-9.70299 16.0886 -5.03416
-26.6073 20.4391 -8.92548
11.4845 11.5592 -4.30041
4.33746 -11.3224 -3.2118
47.4801 -13.8025 -13.098
-8.11442 -38.2988 -10.2914
4.09533 -8.66974 -2.5246
11.1993 -9.96119 -3.92075
-14.4049 18.0357 -6.00126
6.54849 -10.4427 -3.1902
3.18244 -9.65894 -2.62896
-29.8431 -43.7088 -13.6675
-4.32253 -28.3577 -7.4229
3.54783 -10.3915 -2.83114
4.0745 -9.40149 -2.6335
15.6629 -11.7774 -4.99983
-7.12997 15.1882 -4.24591
-31.2822 -41.7191 -13.2239
4.32176 -11.1694 -3.03092
4.26004 -7.71351 -2.24258
6.55132 -10.6862 -3.12579
45.1371 -13.6468 -11.7561
-28.1396 21.2301 -8.71451
-11.4918 16.8828 -5.03396
-27.3932 -39.9614 -11.9133
-9.79675 -38.5643 -9.81594
-24.3754 20.4732 -7.82227
4.35726 -10.3487 -2.75865
-12.0229 17.2208 -5.09166
-7.81881 15.2329 -4.12613
10.2975 -9.28834 -3.32034
40.5457 -13.4683 -10.2231
15.1704 7.58697 -4.03857
-6.25295 -35.8177 -8.66238
3.96997 -9.09717 -2.35184
47.3459 -12.6717 -11.6318
-12.0162 -44.2477 -10.863
4.20938 -9.00676 -2.3716
3.87125 -11.1031 -2.77097
4.91536 -8.70558 -2.35181
-12.7335 17.3521 -5.0083
11.034 -9.66962 -3.35309
-6.14362 -31.16 -7.24763
-27.0237 20.8717 -7.73986
41.7897 -9.13923 -9.70717
-30.3327 22.023 -8.40394
-35.2557 -23.104 -9.44519
40.9798 -12.6681 -9.63011
5.4632 -9.4891 -2.44454
-12.3865 2.82634 -2.78769
40.8557 -11.9728 -9.40593
42.8533 -12.2273 -9.80374
27.7003 39.0141 -10.4816
-5.35566 14.0495 -3.28662
13.4324 -10.8089 -3.79483
38.2832 -12.3029 -8.83954
-23.2786 20.2884 -6.69773
-28.9753 -71.4382 -16.7296
4.31675 -9.71583 -2.30539
4.54601 -9.19416 -2.2153
-14.5188 18.0887 -4.95292
-30.7581 22.3421 -8.11741
-31.6276 22.445 -8.29019
-27.579 -73.173 -16.7635
-10.6447 16.6326 -4.18659
-8.36219 -35.5008 -7.75673
3.19591 -9.70206 -2.1781
3.97393 -9.84834 -2.26419
46.0994 -10.6882 -10.1011
15.0021 7.51443 -3.55766
-15.0893 18.5747 -5.06628
5.17142 -9.06783 -2.19306
26.9203 38.951 -9.89646
-27.5251 -26.9362 -7.99711
15.044 7.87334 -3.52577
-30.0091 -23.1761 -7.86607
-32.2072 -82.5825 -18.3533
40.7494 -10.9663 -8.72674
-11.3977 16.7928 -4.12371
-15.5505 18.3856 -4.9018
-34.9444 23.4572 -8.55218
44.714 -9.75314 -9.33225
-13.0964 -42.1419 -8.97014
4.14281 -9.75055 -2.15532
11.6335 -9.67062 -3.07781
-11.9416 17.1366 -4.16894
-19.6102 -56.2831 -11.913
-12.8406 -39.89 -8.29753
4.07674 -9.9381 -2.12667
-33.9426 -23.2097 -8.10637
-26.5804 20.8614 -6.65008
-32.9819 -23.5924 -7.90511
-6.85227 15.1404 -3.22501
-26.157 -61.4619 -12.9757
-33.395 -22.2321 -7.73142
3.44131 -9.37714 -1.9287
46.1757 -10.6986 -9.1012
-12.683 17.3161 -4.10277
3.99553 -9.35983 -1.94204
-36.2554 -22.0226 -8.03038
-21.1254 -34.3177 -7.66461
-15.398 -44.43 -8.8983
38.1198 -12.5748 -7.58769
-35.6884 23.9694 -8.04558
-33.5228 -23.1516 -7.65377
-32.4807 -23.7642 -7.55516
-21.0298 -52.1004 -10.5728
-16.6876 -45.3293 -8.9609
3.82481 -9.21774 -1.84328
42.8441 -11.5473 -8.23944
5.76804 -9.73031 -2.07296
-24.1817 -54.8331 -10.9729
-20.1947 -50.1261 -9.77528
-14.4798 18.0494 -4.10268
-30.9404 -24.9541 -7.06594
-20.1991 -26.916 -6.01825
-39.0585 24.6465 -8.1488
-26.5879 20.8766 -5.88371
-33.8361 23.1539 -7.11873
3.91671 -10.0682 -1.87316
4.77812 -8.6239 -1.71332
14.0541 7.54753 -2.75183
14.1306 8.10884 -2.79075
-30.6109 22.2598 -6.48853
42.521 -12.0301 -7.52276
42.3098 -10.9579 -7.43968
-31.0979 -24.6976 -6.73705
-20.9345 19.9374 -4.85446
-20.1245 -50.0221 -9.11125
14.9146 7.47527 -2.79837
-31.4738 22.2816 -6.44154
-23.2274 -55.3791 -9.92401
43.866 -11.8172 -7.38364
-10.2874 16.3316 -3.11432
-20.4009 -50.612 -8.70399
-34.7016 -23.9547 -6.64493
-22.6321 19.8843 -4.71737
-24.0174 20.5028 -4.8942
-39.7614 24.0743 -7.20297
-11.1511 16.6896 -3.0983
3.4784 -9.5462 -1.57125
3.87786 -10.2545 -1.6974
-7.56207 15.3374 -2.6114
-30.8351 22.4427 -5.82993
-31.5952 -24.4032 -6.071
-27.8009 -26.0047 -5.76732
42.5035 -11.0496 -6.67487
45.1862 -9.84452 -7.04514
-6.49143 14.4581 -2.37079
9.84621 -5.16113 -1.64999
-33.3116 -24.0261 -6.1168
-25.9936 -65.7263 -10.4836
10.2176 -9.18674 -2.04757
45.3324 -10.4871 -6.90953
-36.4411 -24.2584 -6.44318
-31.3404 -25.8508 -5.94326
-12.5243 -41.4991 -6.37875
16.984 -12.2879 -3.07046
-25.2156 20.7608 -4.74671
-24.3648 -54.5927 -8.61544
-7.56083 15.1432 -2.41979
-12.6289 17.2188 -3.04425
6.05249 -11.5632 -1.86482
-13.322 17.8061 -3.12356
-34.4247 23.2547 -5.84077
6.77741 -11.0706 -1.81411
37.8383 -12.4874 -5.60375
-30.9875 -24.8302 -5.54218
-32.7389 23.5279 -5.5852
-20.3292 -48.9975 -7.32748
45.486 -10.1758 -6.42674
-6.81294 15.0667 -2.25918
-22.2732 -58.1306 -8.45742
7.76669 -9.39907 -1.63621
-13.912 17.7634 -3.04144
13.2586 -10.5748 -2.29458
-22.0735 20.0786 -4.01249
42.4281 -10.9699 -5.81755
45.2056 -9.90193 -6.12485
-22.4558 19.7614 -3.91156
-32.5122 -24.3284 -5.30427
-14.7968 18.1193 -3.02464
-33.7603 22.5333 -5.26981
-38.1387 -16.1037 -5.34567
7.03327 -10.4599 -1.61714
10.8152 8.85487 -1.79525
-33.6248 -23.172 -5.22618
-31.1918 22.7708 -4.88539
-35.3891 -22.0831 -5.22885
42.2856 -10.9358 -5.46546
6.81201 -10.3921 -1.55257
-7.59398 15.1891 -2.10231
-24.839 20.8569 -3.9717
-33.124 23.3449 -4.99899
6.31477 -12.1108 -1.66375
45.1562 -9.63404 -5.65501
15.0608 7.89051 -2.04456
-17.7623 -43.02 -5.61269
7.1037 -10.5577 -1.53206
-20.4504 9.06341 -2.64778
-14.1452 -42.7894 -5.2996
-31.6802 -24.4249 -4.6778
-31.1678 -24.9263 -4.6705
42.3734 -11.3506 -5.15538
11.2606 -9.69746 -1.7216
-29.6497 22.4818 -4.28118
6.65904 -10.85 -1.45731
7.50303 -9.23759 -1.36125
11.6149 -9.75049 -1.72236
9.46264 -4.61632 -1.19231
15.0384 7.72785 -1.90585
-10.2733 16.3549 -2.17953
-31.9232 23.3266 -4.42957
39.1615 -12.8916 -4.62311
9.37698 -9.04259 -1.44114
-10.9868 16.4778 -2.15282
6.81736 -12.8348 -1.57409
45.3 -9.84532 -5.02515
10.8144 8.88692 -1.50899
16.8404 -12.5095 -2.25133
42.5725 -11.0415 -4.71229
9.64016 -8.99842 -1.39708
8.39437 -8.47965 -1.24994
-30.7369 -24.5966 -4.09949
-29.6938 -59.5601 -6.94321
15.0347 7.54015 -1.71874
-31.6228 -24.3832 -4.09738
-12.7647 17.401 -2.19126
-12.6867 16.9972 -2.1082
10.2311 -9.10898 -1.3419
-20.5459 -52.1793 -5.49827
6.33846 -12.1384 -1.32525
16.708 -12.2239 -1.9898
42.4617 -11.4101 -4.21418
-30.202 -61.0499 -6.47527
-20.497 -53.7905 -5.46721
-23.1459 20.2455 -2.87498
46.0168 -10.237 -4.40277
9.73795 -9.0069 -1.22788
40.0067 -13.1973 -3.92521
-14.9128 18.2806 -2.13658
-29.5752 -13.4842 -2.96317
-31.7819 -61.9565 -6.41877
15.9171 -11.9138 -1.80849
8.65299 -8.74416 -1.11394
12.9309 -10.6738 -1.45998
45.6001 -10.5694 -4.00949
9.4222 -9.04751 -1.09803
10.9795 -9.66881 -1.22965
-33.8673 23.2584 -3.41935
16.9092 -12.3308 -1.73323
-16.7206 -43.5102 -3.73374
14.7341 -11.5211 -1.49136
-11.6267 -32.5495 -2.72834
-29.5803 22.4916 -2.87418
-32.8136 23.194 -3.10258
-22.3966 -51.1601 -4.31179
-50.5839 27.5301 -4.36174
-21.234 19.9846 -2.12146
-33.0397 23.3701 -2.93347
16.4439 -12.2868 -1.5015
42.4916 -11.3709 -3.20429
-38.5113 -72.8671 -5.94811
14.0216 -11.094 -1.27949
-15.3738 -40.7828 -3.00835
10.7934 -9.63923 -0.991411
-23.1686 20.2863 -2.08019
12.9094 -10.6523 -1.1203
18.0297 -13.0768 -1.4847
16.1041 -12.1809 -1.3334
-14.4937 -40.1853 -2.76353
44.283 -11.517 -2.85972
-31.2858 -63.3902 -4.31389
36.0867 -8.7547 -2.27868
43.4316 -9.94082 -2.73498
6.07542 -13.1328 -0.864784
31.1467 -20.6097 -2.2345
-9.75737 16.2886 -1.11634
-15.3853 -40.1338 -2.44752
16.6768 -12.4633 -1.16883
-9.66478 -12.5288 -0.867238
15.0273 7.70955 -0.913403
13.9476 -11.041 -0.952477
-12.6888 17.1954 -1.11647
-16.2818 -40.3559 -2.31118
14.9215 7.84623 -0.826486
-16.102 -41.1589 -2.1686
-14.0438 17.8006 -1.08459
9.58643 -9.04257 -0.604408
-23.6021 -54.1404 -2.6725
12.4878 -10.266 -0.749396
-15.7876 -44.0094 -2.07584
-17.0029 -41.8918 -1.93559
6.88217 -12.7081 -0.641116
-13.7288 -41.85 -1.87614
-51.9621 28.259 -2.39701
18.4188 -13.2326 -0.920272
16.8704 -12.5397 -0.818522
-40.5012 -78.6091 -3.33595
-17.9645 -47.1089 -1.85682
-33.3433 22.9101 -1.48023
42.9744 -11.0729 -1.59766
-33.7903 -67.2149 -2.51682
-25.4415 -55.755 -2.06333
20.3398 23.5241 -1.03297
-21.2768 19.9385 -0.95049
8.15472 -14.3926 -0.555513
9.44202 -9.01389 -0.423122
11.3298 -9.97427 -0.490614
18.6753 -13.2049 -0.751555
35.0822 -13.2319 -1.24402
22.1818 26.851 -1.11719
-27.2759 -13.6814 -0.956693
-22.7241 20.236 -0.927772
-31.4272 22.2584 -1.20243
-24.5472 -56.4347 -1.90594
-13.6474 -38.6082 -1.26127
-21.1476 -53.9451 -1.75426
-16.3872 -44.4128 -1.35617
-33.838 -20.5167 -1.05419
11.4792 -9.73829 -0.403221
16.4023 -12.1998 -0.538775
-40.6376 25.14 -1.26087
-30.0248 22.8462 -0.93394
-30.5448 22.3857 -0.895822
9.5888 -9.02677 -0.305048
-41.0251 14.1794 -0.959963
-30.9931 -51.8985 -1.36138
21.3758 -14.2962 -0.565102
30.7214 -18.6286 -0.810624
14.2711 3.94396 -0.302097
27.9446 48.8326 -1.03493
23.6563 -11.0133 -0.459407
47.5966 -10.9601 -0.908156
-30.4741 -21.8997 -0.684443
-29.3893 -28.8661 -0.653284
-18.724 -45.9442 -0.826054
12.7588 -10.492 -0.271721
18.6055 -13.4443 -0.350676
-29.1529 -12.9577 -0.419038
-32.6358 -24.4238 -0.567288
-32.7064 -65.9335 -0.993428
-27.244 -57.984 -0.877681
-33.734 -23.0384 -0.533488
-30.0421 22.8558 -0.444954
17.0684 -12.7463 -0.252832
29.5226 -18.3055 -0.40852
-30.5055 22.3954 -0.421899
-18.8514 -43.2347 -0.504506
-11.8901 -35.7883 -0.379665
-32.856 -57.8917 -0.61311
-14.212 18.0277 -0.17652
-26.6099 -13.4159 -0.240785
-14.8973 18.1598 -0.160968
-22.3904 19.9967 -0.154946
-20.8422 19.5494 -0.130433
-10.535 -13.5436 -0.0602989
14.7888 7.76895 -0.0202585
11.1373 -9.79339 -0.00775399
-34.3131 -18.7939 0.0595323
-11.2289 -33.3723 0.114806
17.0266 -12.3704 0.0914685
-18.5806 -42.6576 0.207028
18.866 -13.2926 0.122727
7.20195 -12.3801 0.104554
26.1456 -10.727 0.174042
-54.7912 19.5643 0.554051
16.3135 -12.0901 0.193989
37.7316 -7.70345 0.363706
-28.9724 -8.16952 0.351885
-36.0723 -21.7725 0.464566
-11.2265 -32.1653 0.36562
-53.7637 29.4659 0.748957
-12.5851 -34.8739 0.44163
-10.1924 -31.3294 0.395509
6.35735 -12.9946 0.184694
7.23413 -11.1447 0.174732
-27.9593 21.9472 0.543738
11.3435 -9.90678 0.226487
-23.939 20.4722 0.519447
10.9287 -9.75803 0.230009
13.0132 -10.7129 0.265647
36.667 -7.84734 0.624174
-34.3577 -23.019 0.752165
-30.9815 22.152 0.747305
6.16874 -12.8887 0.277278
7.04165 -11.0816 0.252977
8.0429 -9.43785 0.24218
28.1545 57.8925 1.39979
7.74487 -9.46319 0.276495
10.1529 -9.19597 0.33053
-28.7094 -9.2059 0.726023
-23.1423 20.1998 0.830652
-27.3682 21.5799 0.934901
-28.8381 -8.65904 0.793227
9.20895 -8.91411 0.346262
9.64528 -8.96461 0.358983
-25.3927 21.4013 0.901812
25.4892 -5.15653 0.724245
13.0229 -10.6834 0.501861
14.9593 24.3699 0.882082
6.21509 -12.8215 0.44837
7.48029 -11.6606 0.43477
-28.3693 -8.00101 0.966909
-12.5675 -19.2422 0.757241
-28.0548 -8.76847 1.01605
16.1846 11.0776 0.708815
-29.7003 -18.4041 1.22119
15.9391 27.6878 1.14003
-30.3205 -16.5389 1.27975
23.6302 -4.26703 0.867717
-27.7163 -19.7123 1.26022
-7.29123 -7.9499 0.407027
9.06965 -8.84429 0.470929
12.4931 13.6663 0.713885
26.5839 54.8407 2.30793
25.424 54.1305 2.25181
-11.5426 -9.1364 0.580381
8.73972 -8.68533 0.487446
-25.4836 20.9925 1.33984
21.9153 -2.97014 0.896131
-28.6866 -17.4242 1.37489
9.43373 -8.94505 0.533064
12.5219 14.4217 0.821677
6.6005 -12.5 0.60026
14.9594 19.4374 1.07827
20.9863 28.9877 1.56731
-9.47695 -13.7795 0.735085
-9.95683 -15.572 0.820499
7.61745 -10.9789 0.588749
8.64019 -8.72983 0.555082
24.2835 -3.72004 1.10939
-29.762 -8.67304 1.41477
6.76002 -11.1134 0.5985
-8.26824 -8.13689 0.545887
21.6762 43.7344 2.33523
-28.4499 -17.5831 1.58083
-9.75015 -13.6764 0.799429
9.6805 -8.98184 0.622006
15.7686 43.8203 2.25431
-30.1457 -13.3524 1.57352
-6.75933 -8.24057 0.5244
14.7445 34.289 1.90452
-29.6424 -11.608 1.5974
-7.58947 -6.97873 0.521094
-6.69742 -7.59221 0.512096
16.2915 29.5122 1.75037
10.5855 12.3778 0.880168
14.3093 19.4726 1.29745
9.36326 -8.94296 0.693766
14.8998 19.3867 1.35008
15.3922 23.7731 1.55946
-27.3459 19.2544 1.83263
