ply
format ascii 1.0 
element vertex 1862
comment /media/mkaihara/Seagate Backup Plus Drive/model_iterations/model_119.ply
property float32 x 
property float32 y 
property float32 z 
end_header 
18.0817 -12.9788 0.464903
10.4696 -9.20663 0.297686
10.3772 -9.21341 0.344525
-8.24688 -9.78411 0.361436
10.4969 -9.24481 0.415188
13.4627 -10.7529 0.533061
10.339 -9.42532 0.459909
13.1757 -10.6188 0.558359
-9.30909 -13.1392 0.598846
10.4797 -9.44115 0.525906
13.1694 -10.5527 0.665473
-30.676 -17.1145 1.42056
-32.6146 -18.8617 1.53242
9.51688 -9.09047 0.556037
-29.4511 -17.5845 1.50259
21.8343 43.2863 2.15102
9.58394 -8.92447 0.581075
10.4463 -9.35254 0.665279
12.2427 -10.2231 0.745773
-6.18923 6.66262 0.450223
-6.89565 -8.18771 0.536412
-7.15833 -9.2883 0.577621
-28.6246 -11.2918 1.61305
-6.85419 -8.49086 0.563652
11.8065 11.653 0.881907
16.2374 24.2457 1.55018
15.6799 23.743 1.49596
8.86311 -8.61227 0.663564
8.64691 -8.5555 0.669563
14.4974 24.8723 1.60066
-28.956 -8.68407 1.68627
-7.55265 -8.04873 0.620721
10.36 -9.34891 0.802101
-6.78334 -8.23184 0.639238
-6.74375 -8.47199 0.651284
-7.58739 -7.98363 0.68347
-6.92086 -8.25522 0.674559
9.53033 -8.86162 0.815005
10.4386 -9.33863 0.878869
10.399 12.1572 1.0413
-7.36192 -9.53739 0.79473
12.349 18.7485 1.51575
12.8571 20.5233 1.6304
9.03218 22.4647 1.68569
-7.11923 -8.32754 0.760417
-7.12146 -7.63993 0.742504
9.49292 -8.83188 0.920323
11.2604 11.838 1.2105
11.6518 16.5638 1.52388
12.4746 11.4121 1.29997
12.7478 11.3544 1.33036
12.1564 11.4628 1.30133
11.9351 11.5894 1.31763
-7.24247 -9.41089 0.941334
11.5016 11.8366 1.32928
-7.38166 -6.15049 0.759795
-7.07828 -8.12091 0.867334
-6.77852 -8.3275 0.864988
-7.28773 -6.26171 0.765764
9.23137 -7.56469 0.98912
-7.38174 -8.12743 0.914392
-7.41677 -9.92814 1.03562
-7.30634 -7.89489 0.904834
9.17113 -6.94812 0.974258
11.5444 11.813 1.40474
-6.3673 -4.34034 0.660098
-7.09658 -8.38256 0.946609
-6.85213 -8.43309 0.96541
8.972 -6.84279 1.00657
8.19593 -7.11682 0.976017
5.92876 -5.90345 0.772545
10.7312 11.0081 1.47297
-7.04146 -5.74076 0.867635
10.6972 9.24306 1.37431
-7.17561 -5.72556 0.895584
7.72399 -6.55894 0.997175
10.9859 9.75795 1.45292
10.8462 9.0284 1.41776
9.50785 11.4389 1.48983
-6.51578 -6.51097 0.923595
-6.88118 -4.52121 0.834082
-6.98966 -7.32952 1.02633
10.7062 9.02769 1.44906
10.061 9.39269 1.41131
9.23042 10.0419 1.42537
-6.86581 -4.46155 0.862977
-7.15031 -5.68288 0.976934
-7.12154 -5.7227 0.97576
-6.92647 -4.63493 0.910055
-7.07221 -5.5119 0.974948
8.62731 10.2009 1.48448
-6.90454 -3.43394 0.8645
-6.97794 -4.35349 0.917504
-6.85083 -3.49397 0.864065
-6.89409 -3.57846 0.871141
-6.90038 -4.23746 0.911173
-6.92158 -4.40856 0.926504
-6.92156 -4.49438 0.929221
8.69191 8.75936 1.39769
-6.9592 -3.85729 0.912859
-6.92364 -4.07488 0.910634
-6.92312 -4.15867 0.91835
5.84512 -5.77195 0.949358
-6.93594 -3.41963 0.901332
-6.94715 -4.37679 0.953011
-6.91667 -4.44841 0.954632
-6.91034 -2.83262 0.875977
-6.89166 -3.6205 0.911633
-6.97677 -4.13901 0.954771
-6.92308 -4.20781 0.949452
8.46829 8.00963 1.38318
-6.92603 -2.98573 0.910108
-6.90413 -3.974 0.956902
-6.88719 -3.65956 0.947142
-6.93108 -4.1308 0.98831
-6.91689 -4.31469 0.999606
-6.47691 -5.36518 1.02837
6 -5.94907 1.03243
-6.91564 -3.75586 0.975888
-6.91393 -3.92073 0.987462
-7.02036 -4.74607 1.05735
-6.94349 -4.39288 1.03711
-6.8756 -3.48206 0.976623
-7.08817 -2.17289 0.947708
-6.89287 -3.08571 0.969038
-6.91161 -3.16339 0.978229
-6.15175 -5.49243 1.0748
-6.93279 -3.23389 1.00056
-6.3866 -4.3671 1.01948
-6.80449 -3.78806 1.03227
-6.89179 -4.18904 1.07033
-7.05921 -2.13762 0.98555
-7.00918 -2.33846 0.994438
-6.91516 -3.26993 1.02205
-6.91438 -3.54308 1.04031
-6.92209 -3.39711 1.05349
-7.04049 -2.16376 1.0238
-6.93846 -3.18296 1.05717
-6.90825 -3.26665 1.05672
-6.85575 -3.65348 1.0725
-6.91193 -2.94858 1.0506
-6.87717 -3.41405 1.07185
-6.89247 -3.75831 1.10458
-6.94184 -3.23944 1.08357
-6.00876 -4.49462 1.06789
-6.89634 -3.58823 1.11675
7.65706 6.31552 1.4347
5.16736 8.28596 1.41252
-6.90004 -3.49637 1.12017
7.29177 -3.51852 1.17518
-6.89204 -3.28256 1.11407
-6.8885 -3.39439 1.12016
-6.87222 -3.20365 1.11574
-7.17474 -1.75566 1.08899
-6.92384 -2.94506 1.1177
-6.9293 -3.03253 1.12218
7.09987 5.58944 1.39909
-6.38272 -2.28705 1.0521
7.03508 5.15307 1.39172
-7.02189 -2.41345 1.19478
-6.46881 -2.82303 1.15152
3.7625 7.88475 1.44007
-6.31621 -2.26367 1.11413
-6.48555 -2.29202 1.17204
-6.15393 -2.28208 1.14352
2.5417 7.34696 1.47424
7.82048 -8.50994 -10.1593
7.94798 -8.79278 -10.3737
7.68024 -8.73678 -10.1225
8.17798 -8.30988 -9.98768
6.93138 -11.4498 -10.9677
8.13027 -8.25749 -9.50867
6.93476 -11.8639 -11.1583
8.00834 -8.39448 -9.22094
7.95289 -9.146 -9.43695
8.22266 -8.68184 -9.2984
7.84226 -8.96772 -9.08662
8.28232 -8.69064 -9.11005
6.31285 -13.9581 -11.4352
7.47338 -9.40131 -8.97666
7.91024 -9.06376 -8.90712
6.20904 -14.3193 -11.4965
6.25043 -12.8421 -10.4967
9.20785 -8.81223 -9.33352
9.19337 -8.96852 -9.34811
5.94792 -12.6993 -10.1767
5.88531 -13.0706 -10.2652
9.34041 -8.96937 -9.26621
9.19741 -9.01169 -9.14701
6.89982 -11.1726 -9.31638
5.59894 -12.9272 -9.97022
6.49528 -10.9761 -8.77319
11.7225 -9.94746 -10.3217
8.23004 -8.61342 -7.88512
7.42126 -9.25826 -7.82613
8.23352 -8.76839 -7.93534
9.14647 -8.77126 -8.3442
7.59501 -9.31288 -7.85005
12.062 -10.0742 -10.2292
4.66059 -15.7818 -10.6407
9.16748 -8.80937 -8.1765
5.0018 -15.3324 -10.3979
7.7473 -9.2904 -7.74363
8.23988 -8.46104 -7.55233
0.355683 15.6977 -10.0138
4.73257 -15.1162 -10.0855
10.863 -9.55372 -9.2005
7.90618 -9.0662 -7.62472
8.15203 -8.48503 -7.42619
4.71333 -15.7473 -10.3276
-0.390497 13.6195 -8.5195
8.82527 -8.79149 -7.69342
4.22414 -18.6788 -11.8274
7.90939 -9.04592 -7.41931
8.25852 -8.56139 -7.34597
4.2573 -15.396 -9.78434
8.21049 -8.63181 -7.28472
4.24486 -18.1456 -11.3666
0.158106 15.0633 -9.17503
3.75311 -17.8367 -11.0326
4.17137 -15.7495 -9.85244
7.0396 -10.8093 -7.74268
8.04294 -9.19966 -7.34083
4.19451 -16.5716 -10.1885
8.28257 -8.65815 -7.13891
9.39536 -8.98708 -7.74897
7.00763 -11.0516 -7.78363
7.72039 -9.25383 -7.15388
9.04797 -8.80186 -7.4807
7.98935 -9.15475 -7.11115
8.56909 -8.76287 -7.15478
9.6817 -9.13946 -7.76117
6.76024 -13.3101 -8.61908
9.23008 -8.9621 -7.43076
5.78464 -13.3468 -8.39635
6.87722 -10.8557 -7.40757
9.54296 -9.09275 -7.50672
11.9054 -10.211 -8.85616
10.7667 -9.46306 -8.06468
6.87506 -11.0928 -7.32644
9.12684 -9.07217 -7.21711
9.24191 -9.00997 -7.21767
12.5799 -10.5016 -9.1542
4.64712 -14.3524 -8.43379
10.1806 -9.36875 -7.7348
8.51735 -8.69597 -6.77614
2.74411 -17.3229 -9.67595
14.701 7.51845 -9.02681
2.71162 -19.9003 -10.9245
2.42529 -8.79034 -4.94593
2.97446 -19.895 -10.8701
14.6714 7.64118 -8.88251
2.36423 -20.2152 -10.8091
10.9338 -9.58932 -7.73742
9.76508 -9.01877 -7.04036
14.8617 7.45734 -8.79906
2.36089 -8.80864 -4.82012
1.65773 -19.8464 -10.2869
2.3877 -20.8748 -10.7773
13.8849 -11.0944 -9.10881
-9.31694 -2.61122 -4.92592
11.312 -9.79631 -7.60109
2.17321 -20.2965 -10.2876
0.855203 17.4845 -8.70487
10.9671 -9.62181 -7.27423
-8.88676 -1.95485 -4.4638
2.21264 -20.2437 -9.99926
3.84879 -9.18147 -4.89047
11.2316 -9.63799 -7.24649
1.99658 -19.9207 -9.7861
-8.47831 16.2739 -8.9001
2.50283 -11.2005 -5.49169
1.99558 -21.14 -10.1115
14.8222 7.57651 -7.85873
17.2181 16.1254 -11.1559
17.5673 16.8313 -11.3024
14.2959 -11.3052 -8.45259
9.79032 -2.60603 -4.69631
17.1473 16.1381 -10.8793
9.73799 -2.46467 -4.64719
-10.39 17.0623 -9.10854
-9.59183 -2.07828 -4.45143
9.83922 -2.60333 -4.61987
10.1685 -2.39444 -4.73198
9.74639 -2.97309 -4.61212
-5.41572 4.46491 -3.16537
8.07282 -8.3088 -5.22402
17.6992 17.2449 -11.0941
17.5721 17.4159 -11.1204
19.0989 5.80982 -8.95542
7.12702 -10.8789 -5.79489
20.2198 5.30882 -9.2888
9.54747 -3.41653 -4.50868
-10.0316 16.4918 -8.57429
-5.36786 4.9196 -3.22655
19.2009 5.54695 -8.83468
-11.4668 17.4842 -9.20374
17.843 17.6971 -11.0178
-6.61348 15.1667 -7.26584
9.57468 -3.59423 -4.45702
19.9611 5.40937 -8.96674
17.9776 18.2387 -11.0399
17.7703 18.3857 -11.0195
14.7885 7.56803 -7.08056
3.85491 -9.33827 -4.28291
-11.4018 17.3471 -8.77385
-13.5413 3.31676 -5.87759
1.26328 -21.4798 -9.01695
3.24851 -10.1826 -4.4721
14.1136 7.60226 -6.70246
18.5388 19.3519 -11.2094
3.86311 -9.17057 -4.14462
14.7341 7.68216 -6.89256
18.2179 19.4193 -11.0559
13.9496 7.70508 -6.55346
3.99815 -8.46695 -3.83884
6.76038 -10.8314 -5.23056
-13.4696 2.53366 -5.6103
14.8927 7.46386 -6.78979
-8.12931 15.7318 -7.20168
1.19059 -10.61 -4.33667
0.756776 -21.7791 -8.82601
-13.0251 2.35923 -5.32648
-9.34081 -1.44218 -3.77399
-5.09905 5.65915 -3.02125
2.83331 -11.7542 -4.76946
14.1416 -11.1574 -7.04298
1.51809 19.0451 -7.42294
3.93457 -13.1325 -5.3008
18.888 5.77415 -7.61184
0.886394 -26.4026 -10.0863
4.74459 -8.66637 -3.75057
11.6825 -10.1145 -5.8726
19.2444 5.54147 -7.59105
19.9243 23.6201 -11.5383
19.8306 5.38578 -7.66708
20.2225 23.5694 -11.5707
3.2571 -10.8267 -4.21899
-13.279 17.8854 -8.22138
11.8473 -10.0543 -5.71402
20.2199 5.16184 -7.6503
20.7955 24.8595 -11.772
-8.19378 -2.82528 -3.14027
19.1655 5.68581 -7.19729
2.27962 -13.2269 -4.82969
0.810948 15.715 -5.63915
-4.34091 14.1577 -5.28231
-8.24802 -2.80848 -3.10908
6.72599 -10.5037 -4.42881
-16.268 18.7985 -8.79044
15.8772 -11.9894 -7.04954
-11.2775 17.0036 -7.13489
19.2057 5.85544 -6.97215
3.71411 -8.66232 -3.25104
-8.95335 16.2848 -6.32573
2.98047 -13.4511 -4.70003
18.8072 -13.4536 -7.91221
33.6825 -20.8686 -13.4696
-15.1932 18.6138 -8.11197
19.9412 5.41818 -6.92783
36.5245 -20.6261 -14.0103
40.0694 -19.7203 -14.8863
16.3506 7.33399 -5.96935
3.44585 -10.2539 -3.60727
1.34819 -10.9248 -3.63888
-6.36348 15.1865 -5.37246
-12.9139 17.7141 -7.137
15.6866 -12.0555 -6.43739
6.03485 -9.83272 -3.70861
3.33862 -10.1307 -3.42084
-1.14803 -24.0129 -7.67745
2.32464 -11.0308 -3.59139
3.22955 -10.0525 -3.34633
2.82596 -9.03899 -2.98679
13.566 -10.727 -5.43659
-18.2813 19.7621 -8.43141
-8.72673 -2.65803 -2.85739
1.37114 -21.5494 -6.66756
19.495 25.2387 -9.61042
3.22111 -9.86015 -3.12774
3.45101 -8.98003 -2.89563
-14.6115 18.2758 -7.00174
-21.7706 20.3034 -8.81854
-8.08515 15.7256 -5.20467
4.76462 -11.9699 -3.77466
4.1477 -8.91681 -2.89138
2.06523 20.3859 -6.01527
-4.40214 14.814 -4.52922
4.05517 -8.95386 -2.87416
-15.5488 18.7082 -7.01671
-33.2284 -47.4845 -16.5768
7.11522 -11.0795 -3.75716
2.54509 -9.4774 -2.78231
-8.4254 -2.20695 -2.45555
4.42874 -10.9935 -3.34205
-2.50254 -25.2236 -7.1014
-9.43076 16.2648 -5.17987
4.35212 -11.2312 -3.32136
8.55814 -8.34756 -3.28523
-13.3079 17.7325 -6.07028
44.8666 -14.8755 -12.8866
-8.74578 -2.44628 -2.45913
-24.8854 20.8873 -8.78932
3.2407 -9.96158 -2.83139
3.39209 -9.96518 -2.84365
-4.34438 -31.2182 -8.46065
-27.344 20.9714 -9.18701
42.0394 -13.8701 -11.7009
45.2326 -13.0937 -12.4602
-8.74981 -39.3728 -10.6246
-8.5421 -40.2729 -10.8493
-14.7073 18.4314 -6.12089
9.80757 -8.91886 -3.46514
11.2732 -10.01 -3.91681
-10.8212 16.8865 -5.19033
-4.37466 -28.6685 -7.53232
3.25704 -9.84739 -2.68167
3.51328 -10.281 -2.81205
-26.7509 21.2076 -8.75723
4.26611 -11.0258 -2.99166
4.394 -9.66037 -2.67734
9.44376 -9.13281 -3.31212
6.88868 -11.3192 -3.32617
-27.7526 21.4144 -8.75938
43.2829 -12.599 -11.2495
-11.7199 17.2689 -5.18118
11.7605 -10.1274 -3.83656
3.3583 -10.2157 -2.64649
-25.0062 21.006 -7.99044
9.93838 -8.97539 -3.2221
-7.98547 15.5812 -4.20466
4.03156 -11.912 -3.03096
14.9833 7.52545 -4.01154
3.37113 -11.0808 -2.77739
3.16096 -9.85918 -2.46792
-6.92968 -39.6205 -9.57073
-11.5521 -44.3709 -10.8685
3.96306 -9.0797 -2.34352
-29.4935 22.0415 -8.69943
14.7942 7.57187 -3.89147
-9.60997 16.6022 -4.50694
3.91191 -11.2795 -2.81091
-13.0604 17.8073 -5.16232
-26.9705 21.401 -7.99677
3.47618 -10.2988 -2.49279
10.9957 -9.43989 -3.34466
15.5565 -11.7275 -4.46347
-38.366 27.146 -10.7486
-12.9427 -45.0529 -10.6819
10.8667 -9.50154 -3.30257
-12.2153 -43.901 -10.3358
-6.30644 -31.9752 -7.41495
40.1256 -12.405 -9.51832
-27.5896 21.3141 -7.86732
14.6217 -11.347 -4.16229
-31.4303 22.8311 -8.7182
4.44561 -5.79994 -1.64026
5.28231 -9.15706 -2.36567
-29.7242 -76.6779 -18.1807
-9.81639 16.435 -4.21806
4.09652 -9.75311 -2.32837
13.3832 -10.7959 -3.79159
3.99873 -9.15628 -2.19757
40.4962 -11.9759 -9.24936
-23.9625 20.8879 -6.93335
3.38686 -10.0789 -2.28191
4.3863 -9.874 -2.33819
14.8676 7.47342 -3.57394
-29.5408 22.1041 -7.93207
-21.6869 -34.3835 -8.73284
-8.55718 -36.2362 -7.96198
-24.9071 21.0073 -6.94387
-31.7202 23.0396 -8.34435
3.23946 -9.90409 -2.22419
4.86348 -8.84499 -2.14076
14.6813 7.66603 -3.50458
4.21744 -10.458 -2.40015
41.1554 -10.7252 -9.01369
-10.7285 16.8071 -4.20814
4.32903 -9.12898 -2.11946
5.14561 -9.02733 -2.17726
14.6888 7.39108 -3.4252
-38.9862 25.6725 -9.71745
-27.6278 -25.6172 -7.78747
3.02339 -9.46165 -2.06489
-29.2103 -30.8022 -8.74575
-20.1836 -31.5152 -7.70545
3.8464 -9.31168 -2.07911
3.73167 -8.72305 -1.94747
-15.9056 18.8092 -5.04312
-26.0546 -69.0584 -15.1473
3.98149 -8.76689 -1.96914
-14.0537 3.07449 -2.9394
-34.0322 -24.0519 -8.49781
-29.2485 -80.7899 -17.4863
-11.5654 -37.2407 -7.92901
43.2592 -9.44742 -8.99517
14.838 7.58041 -3.33798
-17.9961 -23.8397 -6.0018
12.2865 -10.0405 -3.19129
-19.6393 -56.1796 -11.8756
4.16806 -10.724 -2.29514
-12.2538 17.5722 -4.25692
-26.6619 20.9789 -6.72564
-35.9739 -21.2961 -8.31059
-32.685 -25.5261 -8.2186
-9.47233 -36.7179 -7.54891
14.4518 -11.3939 -3.64672
4.02033 -9.80171 -2.08869
3.21809 -9.83731 -2.02936
-36.377 24.0363 -8.47374
-24.0882 -57.9993 -12.1366
-16.5078 -47.6639 -9.61801
3.48184 -8.88963 -1.8286
-20.6054 -33.3716 -7.44559
-32.4754 -25.3449 -7.76714
-29.4594 -26.159 -7.41575
-22.7825 -56.2964 -11.4875
3.87592 -9.06804 -1.87842
-17.2297 -46.992 -9.36528
3.43555 -9.20432 -1.81415
-32.9479 -24.5918 -7.48406
-31.7609 -27.2324 -7.62449
-33.6658 23.7017 -7.42238
-20.9279 -51.777 -9.96287
-31.7189 -25.5512 -7.16338
-25.4249 -65.8285 -12.429
-34.9553 23.262 -7.35246
-17.1453 -48.3485 -8.99312
3.39666 -9.54821 -1.77157
14.0044 7.77229 -2.77692
-29.2983 -25.6787 -6.77539
3.46627 -9.49362 -1.75292
4.78949 -8.64152 -1.71235
-27.3623 21.4824 -6.01224
-31.339 22.7934 -6.6843
-31.5383 -29.049 -7.39808
3.87837 -9.98086 -1.84787
13.858 7.47057 -2.70451
-24.4883 -56.266 -10.4343
-21.0116 19.9918 -4.89462
-31.9761 -25.4155 -6.92597
-20.4199 -50.6261 -9.25486
5.58544 -11.7037 -2.19011
41.6973 -11.7766 -7.34634
-18.8087 -50.1962 -9.02344
40.8505 -10.6286 -7.10122
4.9836 -10.6945 -1.9645
-10.5374 16.7539 -3.21227
-30.7551 -23.8074 -6.33772
42.0705 -11.298 -7.08975
-22.5165 20.4541 -4.93476
-21.1531 -52.332 -8.96296
-23.3219 20.5057 -4.89884
-24.566 20.942 -5.02295
-33.5884 23.6602 -6.35706
3.80261 -10.0729 -1.65485
-32.5746 -25.1869 -6.29357
-14.1965 -42.8276 -6.92972
-31.7033 23.0721 -5.96106
-23.6197 -56.8452 -9.37308
-7.79341 15.7821 -2.65521
-33.8333 -23.7766 -6.22999
-33.0947 -24.3306 -6.22364
-28.1843 -26.4443 -5.81589
-33.6954 -24.2516 -6.22648
-31.8334 -25.482 -6.09518
-35.3154 -23.588 -6.30389
-25.2873 21.2274 -4.86765
-33.624 -25.1618 -6.18868
-32.5692 -24.6638 -6.03276
-25.9692 21.3995 -4.92329
-12.8893 -42.7114 -6.53869
-12.8085 17.5212 -3.12744
-7.80571 15.6175 -2.4909
3.4993 -9.53527 -1.44544
38.0182 -12.5035 -5.69309
-33.9651 -25.0197 -5.96733
-31.0478 -24.6756 -5.58123
-30.531 -25.7507 -5.62401
-21.2167 -51.1212 -7.71217
-6.9657 15.4357 -2.30022
-14.2191 18.1671 -3.13024
-12.0772 -42.2747 -5.98595
-7.54914 15.3008 -2.2922
-25.3762 -66.0583 -9.57304
-22.7707 20.708 -4.09954
-25.577 -57.972 -8.41856
-31.7876 -24.5384 -5.30045
44.799 -10.323 -6.04649
44.1864 -9.71352 -5.96054
-13.845 -43.0257 -5.9395
6.606 -10.8872 -1.67519
-15.2517 18.6811 -3.13926
-23.1805 20.4165 -4.00473
-33.1174 -24.7236 -5.32038
10.6577 8.74116 -1.77872
-34.2969 23.582 -5.34424
-30.2497 23.0185 -4.79198
-31.3956 -24.5803 -5.03009
-13.0711 -37.1881 -4.98386
9.63131 -9.01409 -1.64634
12.7219 -10.397 -2.0688
-34.4348 24.1563 -5.25992
-36.6266 -22.8184 -5.3743
-31.065 -25.6767 -5.00775
6.74951 -10.265 -1.53351
-33.4179 -23.6208 -5.07092
-14.0211 -43.7428 -5.64949
13.1097 -10.9288 -2.09551
41.3143 -10.7376 -5.27146
-16.4404 18.9267 -3.06489
-16.3039 -39.5176 -5.22546
-8.8966 15.9054 -2.22053
43.1501 -9.93983 -5.36236
14.9067 7.78166 -2.0192
9.37823 -8.89867 -1.54357
-34.2397 -23.8894 -4.95052
-18.1512 19.7277 -3.13731
-20.9744 9.2817 -2.71788
-32.2068 -24.934 -4.80365
11.2334 -9.66338 -1.73521
41.6561 -11.1515 -5.07829
14.6118 -11.3454 -2.12675
14.8349 7.62537 -1.89593
-30.4767 23.1773 -4.36817
7.23186 -10.9819 -1.49252
-10.4272 16.6484 -2.20079
9.4075 -9.2745 -1.47081
12.701 -10.4318 -1.83306
13.8848 -10.9591 -1.96801
9.41203 -9.07664 -1.45148
7.02653 -10.4055 -1.37569
44.1092 -9.63355 -4.91497
-11.0836 16.6494 -2.15748
-33.8124 23.8426 -4.49341
11.6505 -9.78826 -1.6434
6.14083 -12.6282 -1.47754
7.51773 -11.5076 -1.43078
9.80378 -8.86565 -1.39089
-15.8324 -45.7502 -5.0755
16.4372 -12.1724 -2.14564
-31.7026 -63.6918 -7.37979
14.7786 7.4417 -1.69071
-31.4932 -25.0988 -4.13662
13.7404 -10.8716 -1.79605
-32.2685 -24.9606 -4.12773
14.7647 7.71421 -1.67327
-12.8725 17.2148 -2.11283
-21.0698 -53.4206 -5.56465
-34.0605 -68.8056 -7.35033
-23.8015 20.8208 -2.98794
-31.3554 -25.6866 -3.85309
-31.3368 -26.0299 -3.8827
-22.5034 -58.8842 -5.94396
-14.3113 18.313 -2.17603
-31.6128 -24.7323 -3.74597
-16.1354 -43.9487 -4.3614
-14.3351 -44.5554 -4.36589
9.77314 -9.05852 -1.23851
-34.5758 -67.3513 -6.97518
8.52741 -8.62426 -1.10144
16.3711 -12.198 -1.86831
-15.2259 18.6777 -2.16226
-36.3067 -22.582 -3.86926
-33.7595 23.8355 -3.63999
-31.4116 -25.3419 -3.56674
13.9467 -11.0925 -1.58233
-32.5087 -19.8103 -3.24823
10.9904 -9.64495 -1.24539
-27.1287 22.0054 -2.93415
-11.6209 -36.1688 -3.2106
9.35448 -8.96941 -1.08837
-34.4949 23.7163 -3.47822
8.64927 -8.65085 -1.00503
16.6315 -12.1294 -1.68201
-17.1734 -44.6247 -3.84305
-22.0725 -50.4912 -4.31381
-15.6375 -38.6044 -3.3017
-13.6292 -38.2403 -3.22559
9.15913 -8.90086 -1.00369
11.2229 -9.72885 -1.16473
14.7543 -11.5404 -1.48343
-30.4894 23.2505 -2.98384
-29.5255 -13.7819 -2.53133
11.7878 -9.9864 -1.19781
-23.9158 -53.2629 -4.4723
12.6943 -10.5366 -1.25022
-42.9896 -81.559 -6.67304
9.89963 -9.08571 -0.974082
10.847 -9.6822 -1.01368
-33.6256 -20.8746 -2.73804
11.8809 -9.98527 -1.0749
14.6029 -11.4976 -1.29217
-15.9085 -40.198 -2.94249
-15.5257 -41.0725 -3.01037
18.4054 -13.3014 -1.50808
-23.697 20.748 -2.0904
-25.7549 -59.4112 -4.28257
12.7894 -10.5207 -1.10744
-15.0457 -41.7414 -2.88392
15.1587 -11.4454 -1.23466
-33.7497 -68.332 -4.78684
-15.4933 -48.0225 -3.13601
-33.4678 23.6426 -2.50764
-34.1897 -67.6114 -4.61223
-17.4391 -42.4801 -2.80041
30.4746 -20.2046 -2.22668
41.4233 -10.8022 -2.59953
36.0406 -8.68932 -2.2467
-15.552 -41.7539 -2.69247
-27.4645 22.2898 -2.00523
-29.2535 -14.4023 -1.88421
-16.2753 -42.3996 -2.53367
16.7553 -12.5022 -1.17156
-27.4064 -16.4922 -1.72191
41.9973 -9.35482 -2.21333
-9.43841 -12.6112 -0.799703
-15.8555 -42.1963 -2.2458
5.66958 -12.3738 -0.676513
-14.4355 18.2997 -1.13663
-15.6556 -49.2073 -2.53665
14.7799 7.75391 -0.803797
-16.7924 -43.0427 -2.19641
-15.1032 -49.1201 -2.42543
18.5489 -13.1605 -1.09043
-17.8426 -51.7441 -2.55385
36.3209 -8.92059 -1.75295
-29.1535 -14.9076 -1.4651
-25.3037 -57.9805 -2.80621
-16.991 -41.8056 -2.00939
9.61153 -9.06981 -0.589358
12.5239 -10.2792 -0.727434
43.5881 -9.97341 -1.98906
-14.4954 -44.0919 -1.97613
-33.3905 23.6041 -1.70242
-54.9936 29.8667 -2.4954
-34.4589 23.7141 -1.53425
-19.5236 -51.0561 -2.0523
-35.0587 -22.0771 -1.48098
9.69839 -9.02563 -0.487237
6.57186 -10.7763 -0.438132
-13.4389 -40.0627 -1.39934
7.40586 -12.9992 -0.511184
18.4454 -13.0644 -0.76379
-27.6899 -60.6452 -2.19599
-13.7163 -38.9129 -1.3374
20.7565 23.9393 -1.01675
-23.5182 20.8788 -0.990004
-21.6268 -55.3762 -1.84433
20.8198 -14.1977 -0.766425
-27.8827 -14.3487 -0.950486
-13.4375 -43.005 -1.34019
-24.4985 20.8163 -0.922863
-24.589 -56.589 -1.75587
-18.1682 -49.1718 -1.51286
-34.9073 -21.2691 -1.1306
-9.83488 -12.9033 -0.463426
-23.7604 -56.0334 -1.7187
17.8709 -13.3134 -0.567554
29.3621 48.9991 -1.47868
-30.6501 23.3855 -0.990526
-31.8314 23.2821 -0.974665
-27.4846 -13.2062 -0.74717
9.5202 -8.95887 -0.316521
-21.2359 -34.2047 -0.939146
-40.8799 14.1802 -0.945348
21.0182 -14.0634 -0.537261
18.2746 -13.175 -0.422932
12.7332 -10.4607 -0.274694
-33.5733 10.6174 -0.58143
-28.5651 -13.6026 -0.500781
-37.5837 -21.4035 -0.657004
-18.6718 -45.7725 -0.765464
-8.06182 16.9541 -0.254884
-32.9877 -24.6428 -0.570983
-34.358 -23.4221 -0.532229
17.1525 -12.7973 -0.259845
18.065 -13.0066 -0.282492
28.5655 -17.6142 -0.448244
-22.2559 -57.0019 -0.743236
-30.8386 23.5115 -0.412869
-28.827 -61.5105 -0.724175
-19.1504 -43.9239 -0.513574
-54.6591 29.9547 -0.517485
-34.925 -61.609 -0.653411
-20.7992 -54.5482 -0.555414
37.002 -8.93919 -0.350209
-14.5487 18.466 -0.16471
-37.2693 -82.9952 -0.624002
-18.4499 -44.7494 -0.330304
9.52735 -8.96489 -0.0408161
14.6784 7.72717 -0.0280072
-29.7039 -13.251 -0.0587226
-11.765 -17.1293 0.0251639
-12.9909 -19.5533 0.0444998
-19.215 -44.1077 0.197836
9.39459 -8.94437 0.0590485
-33.4184 23.6502 0.213629
-22.6568 -57.1984 0.296795
-30.5209 -14.1652 0.20216
16.6879 -12.176 0.115314
-13.2493 -20.3146 0.158026
14.5954 -11.3693 0.145442
-54.2885 19.4506 0.511447
7.0335 -12.085 0.117283
15.8602 -11.7526 0.167413
-36.9813 -22.3785 0.453444
37.676 -7.74364 0.40022
-35.7974 -22.4334 0.481204
-12.8714 -35.5503 0.440484
-13.3561 -35.9154 0.463543
-11.4567 -32.9898 0.424225
-9.84133 -30.4494 0.386618
24.7275 50.0686 0.728517
9.5391 -8.97227 0.169227
-12.9233 -20.0256 0.324261
-11.1531 -33.856 0.487499
8.52887 -8.4727 0.182192
6.23474 -12.755 0.206675
7.10463 -10.9478 0.199138
9.29642 -9.01216 0.186926
7.99009 -9.06605 0.193195
9.67365 -8.9571 0.217086
37.1647 -7.96239 0.623358
-24.3626 20.8922 0.575775
-33.6807 -22.6604 0.698442
-35.0376 -25.7069 0.760938
12.8195 -10.5311 0.271714
13.1268 -10.5876 0.31592
-9.96125 -12.6299 0.30361
6.78247 -11.1156 0.253839
7.94508 -9.33748 0.241007
25.2282 51.9067 1.15778
6.93146 -10.895 0.259533
9.1323 -8.64077 0.267033
11.4506 -9.84197 0.330779
17.1095 -7.64209 0.377119
7.16444 -10.87 0.294582
-12.9296 -19.8484 0.565615
7.60623 -9.26038 0.272913
7.78866 -9.31433 0.28182
-26.1957 22.017 0.889853
-29.2391 -9.37646 0.770761
9.56724 -8.90172 0.336107
17.3134 -12.6477 0.540399
18.1319 -13.056 0.55552
-23.4464 20.5276 0.81284
-28.3445 22.401 0.944157
-29.2506 -8.7791 0.799764
-33.6037 -17.9176 1.0343
-13.502 -20.3886 0.649659
14.6292 -11.3668 0.494204
22.5114 -3.27534 0.640107
-12.3204 -19.211 0.659969
24.6998 -4.67908 0.731601
15.9568 24.7631 0.88349
-28.408 -20.9277 1.04395
7.17451 -11.2383 0.400286
6.92023 -10.627 0.386197
14.3845 23.4325 0.844709
-7.64153 -8.82993 0.357101
12.9267 -10.5773 0.509952
-7.33908 -9.53864 0.368613
-28.8701 -8.14877 0.998566
-11.9982 -17.5388 0.711369
7.82752 -9.2975 0.402109
15.9537 10.8998 0.692236
10.786 -9.39185 0.519503
11.8052 -9.97414 0.563071
21.7847 43.8673 1.84029
-7.46577 -8.15086 0.413191
9.59404 -8.90601 0.488671
22.5784 -3.16999 0.875244
25.2841 52.2661 2.24907
-7.46974 -9.91464 0.485533
10.3617 -9.45032 0.55009
12.6263 -10.4281 0.661574
21.3558 -2.61735 0.877153
-29.5248 -17.9121 1.41203
8.69108 -8.65196 0.506808
-6.93885 -8.48439 0.471171
9.3816 -8.87468 0.539859
12.4853 14.3324 0.839795
-29.2165 -8.57454 1.33835
14.4393 18.8072 1.06602
14.6196 25.1717 1.29756
20.7141 40.7326 2.02171
6.1057 -13.6035 0.664937
10.77 -9.44858 0.64793
18.3254 -1.6263 0.841679
18.704 35.613 1.88728
14.5525 25.6403 1.38285
-11.2484 2.79001 0.558554
-7.26431 -9.57524 0.579616
9.11395 -8.93288 0.604396
11.3209 -8.68555 0.668178
19.9209 -2.28282 0.965899
11.4852 11.7049 0.814642
15.3592 36.9374 1.96715
7.7152 -9.40309 0.598684
10.1186 -9.2157 0.677737
14.1966 24.0733 1.3999
19.2953 37.4171 2.13749
20.7961 -2.5906 1.06562
-7.4243 -8.52956 0.586727
9.32978 -8.88297 0.67079
16.2935 23.8932 1.51967
15.9875 28.9834 1.7281
12.8985 -10.6317 0.888108
10.4146 12.1747 0.857155
13.9351 18.9158 1.26245
10.9977 -9.53608 0.787086
14.7074 19.1624 1.33251
-26.8205 20.5595 1.84806
-6.98426 -8.19402 0.595704
10.1126 12.226 0.888805
-7.28341 -9.40241 0.666151
9.85172 12.2725 0.912973
-28.2933 19.9194 1.96615
6.04641 -12.7695 0.809016
11.0365 11.9306 0.934375
-6.8954 -6.80523 0.561998
11.126 11.8641 0.957946
-6.825 -8.43358 0.649385
6.19292 -12.4486 0.812507
14.3472 19.0892 1.43619
13.7715 22.5161 1.5748
12.9085 29.8321 1.95111
-6.19188 6.59492 0.556074
-8.19098 -7.76128 0.682651
-7.13482 -8.18495 0.666927
5.66908 -12.329 0.820678
-7.49837 -6.90365 0.634216
6.95384 -11.0793 0.808894
6.94087 -10.4898 0.785102
11.2577 -9.71769 0.918478
12.0353 -10.068 0.97238
16.0562 7.11096 1.119
14.5937 18.9051 1.51128
-7.25216 -6.32031 0.624091
10.1978 -9.31388 0.891328
-7.39427 -6.27303 0.636235
11.3257 11.9509 1.12205
9.27844 20.8875 1.5564
-7.29618 -9.68494 0.810156
11.4782 12.4491 1.1618
-6.96706 -4.46481 0.569406
-6.7694 -8.22171 0.726371
-6.71013 -4.44062 0.555232
9.22043 -8.8153 0.888081
9.94522 -7.80268 0.890454
12.4952 15.7483 1.45371
9.75782 -8.24 0.933911
11.2466 16.8163 1.52102
11.1637 17.798 1.56955
9.3802 17.8533 1.5209
8.78785 18.9916 1.57392
7.09545 21.1471 1.67677
10.5384 18.1899 1.60163
9.96378 -7.5596 0.956305
-7.04437 -7.20582 0.772298
-17.31 -6.27849 1.44008
9.42684 -7.64235 0.951329
9.1161 18.2074 1.60712
-6.38963 -4.26647 0.609358
-6.84783 -8.24171 0.849556
4.83023 -5.72791 0.595728
8.78546 19.3283 1.68396
7.55839 18.4801 1.6053
5.0227 -5.78883 0.617498
12.6234 11.3908 1.37787
11.6312 11.6834 1.35004
6.69697 -9.3426 0.934434
12.0844 11.5584 1.37467
6.47657 19.0122 1.64389
-6.36577 -4.39443 0.630647
-7.18583 -9.51045 0.978397
11.3993 11.9425 1.36609
10.368 9.07017 1.17309
-5.06159 -11.548 1.065
6.11477 -6.035 0.749944
9.17676 -7.14897 1.00051
-6.8094 -6.70688 0.812174
10.2924 12.1973 1.39329
8.75977 -7.2991 0.991182
10.6881 12.0483 1.40962
-7.32897 -7.78499 0.937481
8.15853 -7.26313 0.969849
10.0695 12.3078 1.42964
-7.08959 -7.76154 0.932184
-6.95729 -8.36353 0.97645
10.4591 12.158 1.45637
10.348 13.3483 1.53025
-7.13707 -8.35184 1.00084
11.0911 10.7132 1.41843
-6.3236 -4.2373 0.700204
-6.88095 -8.61817 1.00909
-6.33762 -4.40079 0.711477
10.9817 8.47483 1.30179
10.5353 9.23573 1.30641
6.35035 15.0849 1.53927
10.3835 11.1706 1.44322
-11.2945 2.89425 1.10227
6.14633 -5.95444 0.815858
7.97809 -6.61387 0.995384
10.6357 9.10764 1.3594
9.39779 12.3655 1.5039
9.58212 12.2968 1.53593
7.55635 12.0846 1.41578
7.7885 13.0199 1.51016
11.1261 7.98965 1.39605
7.02865 12.5071 1.44787
8.94926 11.2152 1.45996
6.87795 13.3154 1.5337
5.75363 13.6713 1.52257
9.09449 10.3681 1.42546
8.91063 12.1393 1.56459
11.292 7.59331 1.41959
9.15362 9.89925 1.40382
4.96894 -5.8145 0.821113
-6.85852 -4.66467 0.87522
5.46553 13.6164 1.55717
-7.07271 -4.51538 0.895164
8.82504 10.5742 1.47882
-6.78135 -6.79105 1.02677
5.90054 -5.82402 0.895557
9.60373 8.4555 1.37927
8.8723 9.26677 1.3799
9.15646 10.2072 1.48674
4.67851 13.5587 1.54776
4.22722 -8.03947 0.983977
6.3811 10.6754 1.36858
-6.81358 -3.93193 0.866227
6.25288 11.7241 1.47418
-6.90793 -3.8702 0.877533
9.63563 7.14951 1.34179
6.5783 11.2268 1.44914
9.73119 6.9771 1.34522
5.3504 11.4057 1.42437
5.35079 11.8976 1.47331
4.61918 12.0204 1.45684
9.7633 6.63586 1.34543
-6.90501 -4.57236 0.948777
7.38831 -6.21459 1.10049
-7.34938 -0.787441 0.848005
-6.2858 -5.39995 0.954664
5.24506 -5.56369 0.882306
8.8031 7.8261 1.37232
4.41343 -7.17559 0.975934
10.3492 5.12348 1.3524
8.88714 7.7313 1.38471
5.19663 -5.60745 0.90323
8.53234 7.85387 1.37606
8.81968 8.97248 1.47201
-7.06317 -5.66341 1.0715
10.0819 4.72082 1.3264
-6.93181 -3.85911 0.956293
9.08093 6.10453 1.32714
5.13237 11.2497 1.49878
-6.90629 -3.07138 0.918798
-6.89054 -3.2577 0.922103
4.87802 -5.94898 0.939012
5.96538 -6.1203 1.04061
9.31576 5.5877 1.3429
8.40007 7.17142 1.36561
-6.964 -4.31897 1.00981
-6.89521 -4.54384 1.0181
8.18653 8.51023 1.46503
4.95579 11.145 1.51435
-6.56332 -5.62899 1.07636
3.70538 -7.56748 1.05008
8.43652 7.68203 1.42773
6.07008 -5.61018 1.03632
9.10811 6.02223 1.38375
-6.14541 -5.42267 1.03449
8.49118 6.5688 1.36908
8.02653 7.45226 1.39328
-7.11599 -1.78667 0.938921
-7.02763 -2.31065 0.945263
-6.4577 -5.32884 1.06854
8.77555 5.62606 1.33638
8.08844 7.97978 1.46442
-7.28021 -1.2561 0.947865
-6.91118 -4.12689 1.04107
7.38377 6.18098 1.24718
8.02045 6.99044 1.3796
7.90309 8.05815 1.46258
-6.92349 -2.83158 0.974296
-6.92474 -2.97173 0.974666
4.49123 9.94559 1.43393
8.95185 4.08994 1.29547
-7.26351 -1.60965 0.978238
6.82912 -4.25265 1.06921
4.92567 -5.94055 1.02314
-7.35004 -1.11971 0.995757
-7.02806 -2.20367 0.98577
-7.06532 -2.27309 0.992065
-6.0036 -4.40459 0.995493
5.18263 -6.55751 1.11396
6.89955 -4.16952 1.0853
8.01385 7.11724 1.45199
-7.16627 -1.7218 0.991381
-7.09692 -1.95965 0.990764
8.74518 4.82804 1.35677
8.28 5.83649 1.37735
-6.93417 -3.62591 1.0667
8.82186 4.14033 1.33668
3.28927 10.3371 1.48467
-7.32923 -1.20262 1.01728
-6.01892 -4.44798 1.02971
-5.99939 -4.54694 1.03095
7.13609 -3.92762 1.11957
8.01751 6.44212 1.42242
5.29858 8.95546 1.44076
-6.39274 -4.32858 1.0588
4.93128 -5.52399 1.02867
7.17355 -3.82347 1.13134
7.54561 -3.67949 1.16158
3.5651 9.88976 1.4635
3.37823 10.1643 1.49289
-7.38613 -1.08459 1.04281
-7.08764 -2.00774 1.0271
4.97086 -5.28609 1.01437
7.23495 -3.73153 1.14366
7.35067 -3.66608 1.16503
7.85696 -3.3499 1.21425
-7.16917 -1.87849 1.05456
-7.02107 -2.9513 1.10421
-6.01671 -4.37983 1.07075
7.89127 -2.77739 1.22401
8.1911 4.59738 1.37621
4.94293 8.4675 1.43685
8.32816 4.48475 1.39798
7.81702 -2.33675 1.20269
7.10532 5.65618 1.35997
2.91719 9.3106 1.45838
-7.10758 -2.0234 1.10813
7.47299 -3.10518 1.21997
8.1881 4.52518 1.41809
5.74149 7.38387 1.42022
5.24783 7.57075 1.40358
5.08225 7.87391 1.42337
5.035 7.97989 1.42792
7.32414 -3.16563 1.21867
7.66775 -2.75196 1.24058
-6.76824 -1.6858 1.05121
7.81894 -2.25315 1.24781
7.19661 5.39735 1.38131
-7.11721 -1.95617 1.14601
-6.9322 -2.79084 1.16203
6.77821 5.49791 1.36895
-7.37177 -1.09817 1.16479
-7.15834 -1.82773 1.15768
-7.05981 -2.0714 1.15339
-7.13483 -1.87612 1.15832
-6.90717 -2.93941 1.17897
4.77177 7.39875 1.40002
3.44734 -6.03374 1.1096
-7.29138 -1.3022 1.18718
3.52943 -5.70983 1.08134
3.56641 -5.61531 1.07075
7.04646 4.74976 1.38473
4.62665 7.32252 1.40954
-7.08466 -2.02738 1.20157
-7.1069 -1.95072 1.20995
6.94208 4.81046 1.39679
3.78371 7.86019 1.44401
6.05036 -3.31771 1.14943
6.61113 4.85667 1.36776
4.63015 7.11634 1.41607
3.83765 -5.30224 1.10005
7.08394 4.41121 1.40513
7.45828 2.85189 1.34945
6.29718 5.26416 1.39106
-7.29503 -1.25847 1.26132
6.73481 4.07182 1.35158
-6.46059 -2.77615 1.2004
5.5084 -3.62896 1.13309
5.68923 -3.51761 1.14838
2.72693 7.77072 1.42336
-7.38956 -1.04192 1.29449
5.33304 -3.78287 1.13972
-6.32039 -2.26305 1.16473
-6.28051 -2.42026 1.17913
4.28211 -4.6657 1.10737
4.49474 -4.47788 1.11289
4.59224 -4.44953 1.12173
-6.81375 -1.7358 1.23929
4.30778 6.46275 1.38535
-7.17555 -0.930338 1.29409
-6.15278 -2.26092 1.16823
6.62376 3.6832 1.35859
6.08297 4.34962 1.35638
3.61041 -5.32992 1.17067
5.1265 5.66176 1.39694
2.49318 7.13377 1.4191
6.47243 3.04621 1.35252
-1.7052 -5.77882 1.14077
6.42251 -1.38512 1.24655
6.26233 2.77309 1.31858
6.20891 2.37787 1.32646
-4.4757 3.96085 1.40631
4.31551 3.52647 1.33286
4.20208 3.28513 1.32031
4.66482 -1.6776 1.24468
4.81777 -1.38066 1.25365
-2.16219 4.8465 1.32733
3.72931 -2.95476 1.22302
3.67533 -2.55105 1.19422
3.40939 -2.96407 1.22665
3.99588 2.56397 1.3266
-2.59229 -3.53143 1.25044
-2.32352 -3.56695 1.21558
3.7481 2.05403 1.29922
3.72502 1.97664 1.29873
-2.85684 3.50398 1.39598
-2.29377 -2.41673 1.18675
1.95965 -2.78684 1.21511
-2.1315 2.77888 1.33165
-2.03596 2.76682 1.33781
2.25437 -1.87253 1.22696
2.38334 -1.50012 1.22367
-2.02012 1.88181 1.30058
-2.06213 -1.44155 1.22803
1.45317 -2.0747 1.24806
-1.99032 -1.08674 1.21426
-1.92316 -0.707078 1.22008
-1.92494 -0.702887 1.24568
-1.95456 -0.344113 1.22941
-1.89129 -0.564243 1.23011
-1.89094 -0.530481 1.23523
8.20088 -8.67936 -7.44836
12.0668 -10.2375 -8.75801
-8.89911 15.8888 -7.0685
20.212 24.6114 -11.4382
-8.83004 -2.52876 -2.58822
-35.0777 -23.432 -7.79216
-34.656 -22.6641 -6.10949
-34.3879 -23.3694 -6.17399
-31.6618 -20.3058 -2.82843
9.25001 -8.81038 -0.390431
-7.89409 17.0158 -0.462742
-29.8122 -11.5363 0.736706
-6.9386 -8.2928 0.461966
16.3481 23.475 1.55443
11.2209 15.7806 1.60162
-6.70909 -6.68206 0.885619
4.15235 12.0483 1.46829
8.65599 9.01642 1.46197
7.96153 -8.75225 -10.3658
8.81878 -8.52704 -10.482
6.9476 -11.9221 -11.4998
6.86355 -11.3362 -10.8826
8.14127 -8.25353 -9.51992
7.01349 -12.0155 -11.3138
7.05684 -10.9593 -10.4434
7.99111 -8.36627 -9.19145
6.71892 -11.271 -10.2766
6.43716 -11.6834 -10.2014
7.74705 -8.83906 -8.96061
6.1973 -14.2994 -11.7944
8.28622 -8.68812 -9.08811
6.2921 -11.8955 -10.164
6.14043 -12.0754 -10.1023
7.48042 -9.43195 -8.98869
7.89893 -9.04426 -8.91535
10.4418 -9.42687 -10.4631
6.11416 -14.1021 -11.3617
6.09704 -13.6606 -10.9992
6.12406 -12.5633 -10.2805
9.17839 -8.80857 -9.33254
9.266 -9.05478 -9.44956
5.85809 -12.492 -10.0236
9.34183 -8.97171 -9.24402
6.85089 -11.1092 -9.26345
5.6094 -12.9573 -9.99395
9.66955 -9.06026 -9.3913
7.59837 -9.33135 -8.46106
9.97339 -9.16493 -9.5162
10.8903 -9.47023 -10.1273
11.4084 -9.67135 -10.0447
8.37219 -8.59533 -7.94426
7.42025 -9.28578 -7.85408
8.15476 -8.70498 -7.88446
7.61679 -9.3384 -7.88448
7.82534 -9.38844 -7.83366
8.3079 -8.52249 -7.60865
0.362727 15.8812 -10.1346
7.51654 -9.31054 -7.61521
10.8812 -9.58137 -9.21871
7.2134 -10.6839 -8.15937
8.14312 -8.48494 -7.41689
4.60962 -15.3982 -10.1092
8.70117 -8.68854 -7.6081
7.90992 -9.01958 -7.40019
4.04558 -18.0122 -11.3722
8.18576 -8.61509 -7.26537
4.0852 -17.3091 -10.8523
0.14847 14.8881 -9.05847
6.6438 -11.2451 -7.95257
7.73173 -9.2553 -7.31768
10.0984 -9.28748 -8.32542
6.80996 -11.2345 -7.88723
8.04798 -9.19035 -7.3332
11.2349 -9.66767 -8.86214
5.39403 -13.8417 -8.81119
7.72357 -9.25275 -7.14803
9.33236 -9.01569 -7.68925
6.89106 -11.0979 -7.73209
7.97125 -9.11433 -7.10514
9.73052 -9.1667 -7.79119
14.7747 7.38254 -9.59096
8.6513 -8.81486 -7.13711
6.92194 -10.9479 -7.44451
2.63755 -11.2037 -6.62004
7.84783 -9.05792 -6.86431
9.58286 -9.11908 -7.51468
10.7645 -9.47058 -8.08853
3.28058 -20.6149 -11.7392
6.7912 -10.967 -7.23197
10.0808 -9.26811 -7.66914
12.2943 -10.316 -9.00068
9.22132 -8.98907 -7.19623
4.60896 -14.2743 -8.36314
7.99002 -9.20057 -6.76807
14.6964 7.51334 -9.06033
9.6748 -9.0859 -7.28955
0.839236 17.4579 -9.5434
2.74321 -19.8785 -10.942
11.0981 -9.61746 -7.97396
4.22479 -14.3954 -8.12175
14.6103 7.64022 -8.87944
14.985 10.3456 -9.77528
13.9497 7.69554 -8.51133
10.9184 -9.58974 -7.72807
13.2097 -10.7574 -9.06281
3.0457 -19.3531 -10.2992
11.3202 -9.79436 -7.61713
2.16924 -20.4019 -10.3556
10.2312 -9.3149 -6.95803
14.2072 -11.2375 -9.09548
13.7431 -11.116 -8.84954
10.9724 -9.62404 -7.27178
7.49428 -9.3202 -5.92292
3.56086 -8.46307 -4.52507
-8.72819 -1.91639 -4.39376
2.22574 -20.1969 -9.96591
4.52901 -9.29369 -5.05631
0.406007 13.6499 -6.68401
7.59321 -9.25245 -5.84101
-8.59216 16.4006 -8.96877
-9.23179 -2.44053 -4.60125
14.9188 -11.5209 -9.05897
19.2542 5.50893 -9.57646
-10.3535 -2.56338 -5.0452
1.90978 -20.5757 -9.82605
17.0554 16.0266 -11.0825
7.56386 -11.1829 -6.37083
19.8987 5.37095 -9.7054
13.9666 -11.0579 -8.28462
2.92317 -17.3038 -8.16063
19.2308 5.6899 -9.26406
17.7326 -12.9232 -10.1363
9.83849 -2.48502 -4.68833
20.1513 5.10751 -9.59057
17.178 16.1527 -10.8635
1.81139 -20.257 -9.3078
9.64668 -9.02067 -6.04799
-9.24216 -1.67754 -4.28409
9.42853 -3.45959 -4.57399
6.69523 -11.2872 -5.96974
9.88555 -2.61107 -4.63746
19.1239 5.83141 -9.00013
17.5494 17.4063 -11.1096
9.34508 -3.07833 -4.42854
15.344 -11.8072 -8.68922
7.0174 -11.5301 -6.03783
7.1334 -10.8899 -5.80312
9.53417 -3.39576 -4.50998
-10.1312 16.6081 -8.66257
17.542 -12.8026 -9.65121
19.4083 5.59094 -8.95137
16.0085 7.26105 -7.78302
17.6531 17.8297 -11.0943
16.332 -12.1466 -8.97149
-11.4181 17.3648 -9.13638
-6.64332 15.1859 -7.26903
-5.26386 4.93765 -3.14532
19.9999 5.43027 -9.00899
9.53314 -3.39605 -4.36728
18.0379 18.2814 -11.0362
15.7336 -12.108 -8.54365
14.7785 7.38899 -7.0506
3.83348 -9.29007 -4.27013
-11.3373 17.2449 -8.73853
6.92609 -10.8782 -5.43822
-13.6736 3.35111 -5.93185
0.743397 -22.4496 -9.46553
15.7242 -11.9061 -8.24897
-5.19618 5.72241 -3.23472
0.999657 -22.3161 -9.36389
1.23132 -20.8023 -8.7302
14.0923 7.5579 -6.68743
18.3578 19.1302 -11.0758
3.77845 -8.94491 -4.04951
14.6902 7.68701 -6.90039
17.7366 18.9419 -10.7668
-9.54745 -1.09576 -3.96725
4.00458 -8.49699 -3.84863
13.9593 7.70771 -6.54498
6.82555 -10.9578 -5.27838
-13.7098 2.56111 -5.7058
-8.08437 15.6644 -7.16484
19.0381 20.686 -11.3873
14.9907 7.20286 -6.70004
-5.34323 14.5971 -6.23365
13.8841 -10.9767 -6.93286
1.52701 19.1463 -7.45814
-8.88663 16.052 -7.13152
18.8728 5.75549 -7.64424
-1.76336 13.3781 -5.22711
5.2864 -9.37776 -4.15177
-2.40156 13.6093 -5.30861
19.3479 22.3807 -11.3416
4.65533 -8.50616 -3.68265
19.2951 5.53533 -7.63775
0.879986 -26.7082 -10.1547
14.8257 -11.4248 -7.04448
19.8486 5.37734 -7.69593
9.41946 -3.43181 -3.74796
0.535101 -22.8439 -8.51455
3.24089 -10.77 -4.20228
19.9332 23.1894 -11.3536
0.910672 -8.73259 -3.25588
13.9593 -11.0552 -6.56653
20.2526 5.151 -7.68294
17.7024 17.4915 -9.09266
-13.1178 2.29814 -4.84204
20.5627 24.554 -11.6134
2.28187 -13.2324 -4.83798
12.9761 -10.4936 -6.00555
0.796337 15.3916 -5.51352
-8.22276 -2.80604 -3.1078
0.410475 -21.9807 -7.85815
-4.27741 14.0442 -5.22343
0.639138 -22.0276 -7.83086
15.7652 -11.907 -7.00302
-16.0355 18.539 -8.63996
5.9164 -11.3161 -4.49016
-11.227 16.9438 -7.10072
0.0927652 -18.6106 -6.54154
14.1945 -11.2495 -6.33354
20.2073 5.32177 -7.29318
0.658798 -23.1654 -8.00306
-5.09712 14.8017 -5.36535
3.63593 -8.44063 -3.16368
4.86991 -9.02108 -3.51315
-14.7872 18.3593 -8.07055
2.27313 -10.879 -3.8089
-9.05223 16.423 -6.39393
3.01642 -13.65 -4.76679
-15.272 18.7455 -8.19832
20.0263 5.44486 -6.97497
21.7071 26.852 -11.5376
35.5926 -20.0924 -13.6602
-5.39837 14.3223 -5.08507
1.90392 20.6002 -6.86278
1.26752 -10.2517 -3.41551
-5.34357 14.718 -5.08719
-12.8314 17.5673 -7.05859
18.4326 -13.1349 -7.35089
3.55857 -8.67003 -3.00483
6.2064 -10.0914 -3.79702
2.31284 -11.0068 -3.57928
-4.64534 -34.8775 -11.1817
-1.15248 -24.1128 -7.68323
14.9148 10.2718 -5.71429
-13.469 17.9239 -7.08812
-18.3641 19.8079 -8.49231
6.94116 -11.0622 -4.03793
1.38864 -21.9835 -6.81391
-2.61394 -27.8223 -8.57652
7.07064 32.6395 -10.1882
0.771232 14.9791 -4.55485
-11.3547 17.1333 -6.19659
-2.74655 -26.9532 -8.15762
-14.6322 18.2955 -6.99143
-5.39341 -35.3508 -10.6461
0.842548 -25.2589 -7.55604
-5.49566 15.1195 -4.78697
2.06769 20.5418 -6.08114
-21.7212 20.2537 -8.76324
18.1006 5.75998 -5.59059
-4.37116 14.688 -4.50734
-8.08081 15.6791 -5.17656
4.24981 -9.13061 -2.96024
4.62584 -11.5915 -3.64964
-12.6921 2.23592 -3.70411
-33.9705 -48.1187 -16.947
-15.5022 18.6498 -6.97279
6.93619 -11.0474 -3.7558
2.56195 -9.53989 -2.80675
12.8801 -10.4257 -4.7161
-8.47397 -2.46617 -2.50257
20.7553 26.7665 -9.59429
-8.60236 -2.26724 -2.5139
-2.60232 -26.5411 -7.48244
-13.102 2.00774 -3.69136
4.37672 -11.3013 -3.36408
-9.49603 16.332 -5.18805
-13.3195 17.7647 -6.09981
-5.49947 14.6811 -4.28654
-8.74073 -42.4371 -11.8527
-21.9224 20.4579 -8.06202
-9.92493 16.4588 -5.15206
-27.2895 20.9634 -9.15567
11.3524 11.4255 -4.24887
4.31562 -11.2665 -3.19652
46.3817 -13.4832 -12.7967
-8.45297 -39.884 -10.7138
4.0831 -8.64381 -2.5173
11.1309 -9.90051 -3.89731
-14.746 18.4638 -6.14543
6.52156 -10.4004 -3.17762
3.17407 -9.63446 -2.62255
-30.9987 -45.4005 -14.1939
-4.46748 -29.2963 -7.66559
3.53414 -10.3524 -2.82091
4.06171 -9.37237 -2.62562
15.5207 -11.6705 -4.95523
-7.30575 15.5662 -4.3539
-32.4282 -43.2469 -13.7058
4.30104 -11.117 -3.0172
4.25022 -7.69545 -2.23747
6.51802 -10.6322 -3.11048
44.1251 -13.3408 -11.4942
-28.8931 21.7988 -8.949
-11.7628 17.2824 -5.15491
-28.3097 -41.297 -12.3094
-10.1937 -40.118 -10.2082
-24.9995 20.9977 -8.02386
4.34105 -10.3111 -2.74897
-12.3068 17.6287 -5.21401
-8.00359 15.5959 -4.22646
10.2427 -9.23908 -3.30306
39.7336 -13.1986 -10.0198
15.0278 7.5155 -3.99947
-6.49359 -37.179 -8.98869
3.96053 -9.076 -2.34654
46.2589 -12.3808 -11.3663
-12.5848 -46.3321 -11.3712
3.84435 -11.0264 -2.75255
4.90011 -8.67857 -2.34474
-13.037 17.7668 -5.12962
10.9691 -9.61283 -3.33379
-6.33796 -32.1343 -7.47202
-27.7335 21.4201 -7.94411
40.9472 -8.95477 -9.51252
-31.1792 22.6378 -8.63935
-36.0627 -23.6328 -9.66035
40.1571 -12.4138 -9.43813
5.44282 -9.45392 -2.43576
-12.4813 2.84797 -2.80908
40.0284 -11.7302 -9.21672
41.9623 -11.9731 -9.60125
-5.49508 14.4202 -3.3756
13.3277 -10.7246 -3.76581
37.5644 -12.072 -8.67483
-23.8746 20.8081 -6.87027
-31.2577 -77.0607 -18.0412
4.2997 -9.6777 -2.29667
4.52966 -9.16114 -2.20762
-14.8743 18.5322 -5.07574
-31.6335 22.978 -8.34924
-32.5379 23.091 -8.52955
-29.9332 -79.4144 -18.1878
-10.9088 17.0465 -4.29242
-8.68681 -36.8708 -8.05353
3.18322 -9.66399 -2.1699
3.95601 -9.8041 -2.25441
45.068 -10.4489 -9.87637
14.8612 7.44371 -3.5232
-15.4636 19.0361 -5.19349
5.15356 -9.0366 -2.18574
25.997 37.6127 -9.55232
14.8986 7.79714 -3.49063
-30.6437 -23.6662 -8.0315
-11.6799 17.2094 -4.22753
-15.9326 18.8378 -5.02359
-36.0068 24.1704 -8.81279
43.7474 -9.54212 -9.13164
-13.7413 -44.2143 -9.40817
4.12581 -9.71078 -2.14686
11.5581 -9.60793 -3.05828
-12.2374 17.562 -4.27387
-20.8729 -59.9029 -12.6753
-13.3843 -41.5751 -8.64561
4.05981 -9.8972 -2.11825
-34.7031 -23.7296 -8.28705
-27.2847 21.4142 -6.82699
-33.7149 -24.1168 -8.0799
-7.03733 15.5523 -3.31468
-27.8691 -65.4818 -13.8208
-34.1187 -22.7138 -7.89809
3.42822 -9.34163 -1.92169
45.1511 -10.4612 -8.90047
-12.9983 17.7473 -4.20623
3.98022 -9.32404 -1.9349
-37.0714 -22.5181 -8.21021
-21.7598 -35.348 -7.89329
-16.1674 -46.6479 -9.33973
37.3956 -12.3359 -7.44474
-36.7967 24.7137 -8.29586
-34.267 -23.6655 -7.8228
-33.202 -24.2919 -7.72204
-22.2057 -55.0114 -11.1606
-17.5056 -47.5487 -9.39706
3.8145 -9.19333 -1.83858
41.9465 -11.3053 -8.06804
5.74317 -9.68846 -2.06435
-25.602 -58.0527 -11.6142
-21.2464 -52.7335 -10.2812
-14.8449 18.5048 -4.20728
-31.6302 -25.5104 -7.22263
-20.6373 -27.4998 -6.14789
-40.3268 25.4466 -8.41361
-27.297 21.4334 -6.04109
-34.8501 23.8476 -7.33236
3.89947 -10.0243 -1.86532
4.76357 -8.59759 -1.70826
13.9235 7.47726 -2.72531
13.9937 8.03014 -2.76272
-31.484 22.8947 -6.67396
41.631 -11.7783 -7.36652
41.4389 -10.7323 -7.28765
-31.7871 -25.2449 -6.88555
-21.473 20.4503 -4.97999
-21.2184 -52.7397 -9.60377
14.7733 7.40435 -2.77097
-32.3755 22.92 -6.62637
-24.5921 -58.6306 -10.5042
42.9178 -11.5616 -7.22522
-10.5539 16.7554 -3.19635
-21.5275 -53.4057 -9.18214
-35.4989 -24.5051 -6.7968
-23.2102 20.3922 -4.83829
-24.6478 21.0409 -5.02304
-41.0424 24.8497 -7.43496
-11.438 17.1194 -3.17916
3.46397 -9.50675 -1.56503
3.85781 -10.2018 -1.68902
-7.78238 15.7854 -2.68924
-31.7238 23.0894 -5.99813
-32.2951 -24.9438 -6.20477
-28.4115 -26.5757 -5.89326
41.6213 -10.8202 -6.53743
44.2014 -9.62986 -6.89267
-6.68112 14.8823 -2.44195
9.81025 -5.1423 -1.64395
-34.0613 -24.5668 -6.25372
10.1605 -9.1354 -2.03643
44.3361 -10.2566 -6.7588
-37.3024 -24.8316 -6.59469
-32.0566 -26.4415 -6.07835
-13.1295 -43.5015 -6.68468
16.8154 -12.1659 -3.04063
-25.8863 21.3129 -4.8732
-25.7549 -57.706 -9.10484
-7.77705 15.5774 -2.49055
-12.9507 17.6577 -3.12268
6.01158 -11.4852 -1.85271
-13.6685 18.2694 -3.20562
-35.4663 23.9582 -6.01742
6.73563 -11.0024 -1.80335
37.116 -12.2489 -5.49786
-31.674 -25.3803 -5.66429
-33.729 24.2393 -5.75412
-21.3886 -51.5495 -7.70745
44.4832 -9.95134 -6.28614
-7.02201 15.5305 -2.33022
-23.7604 -62.0104 -9.01975
7.73109 -9.35605 -1.62897
-14.2674 18.2174 -3.11983
13.1555 -10.4925 -2.27718
-22.6463 20.5996 -4.11686
41.5411 -10.7404 -5.69699
44.2151 -9.68485 -5.9917
-23.0289 20.2656 -4.01154
-33.2385 -24.8718 -5.42211
-15.1756 18.5832 -3.10264
-34.7549 23.197 -5.42489
-38.9444 -16.4439 -5.45791
6.99415 -10.4017 -1.60848
10.7099 8.7684 -1.77676
-34.3687 -23.6847 -5.34116
-32.1057 23.4378 -5.02841
-36.1761 -22.5743 -5.34448
41.4131 -10.7101 -5.35373
6.77428 -10.3345 -1.54429
-7.81745 15.6369 -2.16545
-25.5047 21.4157 -4.07816
-34.1229 24.0487 -5.14955
6.26885 -12.023 -1.65216
44.1691 -9.42333 -5.53241
14.9118 7.81239 -2.02359
-18.5606 -44.9525 -5.86369
7.06353 -10.498 -1.52373
-20.7531 9.19747 -2.68667
-14.8461 -44.908 -5.56071
-32.3809 -24.9651 -4.78069
-31.8595 -25.4795 -4.77358
41.4902 -11.114 -5.04898
11.1897 -9.63633 -1.71107
-30.5045 23.1298 -4.40442
6.62018 -10.7868 -1.44916
7.47038 -9.19745 -1.35554
11.5391 -9.68676 -1.71143
9.43011 -4.60042 -1.18817
14.8911 7.65209 -1.88648
-10.5523 16.7992 -2.23945
-32.8804 24.0258 -4.56211
38.3836 -12.6354 -4.53233
9.32886 -8.99615 -1.43397
-11.2775 16.9139 -2.21038
6.76089 -12.7287 -1.56158
44.3074 -9.62953 -4.91606
10.7068 8.79836 -1.49306
16.6702 -12.3831 -2.22917
41.6804 -10.8101 -4.61456
9.58957 -8.95115 -1.38998
8.35822 -8.44313 -1.24473
-31.4098 -25.1351 -4.18873
-31.5303 -63.2434 -7.37149
14.8886 7.46678 -1.70138
-32.3178 -24.9191 -4.18692
-13.1003 17.8585 -2.24925
-13.0117 17.4325 -2.16252
10.1744 -9.05853 -1.33472
-21.7505 -55.2379 -5.81961
6.28726 -12.0404 -1.31498
16.5418 -12.1022 -1.97055
41.5702 -11.1704 -4.12672
-32.1246 -64.9358 -6.88655
-21.7684 -57.1264 -5.80531
-23.7528 20.7762 -2.95012
44.9853 -10.0074 -4.3051
9.68646 -8.95923 -1.22161
39.1927 -12.9286 -3.8464
-15.3022 18.758 -2.1925
-30.0563 -13.7036 -3.01087
-33.8092 -65.9082 -6.82737
15.7662 -11.8008 -1.79185
8.61279 -8.7035 -1.10896
12.8324 -10.5924 -1.44923
44.5772 -10.3321 -3.92056
9.37348 -9.00069 -1.09256
10.9117 -9.6091 -1.22234
-34.8906 23.9609 -3.52201
16.7402 -12.2075 -1.71643
-17.5251 -45.6032 -3.91289
14.6044 -11.4196 -1.47868
-12.0289 -33.6752 -2.82235
-30.4358 23.1419 -2.95671
-33.8011 23.8918 -3.19526
-23.614 -53.9405 -4.54573
-52.5186 28.5827 -4.52741
-21.7895 20.5072 -2.17658
-34.0322 24.072 -3.02083
16.2799 -12.1642 -1.48703
41.5929 -11.1302 -3.13749
-41.4322 -78.3933 -6.39889
13.904 -11.0008 -1.26915
-16.0657 -42.6179 -3.14349
10.727 -9.57993 -0.98558
-23.7777 20.8195 -2.13437
12.8107 -10.5707 -1.11208
17.8337 -12.9346 -1.46913
15.9457 -12.061 -1.32077
-15.1498 -42.0041 -2.88844
43.3094 -11.2637 -2.79784
-33.3685 -67.6099 -4.60104
35.4511 -8.60041 -2.23926
42.5098 -9.72973 -2.67783
6.01431 -13.0006 -0.856478
30.5236 -20.1973 -2.19094
-10.038 16.757 -1.14853
-16.0531 -41.8755 -2.55374
16.5078 -12.337 -1.15748
-9.73859 -12.6245 -0.873727
14.878 7.63295 -0.903853
13.832 -10.9494 -0.944956
-13.022 17.6467 -1.14555
-16.9791 -42.084 -2.41022
14.7724 7.76777 -0.817756
-16.8173 -42.9871 -2.26508
-14.4126 18.2678 -1.11272
9.53584 -8.99481 -0.601413
-24.9872 -57.3175 -2.82968
12.3961 -10.1906 -0.744199
-16.5884 -46.2416 -2.18139
-17.7636 -43.7659 -2.02245
6.81836 -12.59 -0.635486
-14.4094 -43.9241 -1.9694
-53.9927 29.363 -2.48907
18.2098 -13.0824 -0.910357
16.6957 -12.4098 -0.810516
-43.8995 -85.2049 -3.61668
-18.9229 -49.6223 -1.95636
-34.3324 23.5894 -1.52298
42.0678 -10.8393 -1.56486
-36.1807 -71.9698 -2.69567
-26.9503 -59.0615 -2.18633
19.856 22.9644 -1.0073
-21.8333 20.4598 -0.974524
8.06251 -14.2297 -0.549602
9.39287 -8.96691 -0.4211
11.2548 -9.90817 -0.487619
18.4625 -13.0543 -0.743508
34.444 -12.9911 -1.22222
21.5842 26.1275 -1.08588
-27.6869 -13.8876 -0.970705
-23.3225 20.7687 -0.951309
-32.3343 22.9006 -1.23599
-26.058 -59.908 -2.02399
-14.228 -40.2502 -1.31537
-22.4237 -57.1993 -1.86083
-17.2144 -46.6546 -1.42524
-34.5339 -20.9387 -1.07553
11.4036 -9.67409 -0.400808
16.2394 -12.0785 -0.533844
-42.0022 25.9838 -1.30175
-30.9036 23.5146 -0.960086
-31.4256 23.031 -0.920443
9.53835 -8.97923 -0.303622
-42.0827 14.5448 -0.983371
-32.4862 -54.3983 -1.42763
21.0984 -14.1107 -0.55835
30.1416 -18.2769 -0.796226
14.1615 3.91366 -0.29957
26.5484 46.392 -0.98121
23.3622 -10.8763 -0.454203
46.4718 -10.7008 -0.887648
-31.0808 -22.3357 -0.697857
-30.0998 -29.564 -0.66912
-19.6444 -48.2023 -0.867515
12.6629 -10.4131 -0.269961
18.3903 -13.2887 -0.347103
-29.6098 -13.1608 -0.425158
-33.3572 -24.9637 -0.579669
-34.9793 -70.5157 -1.06382
-28.9024 -61.5135 -0.932277
-34.4671 -23.5392 -0.544862
-30.9248 23.527 -0.456696
16.8891 -12.6124 -0.250602
28.9895 -17.9749 -0.401969
-31.3789 23.0365 -0.432629
-19.6895 -45.1567 -0.527806
-12.3608 -37.2043 -0.39546
-34.6862 -61.1162 -0.648373
-14.5881 18.5046 -0.180342
-26.9983 -13.6117 -0.24392
