ply
format ascii 1.0 
element vertex 1860
comment /media/mkaihara/Seagate Backup Plus Drive/model_iterations/model_23.ply
property float32 x 
property float32 y 
property float32 z 
end_header 
4.68953 -15.8551 -10.6889
9.2815 -8.91698 -8.27535
5.05064 -15.4618 -10.4835
7.84123 -9.40075 -7.83404
8.34039 -8.56283 -7.64184
0.339947 15.6386 -9.9777
4.76763 -15.2067 -10.1445
11.0391 -9.70703 -9.34626
8.00178 -9.17378 -7.71373
8.2517 -8.58736 -7.51437
4.75366 -15.8585 -10.3987
-0.401132 13.5359 -8.46807
8.93434 -8.89826 -7.78575
4.23446 -18.6823 -11.8293
8.00386 -9.15185 -7.50484
8.36023 -8.66534 -7.43383
4.28555 -15.473 -9.83201
8.31132 -8.73624 -7.37153
4.26813 -18.2068 -11.4038
0.143706 15.0201 -9.15063
3.77943 -17.9208 -11.083
4.20019 -15.8312 -9.90216
7.12699 -10.9391 -7.83373
8.14605 -9.31565 -7.4318
4.21568 -16.624 -10.2198
8.38758 -8.76647 -7.22681
9.52905 -9.1135 -7.85642
10.8336 -9.33979 -8.55071
7.10007 -11.1929 -7.88095
7.82179 -9.37354 -7.24462
9.1739 -8.92306 -7.58214
8.09216 -9.27068 -7.19962
8.68278 -8.87773 -7.24708
9.82927 -9.2775 -7.87659
6.8587 -13.4952 -8.73624
9.36345 -9.09031 -7.53541
5.87218 -13.5387 -8.51392
6.96496 -10.9898 -7.49707
9.68525 -9.227 -7.61587
12.1389 -10.4102 -9.02638
10.9395 -9.61335 -8.19118
6.96037 -11.2254 -7.41222
9.25849 -9.20162 -7.31847
9.37562 -9.13897 -7.31942
12.8195 -10.6998 -9.32493
4.69602 -14.4855 -8.50987
10.3446 -9.51842 -7.85652
8.62917 -8.80874 -6.86264
2.74236 -17.2586 -9.64038
8.19466 -9.44674 -6.94887
15.036 7.69109 -9.23869
2.69674 -19.716 -10.8247
2.43896 -8.83232 -4.9686
2.97253 -19.8138 -10.8259
15.0062 7.81693 -9.09135
2.35506 -20.0486 -10.721
11.1239 -9.75483 -7.86904
9.91362 -9.15472 -7.14493
15.2007 7.62873 -9.00566
2.37399 -8.84962 -4.84164
1.64644 -19.5935 -10.1576
2.37399 -20.6608 -10.6681
14.2134 -11.3559 -9.32048
-9.19957 -2.57832 -4.86318
11.516 -9.97163 -7.73521
2.1641 -20.1151 -10.1966
10.2776 -9.38245 -7.02976
0.842255 17.5334 -8.73264
11.1687 -9.79782 -7.40515
-8.78108 -1.93162 -4.40993
2.19915 -20.0263 -9.89319
3.88764 -9.26986 -4.93591
11.4318 -9.80857 -7.37295
1.98877 -19.743 -9.69964
-8.13946 15.6074 -8.52969
2.5127 -11.2269 -5.50409
1.98786 -20.9437 -10.0185
0.628311 17.2497 -8.17996
15.1751 7.75787 -8.05131
17.8441 16.7164 -11.5724
18.2364 17.4771 -11.7441
14.6307 -11.5685 -8.64699
9.89893 -2.6351 -4.74944
17.7844 16.742 -11.2943
9.84514 -2.49195 -4.69941
-9.91676 16.2739 -8.68121
-9.46803 -2.05148 -4.39331
9.94918 -2.63258 -4.67252
10.2867 -2.42243 -4.78806
9.85472 -3.00629 -4.66425
-5.32938 4.39223 -3.11165
8.18088 -8.4192 -5.29216
18.4023 17.9345 -11.546
18.2621 18.1048 -11.5684
19.6134 5.96675 -9.20079
7.23567 -11.0412 -5.8793
20.7863 5.45787 -9.55288
9.65218 -3.45414 -4.55882
-9.6165 15.797 -8.20779
-5.27548 4.83315 -3.16746
19.7188 5.69689 -9.07689
-10.9149 16.6333 -8.74925
18.5508 18.4044 -11.4662
-6.353 14.5502 -6.96478
9.68093 -3.63426 -4.50708
20.5152 5.55988 -9.21945
18.7198 18.9968 -11.5071
18.5083 19.1546 -11.4888
15.1428 7.75034 -7.25531
3.89841 -9.43939 -4.32762
-10.8721 16.5314 -8.35543
-13.2421 3.24322 -5.74591
1.26663 -21.3514 -8.96275
3.27615 -10.2603 -4.50501
14.4425 7.78049 -6.86375
19.345 20.1991 -11.7088
3.90345 -9.26218 -4.18458
15.0872 7.86732 -7.0628
19.0099 20.2694 -11.5486
14.2752 7.88603 -6.71154
4.02468 -8.51927 -3.86199
6.86908 -11.0023 -5.31094
-13.1843 2.47982 -5.48998
15.2499 7.64383 -6.95752
-7.76372 15.0113 -6.86573
1.19047 -10.5773 -4.32357
0.757585 -21.4923 -8.71065
-12.7584 2.31078 -5.21598
-9.22354 -1.42411 -3.726
-4.99853 5.54522 -2.95785
2.84438 -11.7819 -4.78024
14.4893 -11.4308 -7.21312
4.15619 -9.57963 -4.09118
1.52878 19.373 -7.5569
3.99541 -13.3208 -5.37432
19.3987 5.93062 -7.82132
0.864787 -25.3742 -9.69835
4.7926 -8.75153 -3.78636
11.9189 -10.3183 -5.98901
19.7707 5.6933 -7.80215
21.0202 24.9258 -12.1866
20.3839 5.53635 -7.88439
21.3035 24.8364 -12.2028
3.30982 -10.9934 -4.28143
-12.578 16.9356 -7.77876
12.0954 -10.2642 -5.83135
20.7912 5.30795 -7.86969
21.9816 26.2847 -12.4575
-8.10796 -2.79572 -3.10708
19.6896 5.84168 -7.3976
2.29568 -13.2895 -4.85146
0.806458 15.8941 -5.70802
-4.15994 13.5388 -5.04585
-8.16104 -2.77889 -3.076
6.8356 -10.6722 -4.49796
-15.3626 17.7485 -8.29373
16.3256 -12.3274 -7.24551
-10.6922 16.1147 -6.75603
19.7381 6.0181 -7.1689
3.75596 -8.75713 -3.2853
-8.48872 15.4305 -5.98778
3.03729 -13.6864 -4.77929
19.4569 -13.918 -8.18175
35.7034 -22.1191 -14.2705
-14.3533 17.5805 -7.6562
20.5061 5.57193 -7.12726
38.7789 -21.8972 -14.868
42.7194 -21.0233 -15.8641
16.7779 7.52617 -6.1294
3.49544 -10.3949 -3.65496
1.35117 -10.9186 -3.63662
-6.04968 14.4218 -5.09609
-12.2131 16.7478 -6.7422
16.1359 -12.4003 -6.61876
6.12164 -9.97166 -3.75952
3.37704 -10.2398 -3.45627
-1.08102 -22.7992 -7.29476
2.33497 -11.0618 -3.60098
3.27467 -10.1863 -3.3891
2.85003 -9.10968 -3.00922
13.9 -10.9909 -5.56812
-17.1971 18.5875 -7.92508
-8.62892 -2.62828 -2.82517
29.7484 -16.318 -10.6418
1.34712 -21.0067 -6.50186
20.6647 26.7603 -10.1999
3.26618 -9.99204 -3.1679
3.47336 -9.03251 -2.91204
-13.7847 17.2382 -6.59916
-20.4499 19.0699 -8.27829
-7.64695 14.8645 -4.914
4.85407 -12.1876 -3.84103
4.20113 -9.02932 -2.92653
2.09956 20.88 -6.16747
-4.18956 14.0697 -4.29632
4.1033 -9.05724 -2.90616
-14.6567 17.6317 -6.60819
-29.7999 -42.5873 -14.8738
7.26237 -11.3069 -3.83205
2.56326 -9.53586 -2.79876
-8.33533 -2.18341 -2.42915
4.51674 -11.2074 -3.40474
-2.32017 -23.4526 -6.60955
-8.90671 15.3548 -4.88481
4.43266 -11.4331 -3.37896
8.69179 -8.47773 -3.33539
-12.5516 16.7214 -5.71938
47.9261 -15.8894 -13.7611
-8.64816 -2.41901 -2.43157
-25.263 -35.0357 -11.7369
-23.3206 19.5724 -8.23227
3.29277 -10.116 -2.87351
3.44947 -10.1288 -2.88848
-3.95011 -28.4352 -7.71445
-25.5761 19.6148 -8.58905
44.697 -14.7464 -12.4369
48.3092 -13.9843 -13.3041
-7.8565 -35.3857 -9.55699
-7.57058 -35.7219 -9.633
-13.8364 17.3377 -5.7531
9.9896 -9.08448 -3.52814
11.5078 -10.2178 -3.9966
-10.202 15.9159 -4.88713
-13.0284 2.01291 -3.44727
-3.98058 -26.1179 -6.87011
3.30576 -9.98909 -2.7187
3.5719 -10.4468 -2.85563
-25.0185 19.8332 -8.18624
4.34672 -11.2288 -3.04474
4.46966 -9.82455 -2.72114
9.61232 -9.2955 -3.36988
7.03231 -11.553 -3.39283
-25.9357 20.0115 -8.18226
46.0862 -13.4149 -11.9749
-11.0408 16.2648 -4.87533
-23.9959 -34.9795 -10.469
12.0141 -10.3453 -3.9176
3.41875 -10.3941 -2.69085
-23.4007 19.6565 -7.47369
10.1164 -9.13585 -3.27858
-7.52075 14.6677 -3.95316
4.15047 -12.2582 -3.11586
15.3665 7.71839 -4.11754
3.44747 -11.3248 -2.83616
3.20942 -10.0046 -2.50282
4.92097 -12.8243 -3.30443
-6.16124 -35.2723 -8.5286
-10.1589 -39.0401 -9.57138
4.01732 -9.20139 -2.37374
-27.489 20.5429 -8.10486
15.1747 7.76703 -3.99496
-9.02961 15.5951 -4.22867
4.01678 -11.5775 -2.8824
-12.2902 16.7545 -4.85296
-25.186 19.9846 -7.46436
3.52093 -10.4242 -2.52195
11.2191 -9.63157 -3.41125
16.0033 -12.0641 -4.58952
-35.2098 24.9122 -9.86081
-11.3422 -39.4956 -9.37266
11.0837 -9.69099 -3.36714
-10.6715 -38.3638 -9.04091
-5.69611 -28.9022 -6.70932
42.5544 -13.1559 -10.0916
-25.7764 19.9127 -7.3472
15.0117 -11.6492 -4.27134
-29.2194 21.2245 -8.1019
4.47289 -5.8355 -1.65029
5.36465 -9.2987 -2.40101
-24.2531 -62.5753 -14.8478
-9.23383 15.4556 -3.96235
-11.8674 -40.7703 -9.34847
4.17015 -9.92589 -2.36802
13.7208 -11.0681 -3.88546
4.06992 -9.31807 -2.23485
42.9533 -12.7025 -9.80787
-22.4232 19.5455 -6.4848
3.4412 -10.235 -2.31583
4.46942 -10.0591 -2.38035
15.2508 7.66643 -3.66926
-27.5095 20.5839 -7.38385
-20.0306 -31.7589 -8.06957
-7.71002 -32.6706 -7.18463
-23.2954 19.6474 -6.49156
-29.459 21.3968 -7.74675
3.30775 -10.1091 -2.26833
4.93413 -8.97234 -2.1705
15.0586 7.8635 -3.59786
4.31604 -10.7003 -2.45362
43.668 -11.3801 -9.56164
-10.0845 15.7953 -3.95074
4.39807 -9.27306 -2.15164
3.17731 -9.19315 -2.01484
5.22784 -9.17081 -2.21065
15.0569 7.57688 -3.51415
-35.8722 23.6215 -8.93864
-26.0348 -24.1404 -7.34007
3.05491 -9.55375 -2.08417
-27.2417 -28.727 -8.15851
-18.7909 -29.3423 -7.17689
-29.1874 -74.6655 -16.5505
3.91059 -9.46482 -2.11194
3.78487 -8.84558 -1.97374
-14.94 17.666 -4.73332
-21.578 -57.2017 -12.556
4.04005 -8.89434 -1.99665
-33.5167 22.4457 -8.19987
-13.74 3.00585 -2.87353
-31.9915 -22.6097 -7.98952
-23.3263 -64.44 -13.9587
-10.449 -33.6578 -7.1714
46.0154 -10.0497 -9.56628
15.2232 7.77752 -3.42772
-17.0759 -22.6213 -5.69679
12.5683 -10.2707 -3.26306
-16.7766 -47.9996 -10.1542
4.26245 -10.9635 -2.34445
-11.5091 16.5022 -3.9941
-24.919 19.6073 -6.28357
-33.8723 -20.0519 -7.82612
-30.6942 -23.9715 -7.71938
-12.2974 -38.1947 -7.95192
-8.41245 -32.6177 -6.71263
14.8471 -11.7054 -3.74467
4.09645 -9.98486 -2.12619
3.28008 -10.0226 -2.06599
-33.6161 22.2119 -7.82845
-20.6496 -49.7252 -10.412
-14.4055 -41.6002 -8.40083
3.54245 -9.04295 -1.85882
-19.0757 -30.8956 -6.89581
-30.5124 -23.8131 -7.29889
-27.7076 -24.6037 -6.97612
-19.6035 -48.4469 -9.89223
3.95435 -9.25126 -1.9148
-15.0984 -41.1841 -8.21372
-23.0565 -52.3941 -10.5331
3.49561 -9.36288 -1.8441
-30.9824 -23.125 -7.03869
-29.7649 -25.5212 -7.14664
-31.1731 21.9468 -6.87091
-18.2059 -45.0475 -8.67344
-29.8119 -24.0152 -6.73379
-21.2489 -55.0234 -10.3958
-32.3727 21.5434 -6.80762
-14.9053 -42.036 -7.82476
3.46177 -9.72839 -1.8036
14.3638 7.97215 -2.85115
-33.0141 22.6228 -6.94018
-27.5763 -24.1697 -6.3783
3.53676 -9.68458 -1.7867
4.8643 -8.77613 -1.73804
-25.5376 20.0495 -5.60947
-29.1099 21.1721 -6.20713
-29.4798 -27.1535 -6.9165
3.96124 -10.1918 -1.88536
14.2053 7.65815 -2.77515
-21.1133 -48.5151 -9.00202
-19.6898 18.734 -4.58463
-30.052 -23.8862 -6.51021
-17.7911 -44.1123 -8.06909
5.72761 -11.9992 -2.24347
44.3274 -12.5196 -7.80742
-16.4286 -43.852 -7.8878
43.3357 -11.2754 -7.53124
5.09903 -10.9406 -2.00802
6.8301 -11.3487 -2.23629
-9.86948 15.6903 -3.00524
-29.0043 -22.4522 -5.97777
44.7492 -12.0177 -7.53902
-21.0775 19.1467 -4.61756
7.7173 -9.30008 -1.91361
-18.3274 -45.3446 -7.77085
-21.8267 19.191 -4.58313
-22.9604 19.5732 -4.6931
-31.1064 21.9119 -5.88607
3.89242 -10.3089 -1.69204
-30.6143 -23.6711 -5.91557
-12.5254 -37.7916 -6.11908
-29.4199 21.4104 -5.5305
-20.2647 -48.7747 -8.04677
-7.25077 14.6805 -2.46622
-31.8309 -22.3694 -5.86194
-31.1312 -22.8871 -5.85509
-26.5116 -24.875 -5.47156
-31.6835 -22.8036 -5.85537
-29.9214 -23.9515 -5.7298
-33.1925 -22.1701 -5.92556
-23.6128 19.8219 -4.54401
-31.5783 -23.631 -5.81282
-30.6349 -23.199 -5.67513
-24.2383 19.9732 -4.59391
-30.1026 -24.9757 -5.7273
-11.333 -37.5616 -5.75439
-12.0137 16.4333 -2.93105
-7.27066 14.5444 -2.31644
3.57025 -9.72641 -1.4732
40.256 -13.2397 -6.02605
-31.8966 -23.496 -5.6045
-29.2426 -23.241 -5.2573
-24.3364 -51.4355 -8.07999
-28.7126 -24.2171 -5.2897
-21.6767 -49.9762 -7.60891
-18.4737 -44.5149 -6.71891
-6.4576 14.3065 -2.12843
-13.3293 17.0299 -2.93243
-10.577 -37.0301 -5.24716
-7.02415 14.2347 -2.12934
-21.0807 -54.88 -7.9575
-21.2904 19.3619 -3.83194
-21.9328 -49.7146 -7.22262
-29.9263 -23.1016 -4.99056
47.8104 -11.0173 -6.45116
47.0915 -10.3524 -6.35078
-12.1379 -37.7237 -5.21101
6.76609 -11.1508 -1.71434
-14.2859 17.498 -2.93879
-21.6927 19.1062 -3.74676
-31.4655 -16.8888 -4.60886
-31.137 -23.2451 -5.00265
10.929 8.96445 -1.827
-31.7494 21.8306 -4.94677
-28.0829 21.3699 -4.44812
-29.5688 -23.1501 -4.7378
-11.7572 -33.4536 -4.48572
-29.1961 -59.5226 -8.30429
9.81034 -9.18159 -1.6762
13.0317 -10.6503 -2.1181
-31.8323 22.3309 -4.86191
-34.4199 -21.4436 -5.05085
-29.2106 -24.1439 -4.70921
6.89446 -10.4852 -1.56528
-31.4637 -22.2395 -4.77475
-12.2559 -38.2387 -4.94168
13.4433 -11.2068 -2.14765
43.885 -11.406 -5.59775
-15.4061 17.7358 -2.87076
-14.6787 -35.5813 -4.70682
-8.30879 14.8531 -2.07128
45.9354 -10.5818 -5.7069
15.3074 7.99108 -2.07591
9.54659 -9.05828 -1.57058
-32.2039 -22.469 -4.65647
-16.9825 18.4576 -2.93426
-20.1693 8.92556 -2.61378
-30.2954 -23.4542 -4.51885
-22.7307 -51.5024 -6.61627
11.4733 -9.8697 -1.7714
44.2787 -11.8537 -5.39623
15.0214 -11.6635 -2.18512
15.2287 7.82803 -1.94859
-28.2799 21.5069 -4.053
7.40517 -11.2448 -1.52702
-9.74608 15.5604 -2.05518
9.58888 -9.45335 -1.49842
13.0109 -10.6862 -1.87677
14.2539 -11.2504 -2.01919
9.58842 -9.24676 -1.47798
7.17781 -10.6292 -1.40424
46.998 -10.2646 -5.23537
-10.3778 15.5891 -2.01858
-31.2855 22.0611 -4.15756
11.9143 -10.0102 -1.67976
6.34162 -13.04 -1.52401
7.70609 -11.7953 -1.46532
9.98583 -9.03029 -1.41608
-13.808 -39.9022 -4.42871
16.9553 -12.5562 -2.21192
-26.9455 -54.1355 -6.27384
15.1676 7.6378 -1.73742
-29.6345 -23.6175 -3.89259
14.1029 -11.1585 -1.84238
-30.3537 -23.4794 -3.88287
15.1591 7.92053 -1.72021
-12.0737 16.1466 -1.98078
-18.1311 -45.9712 -4.79003
-28.5727 -57.7205 -6.16702
-22.2434 19.4581 -2.79233
-29.4816 -24.1516 -3.62282
-29.447 -24.4601 -3.64855
-19.0298 -49.797 -5.02805
-13.3969 17.143 -2.03625
-29.7707 -23.2912 -3.52768
-14.2133 -38.7151 -3.84315
-12.4855 -38.8083 -3.80423
9.95994 -9.23171 -1.26157
-29.1992 -56.8794 -5.89119
8.67184 -8.7703 -1.11958
16.8855 -12.5813 -1.92574
-14.2511 17.4821 -2.0233
-34.1493 -21.2401 -3.63935
-31.2368 22.0548 -3.36848
-29.5518 -23.8414 -3.35547
14.3264 -11.3947 -1.62441
-30.796 -18.7665 -3.0771
11.2248 -9.85073 -1.27126
-25.2646 20.4938 -2.73292
-10.4003 -32.371 -2.87435
9.52843 -9.13624 -1.10804
-31.9143 21.9425 -3.21867
8.7983 -8.79992 -1.02186
17.1565 -12.5123 -1.73393
-15.1233 -39.2985 -3.38479
-19.2884 -44.1239 -3.76983
-14.0562 -34.7013 -2.96814
-12.1867 -34.194 -2.88476
9.32689 -9.06396 -1.02155
11.4674 -9.94089 -1.18943
15.1795 -11.8731 -1.52514
-28.2833 21.5686 -2.76859
-28.2393 -13.1815 -2.42121
12.0594 -10.2166 -1.22468
-20.7574 -46.2297 -3.88168
13.0116 -10.8001 -1.28064
-35.152 -66.6908 -5.4556
10.091 -9.26141 -0.992381
11.0794 -9.88974 -1.03478
-31.7839 -19.7313 -2.58792
12.1562 -10.2168 -1.09912
15.0218 -11.8275 -1.32828
-14.2163 -35.9227 -2.62934
-13.8032 -36.5165 -2.67633
19.0586 -13.7735 -1.56033
-22.1478 19.392 -1.95444
-21.9777 -50.7002 -3.65392
13.1098 -10.7844 -1.13441
-13.312 -36.9324 -2.55144
15.6035 -11.7814 -1.26996
-28.3472 -57.3945 -4.01938
-13.3403 -41.3504 -2.70001
-30.9847 21.889 -2.32279
-28.8109 -56.9754 -3.88527
-15.508 -37.7766 -2.48974
32.3511 -21.4489 -2.36131
44.0222 -11.48 -2.76131
37.9588 -9.1519 -2.36537
-13.7902 -37.0247 -2.38701
-25.556 20.7413 -1.86699
-27.9747 -13.7726 -1.80188
-35.6363 -68.8616 -4.41107
-14.4257 -37.5816 -2.245
17.304 -12.9118 -1.20888
-26.2042 -15.7687 -1.64626
44.645 -9.94489 -2.35181
-9.21073 -12.307 -0.780328
-14.0392 -37.3629 -1.98753
5.87549 -12.8233 -0.700071
-13.5074 17.1237 -1.06412
-13.4185 -42.1774 -2.17316
15.1816 7.96478 -0.82741
-14.8883 -38.1635 -1.94621
-12.9032 -41.9663 -2.07102
19.2178 -13.6353 -1.12865
-15.2998 -44.3725 -2.18858
38.2842 -9.40296 -1.84683
-27.8714 -14.252 -1.40061
-21.6416 -49.5898 -2.39812
-15.1299 -37.2268 -1.78799
9.7978 -9.24576 -0.600374
12.8315 -10.5319 -0.744696
46.4657 -10.6322 -2.11925
-12.6734 -38.5516 -1.72645
-30.9187 21.8573 -1.5781
-49.6181 26.9478 -2.25386
-31.8917 21.9478 -1.42183
-16.8658 -44.1063 -1.77091
-33.0501 -20.8122 -1.39562
9.88552 -9.19992 -0.496273
6.73523 -11.0443 -0.448479
-11.8965 -35.4652 -1.23705
7.66285 -13.4504 -0.528079
19.1044 -13.5313 -0.790109
-23.6185 -51.7295 -1.87031
-12.2348 -34.7112 -1.19129
22.2084 25.6144 -1.09197
-21.9727 19.5072 -0.926549
-20.9343 -52.4484 -1.80503
-42.5302 -81.118 -2.83816
-18.567 -47.5449 -1.58084
21.6601 -14.771 -0.796246
-26.7134 -13.747 -0.910525
-11.7203 -37.5097 -1.16693
-22.8942 19.4536 -0.86414
-21.1038 -48.5685 -1.50412
-15.7304 -42.574 -1.30743
23.1485 -10.4174 -0.765774
-32.949 -20.0759 -1.06664
-9.59236 -12.5852 -0.451765
-20.4088 -48.1303 -1.47342
18.5029 -13.7843 -0.586712
34.0431 56.8138 -1.7229
-28.424 21.6875 -0.920632
-29.519 21.5912 -0.905968
-26.3683 -12.6697 -0.716778
9.69951 -9.12767 -0.322184
-19.6084 -31.5836 -0.865419
-38.2625 13.2725 -0.886796
21.8638 -14.6294 -0.557862
-49.8616 17.9836 -0.980008
18.9276 -13.6459 -0.437194
13.0515 -10.7223 -0.281093
-6.78989 14.6979 -0.284024
-31.8129 10.0609 -0.552699
-27.365 -13.0311 -0.479651
-35.381 -20.1491 -0.617879
-16.458 -40.3462 -0.671775
-7.38514 15.5319 -0.234395
-31.0503 -23.1954 -0.536464
-32.3618 -22.0613 -0.50044
-30.2311 -61.084 -0.840566
17.7319 -13.2297 -0.267885
18.7041 -13.467 -0.291706
30.1312 -18.5799 -0.471385
-18.9371 -48.5025 -0.628481
-28.59 21.7977 -0.385227
-35.8554 -20.0431 -0.452916
-24.6321 -52.5617 -0.614573
-17.0297 -39.0604 -0.453692
-49.3339 27.0369 -0.470379
-30.1033 -53.1043 -0.558989
-17.8367 -46.781 -0.472404
39.0571 -9.43593 -0.368961
-13.6053 17.2691 -0.155821
-29.9703 -66.7416 -0.495803
-16.3297 -39.6081 -0.289068
-28.4249 -8.83885 -0.172437
9.70863 -9.1356 -0.0413829
13.4148 15.3532 -0.0436306
15.0795 7.93837 -0.0301117
-28.4333 -12.6842 -0.056118
-11.3588 -16.5383 0.0251328
-12.4602 -18.7548 0.0437718
-17.0818 -39.2115 0.179593
9.57109 -9.11248 0.0603303
-30.9597 21.9106 0.194949
-19.2821 -48.6789 0.257624
-29.1643 -13.5356 0.193374
17.2294 -12.5713 0.119597
-12.6797 -19.4414 0.152471
15.0115 -11.6935 0.150014
-49.7951 17.841 0.466058
7.25193 -12.4606 0.121152
16.3512 -12.1166 0.173073
-34.8027 -21.0601 0.42769
39.781 -8.17652 0.423093
-33.7214 -21.1323 0.454294
-11.6342 -32.1344 0.401508
-12.091 -32.5159 0.423024
-10.4195 -30.0048 0.388963
-8.9845 -27.7993 0.355878
29.3088 59.3465 0.857315
9.72139 -9.14387 0.172603
-12.3782 -19.1812 0.311897
-10.0758 -30.5869 0.443777
8.67369 -8.61664 0.185368
6.4669 -13.2303 0.214471
7.28462 -11.2254 0.204317
9.47353 -9.18399 0.19062
8.13646 -9.23225 0.196829
9.85907 -9.12889 0.221376
39.2217 -8.40338 0.658359
-22.7765 19.5324 0.535358
-31.7813 -21.3824 0.660176
-32.8838 -24.1266 0.715603
13.1458 -10.7994 0.278916
13.4654 -10.8609 0.324349
-9.72368 -12.3288 0.296862
6.96196 -11.41 0.260634
8.09674 -9.51585 0.245694
29.9691 61.6658 1.3696
7.10679 -11.1708 0.266179
9.2961 -8.79585 0.271905
11.7103 -10.0654 0.33847
17.5511 -7.8394 0.387019
7.34291 -11.141 0.301991
-9.27328 -11.9714 0.383449
-12.3905 -19.021 0.543466
7.74915 -9.43453 0.278101
7.93658 -9.49136 0.287235
-24.4117 20.5179 0.825984
-28.0739 -9.00271 0.739808
9.7485 -9.07048 0.34256
17.9041 -13.0794 0.559269
18.7784 -13.5217 0.575802
-21.9366 19.2062 0.757408
-26.3747 20.8447 0.875216
-28.0916 -8.43115 0.767772
-31.89 -17.0038 0.982222
-12.9258 -19.5189 0.623455
15.0531 -11.6963 0.508825
23.2109 -3.3772 0.659914
-11.8279 -18.4433 0.635018
25.5606 -4.84227 0.757143
17.2153 26.7167 0.950694
-26.9943 -19.8863 0.993161
7.3646 -11.5363 0.410896
7.08662 -10.8827 0.395474
15.4878 25.2303 0.907148
-7.52773 -8.6985 0.351875
13.2593 -10.8496 0.52328
-7.22158 -9.38605 0.362911
-27.7481 -7.83198 0.959391
-11.5663 -16.9075 0.687015
7.97572 -9.47365 0.409733
16.507 11.2779 0.715018
11.0146 -9.59099 0.530596
12.0809 -10.2073 0.57635
25.3133 50.9731 2.13473
-7.36441 -8.04022 0.407597
9.77656 -9.07556 0.498006
23.2825 -3.26895 0.902459
30.2496 62.5326 2.68657
-7.34246 -9.74573 0.477543
10.5788 -9.64843 0.561677
12.943 -10.6898 0.678307
21.9794 -2.69384 0.902633
-28.1423 -17.0733 1.34675
8.84461 -8.80491 0.515755
-6.84321 -8.36744 0.464767
9.55793 -9.04161 0.55002
13.0311 14.959 0.87514
-28.0665 -8.23699 1.28535
15.2761 19.8974 1.1262
15.857 27.3027 1.40542
23.7403 46.6845 2.31413
6.37297 -14.1993 0.693563
10.9991 -9.64962 0.661752
18.7763 -1.66638 0.862168
21.0521 40.0845 2.12174
15.8144 27.8642 1.50086
-11.0444 2.7394 0.547024
-7.14642 -9.41985 0.570478
9.28438 -9.10004 0.615683
11.5504 -8.86174 0.681759
20.4601 -2.34469 0.991881
11.8945 12.1222 0.842548
17.6587 42.4683 2.25944
7.86374 -9.58424 0.610134
10.323 -9.40193 0.691428
15.3365 26.0067 1.5106
21.8529 42.3779 2.41849
21.3874 -2.66432 1.09578
-7.3192 -8.40885 0.578521
9.5046 -9.04951 0.683328
17.522 25.6949 1.63259
17.5799 31.8706 1.89837
13.2315 -10.9064 0.911112
10.8081 12.6348 0.888456
14.7551 20.029 1.33534
11.2363 -9.7431 0.804172
15.5742 20.2919 1.40966
-25.0947 19.2369 1.72529
-6.89207 -8.08589 0.587907
10.4991 12.6934 0.921734
-7.16874 -9.25444 0.655925
10.2333 12.748 0.947341
-26.5058 18.6612 1.8381
6.27006 -13.2418 0.838384
11.44 12.367 0.967524
-6.8208 -6.73163 0.555766
11.5308 12.2958 0.991811
-6.73265 -8.31948 0.640718
6.40693 -12.8788 0.840084
15.1953 20.2177 1.51984
14.7952 24.1901 1.69055
14.4162 33.3175 2.17773
-6.02939 6.42174 0.53946
-8.0799 -7.65606 0.673362
-7.04004 -8.07625 0.658137
5.87003 -12.7658 0.849154
-7.41117 -6.82338 0.626693
7.1335 -11.3657 0.8295
7.10206 -10.7335 0.803084
11.5093 -9.93501 0.938987
12.3218 -10.3078 0.995528
16.5054 7.30994 1.14962
15.4412 20.0032 1.59788
-7.17525 -6.25329 0.61724
10.4069 -9.50497 0.909544
-7.31511 -6.20588 0.62918
11.7408 12.389 1.16233
10.0379 22.5978 1.68313
-7.17739 -9.52735 0.797311
11.9149 12.9229 1.20515
-6.90831 -4.42717 0.564095
-6.68122 -8.11465 0.71701
-6.6562 -4.40494 0.55026
9.39097 -8.97843 0.904401
10.1153 -7.93617 0.905599
13.1032 16.5149 1.5236
-6.61485 -6.60751 0.649606
9.93096 -8.38629 0.950386
11.8612 17.7355 1.6034
11.822 18.8478 1.66137
9.98461 19.0041 1.61835
9.42995 20.3798 1.68849
7.79608 23.2365 1.84241
11.1959 19.3249 1.70091
10.1299 -7.68571 0.972154
-6.96296 -7.12255 0.763295
-16.9053 -6.13165 1.40598
9.57933 -7.76602 0.966606
9.72947 19.4329 1.71486
-6.34218 -4.2348 0.604287
-6.75817 -8.13385 0.838555
4.86261 -5.76627 0.599555
9.4425 20.7745 1.80962
8.13809 19.8982 1.72835
5.05838 -5.82991 0.621719
13.0624 11.7869 1.42511
12.0468 12.1009 1.39764
6.82305 -9.51853 0.951721
12.5104 11.966 1.42249
7.04926 20.6946 1.78957
-6.31822 -4.36161 0.625408
-7.07184 -9.35965 0.963245
11.816 12.3792 1.4154
10.6609 9.32652 1.20568
-4.95179 -11.2979 1.04293
6.17038 -6.08985 0.756601
9.31456 -7.25637 1.01541
-6.73834 -6.63695 0.803541
10.6842 12.6619 1.44583
8.88934 -7.40712 1.0057
11.0857 12.4967 1.46153
-7.23634 -7.68665 0.925662
8.27305 -7.36513 0.983307
10.4591 12.7842 1.4845
-7.00192 -7.66563 0.920691
-6.86417 -8.25163 0.963542
10.8547 12.6179 1.511
10.7849 13.912 1.59444
-7.04062 -8.23901 0.987469
11.4563 11.066 1.46466
-6.27745 -4.20638 0.694525
-6.78585 -8.49911 0.995363
-6.29056 -4.36812 0.70565
11.2752 8.70149 1.33612
10.838 9.50122 1.34348
6.74796 16.0302 1.63596
11.3051 11.2393 1.48751
10.7425 11.557 1.49269
-11.089 2.84156 1.08049
6.20168 -6.00805 0.823039
8.07872 -6.69732 1.00778
10.9379 9.36654 1.39761
9.77046 12.856 1.56325
9.95685 12.7779 1.59572
7.87115 12.5884 1.47467
8.14279 13.6125 1.57882
11.4126 8.19548 1.43163
7.34615 13.0725 1.51333
9.27003 11.6174 1.51206
7.22132 13.9807 1.61047
6.08342 14.4557 1.61037
9.39198 10.7074 1.47184
9.26219 12.6185 1.62619
11.5735 7.78268 1.45463
9.43784 10.2068 1.44714
5.00413 -5.85563 0.826744
-6.80095 -4.62551 0.867348
5.78714 14.4186 1.64951
-7.01182 -4.4765 0.886903
9.1219 10.9301 1.5284
-6.70976 -6.71939 1.0158
5.95018 -5.873 0.902919
9.85878 8.68017 1.41561
9.13062 9.53675 1.41984
9.45013 10.5348 1.53423
4.97948 14.4323 1.6484
4.28617 -8.15137 0.9972
6.6257 11.085 1.42118
-6.75989 -3.90094 0.858746
6.52696 12.2385 1.53912
-6.85268 -3.83924 0.869846
9.85834 7.31485 1.37254
6.84376 11.6803 1.50782
9.95245 7.13583 1.37554
5.59591 11.9298 1.49027
5.61128 12.4776 1.54566
4.86623 12.6647 1.53571
9.97755 6.78156 1.3747
-6.84705 -4.53396 0.940258
7.46912 -6.28247 1.11235
-7.28325 -0.780391 0.839199
-6.23409 -5.35552 0.946418
5.28155 -5.60235 0.888275
9.02123 8.02015 1.40614
4.45937 -7.25014 0.985736
10.5482 5.22209 1.37817
9.1049 7.92086 1.41847
5.23287 -5.64651 0.909355
8.74462 8.0494 1.41015
9.06849 9.22577 1.51342
-6.99573 -5.60932 1.06091
10.266 4.8071 1.35039
-6.8762 -3.82813 0.947932
9.26579 6.22889 1.35396
5.36886 11.7689 1.56861
-6.85287 -3.04762 0.910867
-6.83713 -3.23244 0.914165
4.91357 -5.99229 0.945652
6.01943 -6.17572 1.04984
9.49602 5.69591 1.3687
8.59248 7.33582 1.39678
-6.90612 -4.28306 1.00081
-6.83759 -4.50584 1.00902
8.40783 8.74045 1.50461
5.18543 11.6623 1.5854
-6.50528 -5.5792 1.06648
3.74897 -7.65615 1.06191
8.64228 7.86954 1.46247
6.12017 -5.65644 1.0447
9.29196 6.1439 1.41153
-6.096 -5.37906 1.02578
8.67202 6.70881 1.39813
8.21714 7.62939 1.42631
-7.05796 -1.77212 0.930209
-6.97208 -2.29239 0.936824
-6.40359 -5.28417 1.05916
8.94319 5.73364 1.36177
8.29375 8.18249 1.5016
-7.21739 -1.24528 0.93854
-6.85506 -4.09336 1.03196
7.53201 6.3052 1.27214
8.20007 7.14714 1.41045
8.10607 8.26528 1.50017
-6.86999 -2.8097 0.965883
-6.87107 -2.94869 0.966254
4.6775 10.3591 1.49436
9.0958 4.15578 1.31615
-7.20204 -1.59603 0.968863
6.8818 -4.28542 1.07734
4.96127 -5.98339 1.03033
-7.28541 -1.10989 0.985811
-6.97244 -2.18624 0.976966
-7.00903 -2.25498 0.983172
-5.96215 -4.37416 0.98802
5.2294 -6.61656 1.12375
6.9531 -4.20185 1.09361
8.19642 7.27953 1.48509
-7.10713 -1.7076 0.982113
-7.03962 -1.94383 0.981719
8.8969 4.9119 1.3802
8.44043 5.94968 1.40398
-6.87921 -3.59715 1.05749
8.96353 4.2069 1.35803
3.46201 10.8823 1.56455
-7.26536 -1.19216 1.00723
-5.97704 -4.417 1.02195
-5.95735 -4.51505 1.02315
7.19293 -3.95888 1.12837
8.18482 6.57669 1.45211
5.47371 9.25196 1.48899
-6.34517 -4.29635 1.0503
4.96277 -5.55919 1.03506
7.23065 -3.85388 1.14024
7.60969 -3.71072 1.17134
3.73147 10.3532 1.5334
3.54894 10.68 1.57017
-7.32066 -1.075 1.03235
-7.03064 -1.9916 1.01779
5.00061 -5.31766 1.02028
7.29284 -3.76137 1.1527
7.41064 -3.69597 1.17444
7.92635 -3.37946 1.22488
-7.11039 -1.86309 1.04482
-6.9659 -2.92811 1.09463
-5.97515 -4.34955 1.06273
7.95992 -2.80152 1.23457
8.32602 4.6732 1.39885
5.09922 8.73583 1.48303
8.46424 4.55812 1.42079
7.88344 -2.35657 1.21283
7.23721 5.76133 1.38531
3.05609 9.75693 1.53003
-7.05025 -2.00708 1.09811
7.53352 -3.13031 1.22977
8.32172 4.59912 1.44124
5.88549 7.56941 1.45628
5.38789 7.77324 1.44161
5.22656 8.098 1.46446
5.18126 8.21221 1.47009
7.38159 -3.19042 1.22815
7.73158 -2.77483 1.25083
-6.71652 -1.67291 1.04204
7.88546 -2.27229 1.25836
7.32531 5.49401 1.40611
-7.05961 -1.94034 1.13562
-6.87858 -2.76923 1.15209
6.90072 5.59745 1.39385
-7.30675 -1.0885 1.15324
-7.09976 -1.81278 1.14707
-7.00352 -2.05488 1.1431
-7.07676 -1.86085 1.14776
-6.85394 -2.91674 1.16896
4.90044 7.59878 1.43851
3.46639 -6.06687 1.11546
-7.22875 -1.29102 1.17574
3.54602 -5.73653 1.08621
3.58239 -5.64034 1.07535
7.16028 4.82662 1.40722
4.75113 7.52012 1.44828
-7.02785 -2.01111 1.19082
-7.04953 -1.93497 1.19905
7.05494 4.88881 1.41965
3.90722 8.11783 1.49248
6.08477 -3.33653 1.15592
6.71873 4.93588 1.3902
4.75036 7.30165 1.45365
3.85353 -5.32408 1.10445
7.1926 4.47901 1.42682
7.55089 2.8874 1.36625
6.40659 5.35581 1.4155
-7.23222 -1.24764 1.24916
6.83134 4.13032 1.37109
-6.4156 -2.75679 1.19105
5.53524 -3.64659 1.13857
5.71845 -3.53563 1.15424
2.83019 8.0676 1.4795
-7.32404 -1.03269 1.28167
5.35791 -3.80046 1.14499
-6.27774 -2.24776 1.15578
-6.23869 -2.40412 1.17022
4.29794 -4.68288 1.11139
4.51191 -4.49492 1.11708
4.61045 -4.4671 1.12612
-6.76154 -1.7225 1.22858
4.40931 6.61571 1.4189
-7.1141 -0.922405 1.28162
-6.11314 -2.24635 1.1596
6.71224 3.73253 1.37691
6.17243 4.41378 1.3766
3.62413 -5.35007 1.17498
5.22456 5.77038 1.42424
2.57965 7.38425 1.47081
6.54906 3.08241 1.36871
-1.69937 -5.75864 1.13662
6.46242 -1.39366 1.25432
6.33173 2.80394 1.33338
6.27254 2.40235 1.34024
-4.40864 3.90055 1.38196
4.36703 3.56891 1.34949
4.24894 3.32209 1.33575
4.67803 -1.68228 1.24841
4.83356 -1.38512 1.25797
-2.11193 4.72809 1.29055
3.73208 -2.95692 1.22416
3.67702 -2.55217 1.19504
3.4092 -2.96389 1.22687
4.03122 2.58695 1.3391
-2.5917 -3.53012 1.24897
-2.32433 -3.56758 1.21479
3.77504 2.0691 1.30936
3.7509 1.99067 1.30856
-2.81958 3.45592 1.37347
-2.29653 -2.41909 1.18647
1.95074 -2.77469 1.2105
-2.11201 2.75021 1.31467
-2.01794 2.73873 1.32097
2.24673 -1.86642 1.22377
2.37694 -1.49622 1.22135
-2.00953 1.86968 1.28937
-2.06538 -1.44331 1.2276
1.44419 -2.06312 1.24212
-1.99336 -1.088 1.21353
-1.92567 -0.707766 1.21879
-1.92736 -0.703529 1.24433
-1.95592 -0.344363 1.22721
-1.89353 -0.56475 1.22856
-1.8931 -0.530952 1.2336
8.30313 -8.78604 -7.53846
12.3 -10.4341 -8.92382
-8.47977 15.1297 -6.72467
21.3379 25.9901 -12.0892
-8.73043 -2.50029 -2.5589
-32.9764 -22.0285 -7.3264
-32.6312 -21.3399 -5.75313
-32.3548 -21.9878 -5.8096
-30.0064 -19.2442 -2.68045
9.41915 -8.97155 -0.397264
-7.22537 15.5747 -0.423971
-28.5686 -11.055 0.705963
-6.84627 -8.18251 0.455877
17.5435 25.192 1.6665
11.7853 16.5747 1.68161
-6.64095 -6.61432 0.876467
4.3902 12.7403 1.55363
8.90214 9.27298 1.50343
8.04531 -8.84215 -10.4709
8.91797 -8.62103 -10.5964
7.01752 -12.0348 -11.6067
6.93199 -11.4429 -10.9833
8.22846 -8.34024 -9.61878
7.07946 -12.1208 -11.4115
7.12936 -11.0664 -10.5439
8.07807 -8.45561 -9.28832
6.78773 -11.3803 -10.3745
6.50177 -11.7935 -10.2957
7.83128 -8.93297 -9.05447
6.25892 -14.4278 -11.8983
8.38278 -8.78756 -9.19071
6.3549 -12.0064 -10.2569
6.19807 -12.1801 -10.1883
7.56714 -9.53869 -9.08862
7.98525 -9.14064 -9.0091
10.6033 -9.57113 -10.6211
6.16509 -14.2056 -11.4436
6.13956 -13.7425 -11.0643
6.18274 -12.6741 -10.3693
9.29995 -8.92371 -9.45286
9.38909 -9.17327 -9.5716
5.91449 -12.6025 -10.1105
9.46565 -9.08889 -9.36323
6.93264 -11.2366 -9.36751
5.66163 -13.0665 -10.0764
9.80963 -9.19011 -9.52395
7.68501 -9.43518 -8.55368
10.1208 -9.29889 -9.65339
11.0563 -9.61263 -10.2779
11.5996 -9.83186 -10.2094
8.47215 -8.69626 -8.03631
7.50876 -9.39422 -7.94412
8.25646 -8.81204 -7.97984
7.70913 -9.44928 -7.97643
7.92037 -9.50004 -7.92523
8.41003 -8.6258 -7.69952
0.347041 15.8292 -10.1032
7.60878 -9.42257 -7.70514
11.0589 -9.73633 -9.36588
7.3103 -10.8236 -8.26381
8.24267 -8.58726 -7.50495
4.64013 -15.4768 -10.1596
8.80281 -8.78799 -7.69431
8.00587 -9.12699 -7.48689
4.06769 -18.0713 -11.4083
8.28531 -8.71826 -7.35109
4.09612 -17.3192 -10.8583
0.13404 14.8312 -9.02544
6.72987 -11.3856 -8.04968
7.82393 -9.36331 -7.40169
10.2665 -9.44117 -8.46089
6.89678 -11.3725 -7.98207
8.15014 -9.30502 -7.42316
11.432 -9.83606 -9.01435
5.45071 -13.9731 -8.89289
7.81932 -9.3653 -7.23344
9.46349 -9.14083 -7.79447
6.98168 -11.2391 -7.82834
8.07139 -9.22687 -7.1914
9.87862 -9.3049 -7.90688
15.1073 7.54999 -9.81315
8.77136 -8.93596 -7.23349
7.01098 -11.0841 -7.53518
2.65955 -11.2814 -6.66413
7.94733 -9.17093 -6.94844
9.73014 -9.25807 -7.62738
10.9396 -9.62306 -8.21709
0.119218 15.2765 -8.61772
3.27174 -20.4914 -11.6696
6.87392 -11.0956 -7.31505
10.2411 -9.41429 -7.78828
12.5454 -10.5257 -9.18092
9.35398 -9.11701 -7.29709
4.66007 -14.415 -8.44329
8.09935 -9.32487 -6.85774
15.0315 7.68594 -9.27308
9.82356 -9.22443 -7.39896
0.824188 17.4656 -9.55051
2.73022 -19.7103 -10.8507
11.2893 -9.78178 -8.10836
4.28317 -14.5754 -8.2203
14.9425 7.81536 -9.08752
15.3766 10.6183 -10.0386
14.2625 7.86945 -8.70839
11.1084 -9.75543 -7.85966
13.498 -10.991 -9.25689
3.03159 -19.2001 -10.219
11.525 -9.97026 -7.75198
2.16171 -20.2334 -10.2709
10.4097 -9.47668 -7.07678
14.5259 -11.4879 -9.29578
14.0653 -11.3757 -9.05329
11.1753 -9.80126 -7.40351
7.59776 -9.4472 -6.00189
3.58757 -8.52269 -4.55592
-8.62659 -1.8941 -4.34182
2.20818 -19.9444 -9.84307
4.56104 -9.35437 -5.08861
0.393272 13.656 -6.68949
7.69714 -9.37743 -5.91826
-8.25428 15.7392 -8.60142
-9.11735 -2.41027 -4.54355
15.2942 -11.8098 -9.28312
19.7681 5.6564 -9.83623
-10.2077 -2.52728 -4.9735
1.90396 -20.4007 -9.74315
17.6695 16.6084 -11.4925
7.6844 -11.3575 -6.46804
20.4459 5.51898 -9.97627
14.2787 -11.3034 -8.46631
2.95442 -17.441 -8.22303
19.7513 5.84423 -9.5189
18.255 -13.3024 -10.4304
9.94822 -2.5129 -4.74169
20.7089 5.24915 -9.85978
17.8051 16.747 -11.2707
1.79964 -20.0122 -9.19665
9.79521 -9.15838 -6.1389
-9.12747 -1.65676 -4.23018
9.53037 -3.49711 -4.62409
6.80638 -11.4707 -6.06425
9.99668 -2.64058 -4.6906
19.6433 5.99013 -9.2487
18.2411 18.0973 -11.5588
9.44398 -3.11107 -4.47626
15.7575 -12.1246 -8.91957
7.1371 -11.7228 -6.13618
7.24253 -11.053 -5.88796
9.63852 -3.43307 -4.56004
-9.71894 15.9194 -8.29827
18.0642 -13.1825 -9.93422
19.9376 5.74375 -9.19944
16.4078 7.44289 -7.98212
18.3605 18.5494 -11.5504
16.7789 -12.4778 -9.21309
-10.8738 16.5277 -8.6895
-6.37915 14.5631 -6.96514
-5.17268 4.85031 -3.08728
20.5583 5.58216 -9.26429
9.63745 -3.43334 -4.41575
18.7859 19.0447 -11.5054
16.1566 -12.4323 -8.76954
15.1289 7.56511 -7.22276
3.87358 -9.38279 -4.31126
-10.8118 16.4359 -8.32271
7.03565 -11.0469 -5.52044
-13.3683 3.27605 -5.7976
0.740283 -22.0227 -9.28757
16.1205 -12.2043 -8.45328
-5.09377 5.6072 -3.16687
0.99085 -21.8736 -9.18049
1.23074 -20.6174 -8.65291
14.4191 7.73423 -6.84757
19.1555 19.9669 -11.5689
3.81443 -9.02605 -4.08499
15.0411 7.87174 -7.07034
18.489 19.7512 -11.2353
-9.42346 -1.08158 -3.915
4.03287 -8.55324 -3.87345
14.2854 7.88886 -6.70299
6.9357 -11.1313 -5.35976
-13.4155 2.50593 -5.5818
-7.72338 14.9519 -6.83287
19.9394 21.671 -11.9388
15.3508 7.37668 -6.86571
-5.13983 14.0172 -5.9808
14.2231 -11.2441 -7.09921
3.98194 -9.18771 -3.92935
1.53948 19.4963 -7.60087
-8.47074 15.2898 -6.78682
19.3817 5.91106 -7.85406
-1.73265 13.0529 -5.09755
5.35298 -9.49322 -4.20137
-2.34819 13.2403 -5.1618
20.3382 23.5327 -11.9353
4.70049 -8.58622 -3.71632
19.8247 5.68755 -7.85094
0.857697 -25.6353 -9.75184
15.2135 -11.723 -7.22569
20.403 5.52782 -7.91428
9.52135 -3.46904 -3.78913
0.524037 -21.9309 -8.1794
3.29208 -10.9315 -4.26287
20.9883 24.4237 -11.9679
0.906635 -8.6723 -3.23438
14.2965 -11.3213 -6.72235
20.8268 5.29727 -7.90401
18.4539 18.2376 -9.48832
-12.8486 2.25088 -4.74151
21.7156 25.9381 -12.2784
2.31076 -13.3706 -4.88648
13.2692 -10.73 -6.13875
0.79023 15.5369 -5.56973
-8.13632 -2.77658 -3.07485
0.406419 -21.2331 -7.59486
-4.10203 13.4394 -4.99306
0.632011 -21.4253 -7.61963
16.2065 -12.2396 -7.19589
-15.1552 17.5174 -8.15827
5.99719 -11.4649 -4.54764
-10.646 16.0603 -6.72464
0.097689 -18.0624 -6.35223
14.5409 -11.5231 -6.48537
20.7817 5.47333 -7.50369
0.649316 -22.4467 -7.75801
-4.86052 14.0913 -5.10192
3.67201 -8.52153 -3.19291
4.92504 -9.1205 -3.5507
-13.9736 17.3449 -7.61899
2.29041 -10.9448 -3.83093
-8.58259 15.5616 -6.05249
3.08315 -13.931 -4.86146
-14.4308 17.7084 -7.73929
20.5969 5.60022 -7.17688
23.1158 28.6012 -12.3007
37.7599 -21.3144 -14.4852
-5.1381 13.6137 -4.8274
1.93585 21.1175 -7.04224
1.26876 -10.2351 -3.41001
19.6478 -14.2812 -8.06419
33.9055 -21.3136 -13.1655
-5.09021 13.9995 -4.83314
-12.1366 16.6112 -6.66894
19.0564 -13.5792 -7.59617
3.58353 -8.72627 -3.02374
6.29923 -10.2397 -3.85125
2.32388 -11.0414 -3.58998
-4.28491 -32.2566 -10.349
-1.08553 -22.9019 -7.30267
15.3568 10.5772 -5.88893
-12.7315 16.9378 -6.69288
-17.2751 18.6306 -7.98238
3.04453 -9.81512 -3.24022
13.502 -10.6464 -5.40888
7.07223 -11.2686 -4.11115
1.36467 -21.4329 -6.64542
-2.44282 -26.1005 -8.0519
7.48571 34.6424 -10.8263
0.765442 15.126 -4.60338
-10.7253 16.1785 -5.84579
-2.55467 -25.1491 -7.61838
-13.8057 17.2587 -6.59017
-4.99491 -32.8144 -9.88855
0.816591 -24.1246 -7.22108
-5.20307 14.2956 -4.52009
2.1077 21.0946 -6.25167
-20.4064 19.0258 -8.22755
18.583 5.91376 -5.74269
-4.15981 13.9493 -4.27527
-7.64522 14.8252 -4.889
4.30578 -9.24824 -2.997
4.70692 -11.788 -3.7094
-12.4404 2.19152 -3.62994
-30.5095 -43.2203 -15.2281
-14.6177 17.5826 -6.56903
7.08043 -11.2755 -3.83104
2.58567 -9.6195 -2.82918
13.168 -10.658 -4.81954
-8.38285 -2.43969 -2.47553
22.074 28.4748 -10.2167
-8.50801 -2.24242 -2.48617
-2.39895 -24.5382 -6.92514
-12.8386 1.96734 -3.61654
4.46242 -11.5169 -3.42599
-8.962 15.4076 -4.88909
-12.5634 16.7529 -5.74759
-5.19572 13.8542 -4.0393
-7.85139 -38.1678 -10.6686
9.87749 -9.0024 -3.63603
-20.5649 19.1897 -7.55817
-9.36562 15.526 -4.85494
-25.5288 19.61 -8.56096
11.6989 11.7761 -4.38432
4.40362 -11.4909 -3.25787
49.6201 -14.4245 -13.6865
-7.51829 -35.5047 -9.54665
4.14347 -8.77053 -2.55277
11.3588 -10.1026 -3.97539
-13.8789 17.3756 -5.77872
6.62936 -10.5699 -3.2279
3.21766 -9.76121 -2.65565
-27.9204 -40.8941 -12.7906
-4.05597 -26.6307 -6.97617
3.59526 -10.5258 -2.8663
4.12355 -9.51244 -2.66337
15.9648 -12.0042 -5.0947
-6.86552 14.6201 -4.08355
-29.3693 -39.1689 -12.4183
4.38663 -11.333 -3.07371
4.3041 -7.79306 -2.26478
6.64679 -10.8407 -3.16958
47.0986 -14.24 -12.2653
-26.9483 20.3309 -8.34307
-11.0787 16.2738 -4.84951
-25.8164 -37.6631 -11.2306
-9.0996 -35.8337 -9.12609
-23.3932 19.6477 -7.50454
4.41412 -10.4806 -2.79252
-11.5899 16.5985 -4.90491
-7.54114 14.6878 -3.97542
10.4306 -9.40807 -3.36233
42.1281 -13.9938 -10.6204
15.4124 7.70834 -4.10522
-5.81155 -33.3157 -8.06247
4.01317 -9.19386 -2.37586
49.4607 -13.2377 -12.1499
-26.837 -40.0873 -11.4363
-11.0453 -40.6859 -9.99402
4.27067 -9.13743 -2.4046
-24.6891 -35.8204 -10.2029
3.9513 -11.3299 -2.8254
4.97248 -8.80604 -2.37796
-12.2696 16.7184 -4.82278
-7.0808 -33.4175 -7.90991
11.1877 -9.80392 -3.3988
-5.77696 -29.3187 -6.8234
-25.9069 20.0087 -7.4178
43.4017 -9.49195 -10.0808
-28.9984 21.0538 -8.03208
-33.8565 -22.1871 -9.07082
-5.09393 -24.2704 -5.53379
42.5837 -13.1639 -10.0056
5.53225 -9.60802 -2.47412
-12.2294 2.79048 -2.75203
42.4549 -12.4416 -9.77281
44.5896 -12.7226 -10.1997
29.5303 41.5946 -11.1841
-5.14827 13.4988 -3.15445
13.6633 -10.9946 -3.8589
39.6832 -12.7527 -9.16148
-22.344 19.4735 -6.42668
-25.5465 -62.9902 -14.7575
4.37883 -9.85393 -2.33689
4.60704 -9.31667 -2.24368
-13.9736 17.4083 -4.76432
-29.377 21.3386 -7.75089
-30.1871 21.4225 -7.91056
-24.1137 -63.9846 -14.6654
-10.2456 16.0072 -4.02658
-7.78287 -33.0538 -7.22632
3.24549 -9.84943 -2.20979
4.03776 -10.0048 -2.29873
48.0891 -11.1497 -10.536
15.2412 7.63445 -3.61643
-14.5149 17.8664 -4.87083
5.23577 -9.17995 -2.2192
28.5821 41.361 -10.5172
-37.8131 24.8409 -9.48257
-26.4345 -25.8695 -7.68111
15.2905 8.00261 -3.58567
-28.8997 -22.3194 -7.57578
-27.7119 -71.0613 -15.8
42.318 -11.3885 -9.06163
-10.9703 16.1619 -3.96637
-14.9631 17.6903 -4.71432
-33.2599 22.3265 -8.13804
46.5733 -10.1589 -9.71947
-12.0324 -38.7227 -8.24687
4.20574 -9.89705 -2.18643
4.33711 -9.876 -2.19718
11.8069 -9.81479 -3.12283
-11.4929 16.4914 -4.00968
-17.6298 -50.6048 -10.7162
-7.93545 -30.7172 -6.35153
-7.29013 -29.7935 -6.15224
-11.9097 -37.0045 -7.70096
4.13979 -10.0899 -2.15787
-32.6197 -22.3051 -7.79073
-25.4732 19.9922 -6.37133
-31.7024 -22.6773 -7.5988
-6.57784 14.5299 -3.09211
-23.4906 -55.2003 -11.6581
-32.1326 -21.3917 -7.43941
3.49554 -9.52308 -1.95745
48.1659 -11.1598 -9.49254
-12.2034 16.6605 -3.94529
4.05593 -9.50019 -1.96998
-34.8351 -21.1599 -7.71594
-20.0245 -32.5301 -7.26698
-14.1346 -40.7882 -8.17282
39.5301 -13.0401 -7.86722
-33.9353 22.792 -7.6487
-32.2263 -22.2562 -7.35802
-31.2237 -22.8445 -7.26307
-19.1448 -47.4335 -9.62955
-15.3367 -41.6632 -8.2397
3.87419 -9.33481 -1.86574
44.5868 -12.017 -8.57355
5.84917 -9.86654 -2.10098
-21.9492 -49.7728 -9.96383
-18.4747 -45.8606 -8.94676
-13.9212 17.3525 -3.94243
-29.7309 -23.9788 -6.79005
-19.4076 -25.8618 -5.78333
-23.1128 -60.3953 -11.4819
-37.0585 23.3844 -7.73005
-25.4723 20.0006 -5.63543
-32.2365 22.0593 -6.78079
3.98265 -10.2358 -1.90309
4.83732 -8.73036 -1.73367
14.2744 7.66601 -2.79685
14.361 8.24124 -2.83824
-29.2382 21.2615 -6.19618
44.2527 -12.5201 -7.82812
44.0006 -11.3959 -7.73613
-29.8887 -23.7373 -6.47531
-20.0966 19.1392 -4.65867
-18.3693 -45.6617 -8.3201
15.1542 7.59558 -2.84517
-30.0567 21.2783 -6.15024
6.72067 -11.1903 -2.19374
-21.0539 -50.2001 -8.99892
40.6686 -12.8238 -6.94858
45.7065 -12.3131 -7.69248
-9.88832 15.6971 -2.99141
-18.594 -46.1314 -7.93623
-33.3158 -22.9981 -6.37958
-21.7295 19.0912 -4.52804
-24.2894 -15.2274 -4.5276
-23.0316 19.6612 -4.69215
-37.7456 22.8538 -6.83672
-10.7202 16.0438 -2.9767
3.54012 -9.71416 -1.59774
3.95233 -10.4499 -1.72845
-7.23783 14.6783 -2.49687
-29.4379 21.4257 -5.56468
-30.3702 -23.4571 -5.83566
-26.7171 -24.9909 -5.54266
-19.7382 -45.8805 -7.61045
44.2172 -11.4952 -6.94323
47.094 -10.2603 -7.34197
-6.21427 13.8386 -2.26688
9.9335 -5.20683 -1.66466
-32.0047 -23.0835 -5.87679
-23.1106 -58.4413 -9.32443
10.3575 -9.31249 -2.07501
47.2656 -10.9345 -7.2035
-34.9471 -23.2639 -6.17894
-30.0831 -24.8139 -5.70488
-11.5076 -38.1347 -5.86422
17.342 -12.5468 -3.13418
-24.165 19.8958 -4.54795
-22.1462 -49.6238 -7.83331
-7.24316 14.5055 -2.31584
-12.1426 16.5554 -2.92554
6.17267 -11.792 -1.90047
-12.7972 17.1043 -2.99905
-32.7827 22.1456 -5.56131
6.89722 -11.2658 -1.84506
39.2458 -12.952 -5.81129
-29.7823 -23.8646 -5.32659
-31.1845 22.4109 -5.31915
-18.6041 -44.8413 -6.70779
47.43 -10.6108 -6.70083
-6.50764 14.3896 -2.15548
-19.9622 -52.1015 -7.58263
7.86881 -9.52241 -1.65708
9.32812 -9.18296 -1.80492
-13.3721 17.0738 -2.92213
13.4879 -10.7578 -2.33356
-21.1808 19.2665 -3.84932
44.1455 -11.4141 -6.05236
47.123 -10.3221 -6.38411
-21.5637 18.9763 -3.75537
-31.2417 -23.3777 -5.09683
-14.2197 17.4124 -2.90554
-32.1935 21.4876 -5.02459
-36.7486 -15.5167 -5.15056
7.14644 -10.628 -1.64229
10.9846 8.994 -1.82533
-32.3281 -22.2784 -5.02443
-29.7581 21.7243 -4.66017
-34.0222 -21.2302 -5.02663
43.9838 -11.375 -5.68433
6.92265 -10.5607 -1.57693
-7.26687 14.5338 -2.00987
-23.7985 19.9833 -3.80467
-31.5577 22.2411 -4.76199
6.44714 -12.3638 -1.69734
47.0669 -10.0418 -5.89383
15.313 8.02286 -2.08048
-16.4278 -39.7892 -5.19231
7.21954 -10.7296 -1.55621
-19.9627 8.84732 -2.58456
-12.9812 -39.2709 -4.86532
-30.4533 -23.4789 -4.49637
-29.9517 -23.9538 -4.48802
44.0916 -11.811 -5.36378
11.4289 -9.84231 -1.7468
-28.3088 21.4653 -4.08707
6.77405 -11.037 -1.48159
7.59998 -9.35674 -1.3783
11.7923 -9.89936 -1.74813
9.5417 -4.6549 -1.2024
15.2879 7.85627 -1.93908
-9.85817 15.6938 -2.09025
-30.4256 22.2324 -4.22132
40.6799 -13.3915 -4.80155
9.50107 -9.16222 -1.45976
-10.5521 15.8258 -2.06663
6.97395 -13.1288 -1.60897
47.228 -10.2644 -5.23861
10.9881 9.02995 -1.53505
17.2034 -12.7792 -2.29906
44.3058 -11.4912 -4.90358
9.7686 -9.1183 -1.41528
8.49466 -8.58091 -1.26452
-29.5558 -23.6515 -3.9416
-26.8351 -53.8268 -6.27524
15.283 7.6648 -1.74866
-30.4017 -23.4417 -3.93878
-12.259 16.7115 -2.10367
-12.1963 16.3402 -2.02601
10.3712 -9.23368 -1.35988
-18.6241 -47.2996 -4.98472
6.48403 -12.4171 -1.35462
9.63357 -9.09523 -1.25273
-51.0486 28.4351 -5.64415
17.0627 -12.4833 -2.03132
44.1964 -11.8763 -4.38581
-27.2159 -55.0145 -5.83518
-18.4898 -48.5241 -4.93254
-22.2012 19.4194 -2.75742
48.0199 -10.6827 -4.59403
9.86837 -9.12752 -1.24396
41.5958 -13.7215 -4.0804
-14.3198 17.5539 -2.05117
-28.7262 -13.0971 -2.87783
-28.6447 -55.8415 -5.78511
16.2422 -12.1571 -1.84476
8.76194 -8.85425 -1.12763
-34.7211 -19.6923 -3.49659
13.1542 -10.8581 -1.48468
47.5812 -11.0287 -4.18328
9.54797 -9.16826 -1.11234
11.1426 -9.81246 -1.24753
-32.2578 22.1533 -3.25691
17.2708 -12.5944 -1.76964
-15.3882 -40.0437 -3.43628
15.0188 -11.7438 -1.51962
-37.2869 -72.8651 -6.50055
-10.9181 -30.5668 -2.56223
-28.2411 21.4736 -2.74417
-31.2702 22.1033 -2.95679
-20.4285 -46.665 -3.93258
7.72019 -9.44694 -0.973392
-47.5612 25.8853 -4.10133
-20.3726 19.174 -2.03547
-31.4757 22.2641 -2.79483
16.7949 -12.5492 -1.53296
44.2374 -11.8382 -3.33553
-34.1455 -64.6074 -5.27269
14.2817 -11.2998 -1.30274
-14.2146 -37.7082 -2.78124
10.9539 -9.78261 -1.00582
-22.2195 19.4556 -1.99518
13.1334 -10.8371 -1.13932
18.4452 -13.3781 -1.51829
-20.9175 -48.1939 -3.47185
16.4441 -12.4382 -1.36101
-13.3923 -37.132 -2.55316
46.178 -12.01 -2.98173
-28.0809 -56.897 -3.87064
37.3147 -9.05273 -2.35609
45.222 -10.3507 -2.8475
6.24778 -13.5053 -0.888441
32.4081 -21.4445 -2.32374
-9.3438 15.5984 -1.0688
-14.2623 -37.2054 -2.26822
17.0388 -12.7339 -1.19369
-9.50244 -12.3184 -0.85248
15.2806 7.83961 -0.930108
14.2045 -11.2444 -0.969635
-12.187 16.5156 -1.07246
-15.1016 -37.4308 -2.14279
15.1741 7.97911 -0.841769
-14.9037 -38.0966 -2.00626
-13.4872 17.0954 -1.04186
9.71582 -9.16463 -0.612364
-21.4043 -49.0994 -2.42205
12.6966 -10.4377 -0.761633
-14.4648 -40.3225 -1.90076
-15.7267 -38.7476 -1.78907
7.05592 -13.0293 -0.656697
-12.6022 -38.417 -1.72112
-48.7899 26.5341 -2.25155
18.8578 -13.5482 -0.941728
17.2427 -12.8166 -0.836168
-35.4893 -68.8816 -2.9202
-16.4045 -43.0183 -1.69399
-31.7861 21.8403 -1.41191
44.7497 -11.5304 -1.66347
-30.1362 -59.9462 -2.24196
-23.0529 -50.5207 -1.86746
21.184 24.5009 -1.07866
-20.4152 19.1314 -0.912726
8.38867 -14.8058 -0.57083
9.56919 -9.13532 -0.428672
11.5081 -10.1313 -0.498121
19.1219 -13.5208 -0.769101
36.3392 -13.706 -1.28822
23.2412 28.1338 -1.17371
-26.5397 -13.3121 -0.930416
-21.7948 19.4088 -0.890616
-30.0047 21.2512 -1.14888
-22.159 -50.9445 -1.71825
-12.6616 -35.8211 -1.16878
-19.1318 -48.805 -1.58495
-15.0201 -40.7078 -1.24126
-32.6189 -19.7776 -1.01536
11.657 -9.88923 -0.409296
16.7524 -12.4603 -0.54995
-38.51 23.8241 -1.1959
-28.6492 21.7997 -0.892134
-29.1637 21.3738 -0.856311
9.7186 -9.14897 -0.309062
-39.3177 13.5894 -0.920767
-28.5718 -47.845 -1.25258
21.9494 -14.6799 -0.579841
31.8896 -19.3372 -0.84075
14.4628 3.99698 -0.306982
30.6074 53.4881 -1.13888
24.2469 -11.2883 -0.470702
49.7797 -11.4629 -0.94973
-29.4073 -21.1332 -0.659518
-28.1392 -27.6382 -0.624109
-17.2104 -42.2312 -0.757003
12.9777 -10.672 -0.276211
19.0575 -13.771 -0.358861
-28.3409 -12.5968 -0.406887
-31.3729 -23.4787 -0.544182
-29.2141 -58.8933 -0.883844
-24.6317 -52.4246 -0.790463
-32.4539 -22.1643 -0.512163
-28.6641 21.8078 -0.425743
17.4517 -13.0326 -0.258236
30.6052 -18.9768 -0.422921
-29.1322 21.3875 -0.404109
-36.2808 -20.2723 -0.467072
-17.4495 -40.0201 -0.464657
-11.0757 -33.3389 -0.351764
-29.9438 -52.7612 -0.555548
-13.6431 17.3064 -0.170442
-25.9144 -13.0653 -0.233983
-14.3038 17.4368 -0.155566
-21.493 19.1954 -0.149925
-20.0146 18.7734 -0.126421
-10.3421 -13.2958 -0.0586926
15.0395 7.90068 -0.0216415
11.3099 -9.94522 -0.00780503
-33.1261 -18.144 0.058382
-10.4975 -31.1992 0.10949
17.4019 -12.6432 0.0936455
-17.2142 -39.5209 0.194578
19.3207 -13.613 0.125882
7.36846 -12.6665 0.107054
26.8431 -11.0132 0.17873
-51.8015 18.497 0.522506
16.6616 -12.3482 0.19825
39.068 -7.97638 0.376397
-28.2297 -7.96008 0.343085
-34.6988 -20.9435 0.448054
-10.538 -30.1933 0.345457
-50.4255 27.6363 0.700552
-11.7675 -32.6093 0.41543
-9.56651 -29.4063 0.373476
6.53329 -13.3545 0.189807
7.37128 -11.3561 0.178063
-26.7363 20.9874 0.518342
11.5221 -10.0628 0.230061
-22.9552 19.6312 0.496548
11.0967 -9.90813 0.233545
13.2439 -10.903 0.270393
37.9321 -8.11819 0.645511
-33.0471 -22.141 0.724794
-29.5939 21.1602 0.712153
6.34013 -13.247 0.284897
7.1751 -11.2917 0.257739
8.15664 -9.57136 0.245565
31.7054 65.196 1.57203
7.85513 -9.59796 0.280376
10.2968 -9.32632 0.335162
-27.9727 -8.96968 0.707694
-22.2059 19.3827 0.795332
-26.1871 20.6488 0.892778
-28.1003 -8.43751 0.773197
9.33187 -9.03313 0.350811
9.77632 -9.08643 0.363788
-24.3094 20.4886 0.861563
26.0807 -5.27622 0.740761
13.2536 -10.8728 0.510721
15.6706 25.529 0.922259
6.38367 -13.1694 0.460313
7.6318 -11.8969 0.443466
-27.6597 -7.80086 0.942941
-12.2212 -18.7123 0.737629
-27.3537 -8.54933 0.990938
16.5349 11.3173 0.723132
-28.7645 -17.8243 1.18377
16.8116 29.2041 1.20061
-29.3892 -16.0309 1.24136
24.132 -4.35768 0.885819
-26.844 -19.092 1.22175
-7.22147 -7.8739 0.403318
9.1893 -8.961 0.477031
12.8058 14.0084 0.730656
29.7607 61.3961 2.58053
28.5303 60.7448 2.52376
-11.392 -9.01729 0.573098
8.85169 -8.79663 0.493567
-24.4164 20.1136 1.28176
22.3392 -3.02761 0.913093
-27.8218 -16.899 1.33445
9.56103 -9.06579 0.540135
12.8554 14.8058 0.842474
6.76263 -12.8071 0.614722
15.4989 20.1386 1.11585
22.1104 30.5408 1.64948
-9.30266 -13.5264 0.722362
-9.74238 -15.2369 0.803824
7.75428 -11.1761 0.599149
8.75116 -8.84196 0.562065
24.8117 -3.801 1.13316
-28.9822 -8.44584 1.37799
6.89053 -11.328 0.609817
-8.18355 -8.05359 0.54051
23.707 47.8329 2.55185
-27.5928 -17.0534 1.53427
-9.57329 -13.4286 0.785726
9.8126 -9.10444 0.630352
17.5577 48.7936 2.50824
-29.2912 -12.974 1.52959
-6.69377 -8.16073 0.519554
15.9262 37.0375 2.05563
-28.8356 -11.292 1.55446
-7.52424 -6.91882 0.516721
-6.63841 -7.5254 0.507757
17.2787 31.3007 1.85495
10.8299 12.6637 0.89962
14.8313 20.183 1.34363
9.48936 -9.06343 0.70294
15.4356 20.0838 1.39749
16.1005 24.8673 1.62996
-26.2719 18.4984 1.75863
-6.90211 -8.11148 0.590829
-25.2133 19.3464 1.76426
6.28477 -13.2698 0.820962
-7.02358 -9.0516 0.65368
10.2272 12.7745 0.961578
15.7831 26.5929 1.80543
6.65965 -13.3754 0.859375
14.5587 23.7523 1.64444
-8.1709 -8.03167 0.690508
11.8167 11.8984 0.999193
15.2891 20.3348 1.5275
-7.30046 -9.88279 0.764591
7.16018 -11.4103 0.820604
11.4606 -9.88546 0.9174
5.99387 -10.9878 0.776258
-7.13579 -6.59572 0.607222
15.1221 21.4521 1.65968
16.4646 7.30847 1.16899
-6.98326 -6.10134 0.608446
6.66879 -13.8737 1.0252
9.93393 22.4394 1.65484
10.6935 12.8892 1.14421
14.0779 18.9302 1.64461
12.9775 21.5169 1.73791
11.6295 12.2849 1.18667
