ply
format ascii 1.0 
element vertex 1877
comment /media/mkaihara/Seagate Backup Plus Drive/model_iterations/model_26.ply
property float32 x 
property float32 y 
property float32 z 
end_header 
14.9892 -11.6467 0.506682
23.1169 -3.36353 0.657359
-11.8968 -18.5506 0.638393
25.4445 -4.82029 0.753818
17.0621 26.4788 0.942666
-27.1738 -20.0184 0.999399
7.33041 -11.4827 0.409017
7.05608 -10.8358 0.393799
15.3544 25.0129 0.899739
-7.54673 -8.7204 0.352654
13.2079 -10.8076 0.521274
-7.24132 -9.41165 0.363779
-27.8874 -7.87128 0.964057
-11.6276 -16.9971 0.690362
7.94891 -9.44181 0.408385
16.4411 11.2328 0.712414
10.9776 -9.55876 0.528845
12.0373 -10.1704 0.574299
24.8393 50.0186 2.09542
-7.38162 -8.05897 0.408448
9.74582 -9.04704 0.496475
23.1881 -3.2557 0.898919
29.5673 61.1217 2.62674
-7.36363 -9.77378 0.478779
10.5432 -9.61597 0.559822
12.8937 -10.6491 0.675756
21.8959 -2.68361 0.899327
-28.317 -17.1793 1.35478
8.81778 -8.77821 0.514228
-6.85989 -8.3878 0.465788
9.52805 -9.01335 0.548338
12.9678 14.8864 0.871148
-28.2098 -8.27899 1.29175
15.1765 19.7676 1.11916
15.7058 27.0422 1.39239
23.3427 45.9024 2.27594
6.32534 -14.0932 0.688489
10.9618 -9.61698 0.659555
18.716 -1.66103 0.859518
20.7501 39.5094 2.09178
15.6603 27.5926 1.4866
-11.068 2.74526 0.548276
-7.16631 -9.44603 0.571924
9.25519 -9.07143 0.613791
11.514 -8.83378 0.679653
20.3878 -2.33641 0.988499
11.8477 12.0744 0.839452
17.3585 41.746 2.22146
7.83684 -9.55148 0.608097
10.2892 -9.37114 0.689209
15.1984 25.7724 1.49732
21.5224 41.7368 2.38239
21.308 -2.65444 1.09184
-7.33702 -8.42927 0.57981
9.47483 -9.02118 0.681237
17.3723 25.4754 1.61898
17.3814 31.5106 1.87731
13.1799 -10.8638 0.907611
10.7636 12.5827 0.88501
14.6579 19.8971 1.32683
11.1978 -9.70977 0.801471
15.471 20.1573 1.40061
-25.286 19.3835 1.7388
-6.90815 -8.1047 0.589164
10.4555 12.6406 0.918112
-7.18807 -9.27933 0.657549
10.1903 12.6944 0.943557
-26.7051 18.8015 1.85225
6.22969 -13.1566 0.833112
11.3941 12.3174 0.963853
-6.83405 -6.74466 0.556763
11.4846 12.2466 0.988048
-6.74886 -8.33946 0.642136
6.36831 -12.8013 0.835139
15.0945 20.0835 1.51003
14.672 23.9886 1.67676
14.2273 32.8808 2.14949
-6.04539 6.4388 0.541081
-8.09808 -7.67324 0.674771
-7.05642 -8.09499 0.65955
5.83291 -12.6852 0.843922
-7.42601 -6.837 0.627861
7.10095 -11.3139 0.825804
7.07249 -10.6888 0.799822
11.4691 -9.90028 0.935763
12.2767 -10.2701 0.991945
16.451 7.28581 1.14601
15.3405 19.8728 1.58772
-7.18857 -6.26486 0.618311
10.3725 -9.47351 0.906594
-7.32864 -6.21732 0.630271
11.6933 12.3389 1.15782
9.94777 22.3948 1.6682
-7.19733 -9.55375 0.799365
11.865 12.8687 1.20029
-6.91841 -4.43362 0.564887
-6.69678 -8.13349 0.718556
-6.6657 -4.4112 0.551014
9.36186 -8.95062 0.901665
10.087 -7.91404 0.903138
13.0324 16.4256 1.51558
-6.62703 -6.61961 0.650719
9.90198 -8.36183 0.947682
11.7899 17.6288 1.59396
11.7454 18.7256 1.6508
9.91446 18.8705 1.60715
9.35501 20.2178 1.67523
7.71259 22.9875 1.82278
11.1193 19.1927 1.68946
10.1024 -7.66482 0.969581
-6.97722 -7.13709 0.764756
-16.9583 -6.15085 1.41029
9.55345 -7.74506 0.964066
9.65828 19.2907 1.70247
-6.3508 -4.24052 0.605079
-6.77389 -8.15272 0.840373
4.85356 -5.75556 0.598508
9.36591 20.6059 1.79508
8.07085 19.7338 1.71418
5.04887 -5.81897 0.62062
13.0117 11.7412 1.41976
11.9992 12.0531 1.39229
6.79911 -9.48516 0.94848
12.4615 11.9191 1.4171
6.98241 20.4982 1.77267
-6.32689 -4.36757 0.626233
-7.09112 -9.3851 0.9657
11.7684 12.3294 1.40988
10.6278 9.2975 1.20208
-4.97098 -11.3415 1.0467
6.15815 -6.0778 0.755174
9.29099 -7.23802 1.01291
-6.75098 -6.64935 0.804956
10.6399 12.6094 1.43999
8.86678 -7.38833 1.00323
11.0407 12.446 1.45576
-7.25222 -7.70346 0.927569
8.25242 -7.34677 0.980933
10.415 12.7303 1.47841
-7.01713 -7.68221 0.922566
-6.88036 -8.27104 0.965672
10.8099 12.5658 1.50491
10.7353 13.848 1.58725
-7.05723 -8.25839 0.989656
11.4148 11.0259 1.4595
-6.28589 -4.212 0.695428
-6.80239 -8.51976 0.997636
-6.29918 -4.37407 0.706583
11.2417 8.67564 1.3323
10.8038 9.47119 1.33938
6.70334 15.9241 1.6252
11.264 11.1984 1.48225
10.702 11.5133 1.48721
-11.1127 2.84764 1.0829
6.1896 -5.99637 0.821513
8.06035 -6.68211 1.00557
10.9037 9.33719 1.39337
9.72863 12.801 1.55669
9.91481 12.724 1.58911
7.83654 12.5331 1.46829
8.10348 13.5468 1.5713
11.3798 8.17187 1.42764
7.31128 13.0104 1.50623
9.23437 11.5727 1.50637
7.18337 13.9072 1.60208
6.04704 14.3693 1.60078
9.35892 10.6697 1.46678
9.22289 12.5649 1.61941
11.5411 7.76083 1.45068
9.40631 10.1727 1.44243
4.99464 -5.84454 0.825264
-6.81099 -4.63231 0.868583
5.7518 14.3305 1.63945
-7.0222 -4.4831 0.888173
9.08897 10.8906 1.52299
-6.72253 -6.73212 1.01763
5.93895 -5.86193 0.901297
9.83025 8.65504 1.41164
9.10212 9.50697 1.41553
9.4175 10.4984 1.52905
4.94643 14.3364 1.63743
4.27195 -8.12443 0.994047
6.59935 11.0409 1.4156
-6.76907 -3.90621 0.859885
6.49721 12.1827 1.53216
-6.86201 -3.84444 0.871005
9.83323 7.29622 1.36916
6.815 11.6312 1.50155
9.92742 7.11789 1.3722
5.56953 11.8735 1.48328
5.58315 12.415 1.53794
4.83958 12.5953 1.52728
9.95323 6.76503 1.37146
-6.8571 -4.54058 0.941593
7.45364 -6.26948 1.11013
-7.29219 -0.781334 0.840277
-6.24377 -5.36379 0.947819
5.27219 -5.59244 0.886787
8.99705 7.99865 1.40248
4.44757 -7.23103 0.983258
10.525 5.21058 1.37524
9.08071 7.89981 1.4148
5.22348 -5.6364 0.907813
8.7212 8.02785 1.40648
9.04109 9.19788 1.50895
-7.00746 -5.61869 1.06261
10.2444 4.797 1.34767
-6.88556 -3.83333 0.949197
9.24494 6.21488 1.35102
5.3436 11.7135 1.56124
-6.86154 -3.05146 0.912014
-6.84591 -3.23657 0.915328
4.90404 -5.98071 0.943918
6.00743 -6.16344 1.04784
9.47545 5.68357 1.36584
8.57126 7.3177 1.39343
-6.91601 -4.28916 1.0022
-6.84757 -4.5124 1.01045
8.38362 8.71528 1.50037
5.16096 11.6072 1.57791
-6.51584 -5.58821 1.06814
3.73722 -7.63231 1.05876
8.61963 7.84891 1.45874
6.1091 -5.64624 1.0429
9.2712 6.13017 1.40848
-6.10537 -5.38729 1.02728
8.65194 6.69328 1.39499
8.19629 7.61003 1.42279
-7.06648 -1.77424 0.931358
-6.98059 -2.29517 0.937981
-6.4135 -5.29231 1.06073
8.92428 5.72151 1.35899
8.27129 8.16033 1.49762
-7.22619 -1.24678 0.939722
-6.86463 -4.09905 1.03337
7.51593 6.29174 1.26951
8.18036 7.12996 1.40715
8.08395 8.24273 1.49617
-6.87855 -2.81318 0.967086
-6.87971 -2.95237 0.967465
4.65799 10.3158 1.48811
9.07903 4.14812 1.31382
-7.21085 -1.59797 0.970078
6.87135 -4.27893 1.07579
4.95185 -5.97207 1.02847
-7.29436 -1.11123 0.987064
-6.9809 -2.18887 0.978167
-7.01761 -2.25773 0.984389
-5.97005 -4.37992 0.989286
5.21814 -6.60237 1.12144
6.94261 -4.19553 1.09205
8.17641 7.26175 1.48155
-7.11574 -1.70965 0.98333
-7.04815 -1.94617 0.982929
8.87956 4.90232 1.3776
8.42256 5.93709 1.4011
-6.88836 -3.60191 1.05888
8.94707 4.19917 1.35563
3.44398 10.8255 1.55629
-7.27427 -1.19361 1.0085
-5.985 -4.42285 1.02326
-5.96539 -4.52111 1.02448
7.18219 -3.95298 1.12677
8.16641 6.5619 1.44893
5.45541 9.22102 1.48404
-6.35375 -4.30212 1.05168
4.95417 -5.54959 1.03337
7.21995 -3.84819 1.13863
7.5982 -3.70513 1.16965
3.71421 10.3052 1.52623
3.53116 10.6264 1.5622
-7.32969 -1.07631 1.03366
-7.03916 -1.99399 1.01904
4.9924 -5.30897 1.01871
7.28211 -3.75584 1.15109
7.39968 -3.69052 1.17279
7.9144 -3.37438 1.22311
-7.11906 -1.86535 1.04612
-6.97476 -2.93181 1.09602
-5.98305 -4.35527 1.06409
7.94845 -2.79749 1.23287
8.3107 4.66461 1.39636
5.08305 8.70812 1.47833
8.44872 4.54976 1.41827
7.87257 -2.35333 1.21124
7.22287 5.74991 1.38264
3.04188 9.71135 1.52278
-7.05881 -2.0095 1.09947
7.52288 -3.1259 1.22811
8.30655 4.59074 1.43869
5.87048 7.55009 1.4526
5.37343 7.75237 1.43776
5.21168 8.07493 1.4603
5.16619 8.18831 1.46582
7.37129 -3.18598 1.22652
7.72075 -2.77096 1.24916
-6.72417 -1.6748 1.04326
7.87462 -2.26918 1.25671
7.31125 5.48347 1.40349
-7.06817 -1.94267 1.13702
-6.8871 -2.77264 1.15352
6.88749 5.58672 1.39124
-7.31573 -1.08982 1.1547
-7.10837 -1.81496 1.14849
-7.01198 -2.05735 1.1445
-7.08533 -1.86309 1.14918
-6.86249 -2.92036 1.17041
4.88731 7.57841 1.43466
3.45916 -6.05433 1.11329
-7.23755 -1.29258 1.17721
3.53928 -5.72572 1.08429
3.5758 -5.63006 1.07351
7.14775 4.81818 1.40483
4.73847 7.50006 1.44442
-7.03634 -2.01353 1.19228
-7.05805 -1.93729 1.20052
7.04256 4.88024 1.41723
3.89479 8.09196 1.48768
6.07736 -3.33248 1.15459
6.70707 4.92731 1.38785
4.73816 7.28288 1.44991
3.84717 -5.31536 1.10275
7.18054 4.4715 1.4245
7.53996 2.88322 1.36435
6.39491 5.34605 1.41297
-7.24102 -1.24914 1.25073
6.82064 4.12385 1.36901
-6.42303 -2.75997 1.19244
5.5286 -3.64223 1.13728
5.71159 -3.53141 1.15294
2.81996 8.03828 1.47402
-7.33304 -1.03395 1.28329
5.35143 -3.79589 1.14369
-6.28462 -2.25021 1.15706
-6.24557 -2.40675 1.17152
4.29204 -4.67649 1.10997
4.50596 -4.48903 1.1157
4.60438 -4.46126 1.12473
-6.7693 -1.72446 1.23002
4.39913 6.60041 1.41562
-7.12257 -0.923487 1.2832
-6.11967 -2.24873 1.16086
6.70235 3.72703 1.37494
6.16278 4.40688 1.3745
3.61812 -5.34128 1.17316
5.21451 5.75927 1.42152
2.57122 7.35991 1.46585
6.5403 3.07829 1.36695
-1.7025 -5.76894 1.1385
6.45565 -1.39222 1.25309
6.32373 2.80041 1.33175
6.26506 2.39949 1.3387
-4.41507 3.90631 1.38425
4.36173 3.56457 1.34786
4.2441 3.3183 1.33424
4.67452 -1.68104 1.24754
4.82992 -1.38409 1.25709
-2.11624 4.73819 1.2937
3.72912 -2.95461 1.22328
3.6745 -2.55045 1.1943
3.40667 -2.96173 1.22605
4.02744 2.58453 1.33786
-2.59378 -3.53291 1.24992
-2.32615 -3.57032 1.21569
3.77205 2.06745 1.30834
3.748 1.98913 1.30756
-2.82287 3.46014 1.37542
-2.29768 -2.42028 1.18707
1.94987 -2.77354 1.21005
-2.11368 2.75262 1.31607
-2.01947 2.74107 1.32235
2.24607 -1.86591 1.22348
2.3763 -1.49585 1.22107
-2.01052 1.87075 1.29031
-2.06602 -1.44375 1.22805
1.44398 -2.0629 1.24201
-1.99388 -1.08828 1.21393
-1.9261 -0.70792 1.21918
-1.92779 -0.703684 1.24473
-1.95634 -0.344427 1.22762
-1.89393 -0.564864 1.22895
-1.8935 -0.531058 1.23399
8.28683 -8.76915 -7.52429
12.2655 -10.405 -8.8994
-8.52534 15.2121 -6.76196
21.2032 25.825 -12.0111
-8.74446 -2.50428 -2.56302
-33.2369 -22.2024 -7.38432
-32.8824 -21.5042 -5.79754
-32.6068 -22.159 -5.85497
-30.2127 -19.3765 -2.69909
9.39018 -8.94396 -0.396078
-7.29284 15.7201 -0.427869
-28.7249 -11.1155 0.709619
-6.8624 -8.20173 0.456843
17.3988 24.9841 1.65309
11.7204 16.4833 1.67252
-6.65315 -6.62641 0.877982
4.36458 12.6658 1.54452
8.87498 9.24469 1.49895
8.03263 -8.8287 -10.4553
8.90311 -8.60708 -10.5795
7.00707 -12.0182 -11.591
6.92164 -11.427 -10.9684
8.2151 -8.32709 -9.60388
7.06955 -12.1052 -11.3971
7.1183 -11.0503 -10.5288
8.06466 -8.44197 -9.27363
6.77721 -11.3638 -10.3598
6.49191 -11.7769 -10.2816
7.81814 -8.91846 -9.04006
6.25002 -14.4096 -11.8836
8.36789 -8.77236 -9.17512
6.34531 -11.9897 -10.243
6.18924 -12.1643 -10.1754
7.55363 -9.52223 -9.07329
7.97176 -9.12572 -8.99467
10.5795 -9.54998 -10.598
6.15762 -14.1907 -11.4319
6.13315 -13.7304 -11.0547
6.17382 -12.6575 -10.3561
9.28153 -8.90638 -9.43484
9.37047 -9.15546 -9.55334
5.90591 -12.586 -10.0975
9.44688 -9.07123 -9.34535
6.91998 -11.2171 -9.35162
5.65373 -13.0503 -10.0642
9.78858 -9.17071 -9.50422
7.67132 -9.41891 -8.53925
10.0987 -9.27895 -9.63306
11.0317 -9.59163 -10.2558
11.5716 -9.8084 -10.1854
8.4564 -8.68047 -8.022
7.49459 -9.37701 -7.92991
8.24042 -8.79527 -7.96499
7.69439 -9.43172 -7.96195
7.90522 -9.48238 -7.91082
8.39383 -8.60953 -7.6853
0.348855 15.8398 -10.1099
7.59396 -9.40471 -7.69088
11.0324 -9.71327 -9.34406
7.295 -10.8018 -8.24752
8.22678 -8.57103 -7.49107
4.63579 -15.4662 -10.1528
8.78668 -8.7723 -7.68081
7.99045 -9.10985 -7.47314
4.0651 -18.066 -11.4051
8.26935 -8.70182 -7.33752
4.0949 -17.3198 -10.8587
0.135629 14.8419 -9.03183
6.71617 -11.3634 -8.0344
7.80898 -9.34593 -7.38825
10.241 -9.41794 -8.44048
6.8829 -11.3506 -7.96709
8.13374 -9.28672 -7.40889
11.4027 -9.81104 -8.99182
5.44205 -13.9534 -8.88063
7.80378 -9.34716 -7.21976
9.44308 -9.12144 -7.77825
6.96718 -11.2167 -7.8131
8.0552 -9.20879 -7.17762
9.85579 -9.28368 -7.88921
15.0672 7.52981 -9.78641
8.75232 -8.91685 -7.21837
6.99657 -11.0622 -7.52066
2.65601 -11.2696 -6.65747
7.93114 -9.15265 -6.93491
9.70732 -9.23662 -7.61007
10.913 -9.60002 -8.19774
0.120818 15.2862 -8.62297
3.27372 -20.5141 -11.6824
6.86038 -11.0747 -7.3016
10.2165 -9.39192 -7.77013
12.5085 -10.495 -9.15457
9.33314 -9.09701 -7.2814
4.65241 -14.3944 -8.43156
8.08163 -9.30482 -6.84336
14.9913 7.66521 -9.24755
9.80044 -9.20298 -7.3821
0.826186 17.4718 -9.55364
2.73264 -19.7391 -10.8663
11.2604 -9.75702 -8.08818
4.27456 -14.5494 -8.2061
14.9027 7.79437 -9.06261
15.3302 10.586 -10.0075
14.2252 7.84872 -8.68493
11.0796 -9.73035 -7.83981
13.4558 -10.9569 -9.22861
3.03415 -19.2261 -10.2327
11.494 -9.94372 -7.73171
2.16346 -20.2647 -10.2866
10.3822 -9.45182 -7.0586
14.4795 -11.4515 -9.26673
14.0184 -11.3379 -9.0237
11.1444 -9.77435 -7.38358
7.58051 -9.42615 -5.98887
3.58214 -8.51084 -4.54985
-8.6404 -1.89711 -4.3488
2.21127 -19.9866 -9.8636
4.55464 -9.34235 -5.08228
0.394754 13.66 -6.69123
7.67978 -9.35665 -5.90549
-8.29188 15.8127 -8.6422
-9.13299 -2.41438 -4.55136
15.2399 -11.7681 -9.25079
19.7039 5.638 -9.80384
-10.2272 -2.5321 -4.98306
1.90552 -20.4346 -9.75916
17.5968 16.5395 -11.4439
7.66469 -11.329 -6.45226
20.3774 5.50045 -9.94238
14.2329 -11.2674 -8.43973
2.95066 -17.4265 -8.21652
19.6864 5.82499 -9.48715
18.1808 -13.2486 -10.3887
9.93217 -2.50883 -4.73403
20.6389 5.23137 -9.82599
17.7307 16.6765 -11.2224
1.80195 -20.0553 -9.21622
9.77146 -9.13642 -6.12448
-9.14279 -1.65952 -4.23731
9.51485 -3.49142 -4.6166
6.78799 -11.4405 -6.04873
9.98038 -2.63626 -4.68294
19.5786 5.97035 -9.21774
18.159 18.0153 -11.5055
9.429 -3.10613 -4.46917
15.6978 -12.0788 -8.88639
7.11744 -11.6913 -6.12014
7.22429 -11.0258 -5.87389
9.62269 -3.42743 -4.55258
-9.76448 15.9954 -8.33845
17.9899 -13.1285 -9.89401
19.8715 5.72468 -9.16849
16.3593 7.42084 -7.95798
18.2767 18.4641 -11.4963
16.7147 -12.4302 -9.17844
-10.934 16.6202 -8.73884
-6.40823 14.6315 -6.99847
-5.18202 4.85922 -3.09315
20.4883 5.56313 -9.23233
9.62159 -3.42769 -4.40852
18.6971 18.954 -11.4496
16.0955 -12.3855 -8.73695
15.0869 7.54401 -7.20215
3.86578 -9.36498 -4.3034
-10.8698 16.5251 -8.3685
7.01711 -11.0185 -5.50663
-13.4042 3.28489 -5.81334
0.741123 -22.0967 -9.31839
16.0629 -12.161 -8.42367
-5.10418 5.61887 -3.1737
0.992611 -21.949 -9.21171
1.23151 -20.6569 -8.66936
14.3802 7.71324 -6.82853
19.0607 19.8674 -11.5102
3.80715 -9.00985 -4.07795
14.9992 7.84968 -7.05005
18.4 19.6554 -11.1798
-9.43961 -1.08341 -3.92175
4.02657 -8.5408 -3.86803
14.2467 7.86736 -6.68424
6.91699 -11.1019 -5.34604
-13.4504 2.51249 -5.59648
-7.76273 15.0294 -6.86898
19.8316 21.5531 -11.8727
15.3075 7.35576 -6.84578
-5.16219 14.0807 -6.00845
14.173 -11.2046 -7.07468
3.97047 -9.1619 -3.91879
1.53915 19.4701 -7.59004
-8.51598 15.3726 -6.82426
19.3185 5.89173 -7.828
-1.73662 13.0922 -5.11322
5.34043 -9.47158 -4.19213
-2.35465 13.2835 -5.179
20.2197 23.3948 -11.8641
4.69111 -8.5697 -3.70944
19.7586 5.66856 -7.82435
0.86138 -25.8019 -9.81438
15.1566 -11.6793 -7.19917
20.3337 5.50901 -7.88699
9.50566 -3.46332 -3.78291
0.525786 -22.0689 -8.23007
3.28308 -10.9035 -4.2524
20.8618 24.2757 -11.8941
0.907168 -8.68313 -3.23826
14.2465 -11.2819 -6.6993
20.7548 5.27893 -7.87629
18.3646 18.1489 -9.44123
-12.8806 2.25652 -4.75345
21.5776 25.7723 -12.1987
2.30662 -13.3521 -4.88002
13.2251 -10.6945 -6.11875
0.791359 15.5301 -5.56689
-8.14882 -2.78082 -3.07957
0.407181 -21.351 -7.6364
-4.12123 13.5053 -5.01813
0.633418 -21.5259 -7.65489
16.1422 -12.1912 -7.16784
-15.2524 17.6303 -8.21146
5.98255 -11.438 -4.53728
-10.7091 16.1563 -6.76545
0.0969485 -18.1501 -6.38253
14.4894 -11.4824 -6.46284
20.7099 5.45436 -7.47735
0.65113 -22.5658 -7.79862
-4.8862 14.1682 -5.1304
3.66402 -8.50376 -3.18655
4.91387 -9.10044 -3.54318
-14.0629 17.4563 -7.66854
2.28722 -10.9331 -3.82704
-8.63319 15.6544 -6.08922
3.07302 -13.8891 -4.84737
-14.5233 17.8224 -7.78973
20.5255 5.58077 -7.15159
22.944 28.3877 -12.2074
37.4611 -21.146 -14.3714
-5.16598 13.6894 -4.85491
1.93402 21.0776 -7.02826
1.26851 -10.239 -3.41128
33.6471 -21.1513 -13.066
-5.1175 14.0767 -4.8604
-12.2122 16.7152 -6.7113
18.9672 -13.5157 -7.56114
3.57719 -8.71188 -3.01897
6.28217 -10.2125 -3.84136
2.32153 -11.0339 -3.58768
-4.33525 -32.6242 -10.4658
-1.09548 -23.0838 -7.35986
15.3044 10.541 -5.86822
-12.8118 17.0452 -6.73589
-17.3952 18.7604 -8.0386
3.03302 -9.77918 -3.22889
13.4539 -10.6085 -5.38999
7.0494 -11.2327 -4.09846
1.36934 -21.5321 -6.67577
-2.46752 -26.3504 -8.12806
7.44571 34.4462 -10.7636
0.766641 15.121 -4.60154
-10.7931 16.2814 -5.88356
-2.58173 -25.4043 -7.69467
-13.8958 17.3717 -6.6339
-5.05174 -33.1779 -9.99711
0.821096 -24.3091 -7.27556
-5.23433 14.3835 -4.54852
2.10543 21.0537 -6.23891
-20.5525 19.1623 -8.28711
18.5233 5.89472 -5.72385
-4.18277 14.0292 -4.30035
-7.69149 14.9158 -4.9195
4.29414 -9.22389 -2.98944
4.69199 -11.7519 -3.69846
-12.4702 2.19681 -3.63873
-30.9239 -43.8066 -15.4341
-14.7142 17.6991 -6.6131
7.05543 -11.236 -3.81806
2.58037 -9.60182 -2.82423
13.124 -10.6225 -4.80376
-8.39579 -2.44343 -2.47935
21.9152 28.269 -10.1416
-8.52124 -2.24588 -2.49005
-2.42707 -24.8156 -7.00234
-12.87 1.97217 -3.62546
4.4466 -11.4773 -3.41463
-9.01884 15.506 -4.92088
-12.6452 16.8623 -5.78568
-5.22778 13.9413 -4.06533
-7.96744 -38.7257 -10.8234
9.84829 -8.9758 -3.62555
-20.7154 19.3303 -7.61407
-9.42513 15.6252 -4.88653
-25.7259 19.7615 -8.62758
11.6596 11.7363 -4.3689
4.38726 -11.4493 -3.24653
49.1784 -14.2961 -13.565
-7.63574 -36.0552 -9.69344
4.13072 -8.74392 -2.54537
11.3228 -10.0707 -3.9631
-13.973 17.4937 -5.81851
6.60939 -10.5385 -3.21864
3.20827 -9.73404 -2.64858
-28.2883 -41.4326 -12.9585
-4.10983 -26.9795 -7.06643
3.58314 -10.4916 -2.85737
4.11065 -9.48334 -2.65557
15.8993 -11.955 -5.07417
-6.91171 14.7193 -4.11188
-29.7362 -39.6578 -12.5729
4.37045 -11.2923 -3.06308
4.29207 -7.77141 -2.25878
6.62343 -10.8029 -3.15891
46.6949 -14.1179 -12.1604
-27.1661 20.4954 -8.411
-11.1519 16.3816 -4.88216
-26.1225 -38.1092 -11.3632
-9.23667 -36.3706 -9.26178
-23.5721 19.7981 -7.5624
4.39945 -10.4466 -2.78382
-11.6667 16.7088 -4.93801
-7.58966 14.783 -4.00173
10.4 -9.38059 -3.35273
41.8012 -13.8852 -10.5383
15.3664 7.68527 -4.09255
-5.89997 -33.817 -8.18272
4.00142 -9.16759 -2.36937
49.0254 -13.1212 -12.0432
-11.2334 -41.376 -10.1625
4.25475 -9.10358 -2.39608
3.93157 -11.2741 -2.81205
4.9575 -8.77974 -2.37115
-12.352 16.831 -4.85571
11.1527 -9.77335 -3.38843
-5.85174 -29.6943 -6.90997
-26.1107 20.1662 -7.47659
43.0717 -9.41977 -10.0043
-29.2423 21.2311 -8.10008
-34.1291 -22.3657 -9.14384
-5.14209 -24.4964 -5.58476
42.2528 -13.0616 -9.92811
5.51457 -9.5776 -2.46658
-12.2589 2.79722 -2.75872
42.1259 -12.3452 -9.6973
44.2317 -12.6205 -10.118
29.1677 41.0832 -11.0448
-5.18413 13.5939 -3.17726
13.6123 -10.9536 -3.84478
39.3942 -12.6599 -9.095
-22.5137 19.6215 -6.4759
-26.1692 -64.5245 -15.1158
4.36266 -9.81802 -2.32872
4.59104 -9.28461 -2.23628
-14.0707 17.5296 -4.79791
-29.6295 21.5221 -7.81792
-30.4506 21.6096 -7.98005
-24.7375 -65.6385 -15.0432
-10.3158 16.1173 -4.05472
-7.89804 -33.5403 -7.33182
3.23243 -9.81073 -2.20149
4.02121 -9.96434 -2.28982
47.6804 -11.0549 -10.4466
15.1958 7.61165 -3.60526
-14.6175 17.9929 -4.90572
5.21902 -9.1508 -2.21244
28.2564 40.8885 -10.3954
-26.6508 -26.0811 -7.74387
15.2437 7.97809 -3.5743
-29.1173 -22.4874 -7.6328
-28.5086 -73.1031 -16.2527
41.9956 -11.3018 -8.99276
-11.0457 16.2731 -3.99409
-15.0681 17.8146 -4.74781
-33.5684 22.5336 -8.21393
46.192 -10.0757 -9.64
-12.2361 -39.377 -8.38535
4.18927 -9.85876 -2.17832
4.31847 -9.83382 -2.18819
11.7678 -9.78232 -3.11272
-11.5721 16.6054 -4.03779
-17.9974 -51.6588 -10.9385
-12.0903 -37.5642 -7.81675
4.12329 -10.0502 -2.14974
-32.8779 -22.4816 -7.85242
-25.6749 20.1505 -6.42212
-31.9526 -22.8562 -7.65877
-6.62532 14.6355 -3.11508
-23.984 -56.3589 -11.9021
-32.3792 -21.5558 -7.49654
3.48099 -9.48401 -1.94978
47.7563 -11.0649 -9.41193
-12.2883 16.7766 -3.97315
4.03989 -9.46297 -1.9626
-35.1117 -21.3279 -7.77729
-20.2401 -32.88 -7.34491
-14.3757 -41.4832 -8.31134
39.2388 -12.944 -7.80944
-34.2564 23.0077 -7.72143
-32.4797 -22.4312 -7.41592
-31.4695 -23.0243 -7.32029
-19.4994 -48.3114 -9.80708
-15.5953 -42.3649 -8.37783
3.86062 -9.30266 -1.8596
44.2281 -11.9204 -8.50473
5.82857 -9.83199 -2.0939
-22.3655 -50.7161 -10.1521
-18.8008 -46.6693 -9.10393
-14.0205 17.4765 -3.97092
-29.968 -24.1699 -6.84423
-19.5656 -26.0721 -5.83028
-23.6579 -61.8183 -11.7517
-37.4248 23.6156 -7.80678
-25.6755 20.1602 -5.68069
-32.5291 22.2595 -6.84264
3.96527 -10.1917 -1.89524
4.82148 -8.70191 -1.72826
14.2328 7.64363 -2.78833
14.3175 8.21627 -2.82927
-29.4887 21.4438 -6.24957
43.8958 -12.4192 -7.76514
43.6525 -11.3057 -7.67505
-30.126 -23.9257 -6.52676
-20.2479 19.2834 -4.69404
-18.6992 -46.4811 -8.46889
15.1087 7.57274 -2.83627
-30.3156 21.4616 -6.20348
6.69073 -11.1405 -2.18432
-21.4607 -51.1691 -9.17213
45.3275 -12.211 -7.62883
-9.95812 15.8081 -3.01289
-18.9342 -46.975 -8.08088
-33.5862 -23.1847 -6.43145
-21.893 19.2349 -4.56235
-24.4236 -15.3115 -4.55269
-23.2104 19.8139 -4.72882
-38.1147 23.0773 -6.90383
-10.7957 16.1571 -2.99801
3.52347 -9.66892 -1.59063
3.9328 -10.3987 -1.72033
-7.2937 14.7919 -2.51658
-29.6929 21.6114 -5.61312
-30.6101 -23.6423 -5.88186
-26.9311 -25.1911 -5.58712
43.8643 -11.4035 -6.88791
46.7018 -10.1748 -7.28088
-6.26172 13.9446 -2.28464
9.91344 -5.19633 -1.66132
-32.26 -23.2676 -5.92377
-23.6412 -59.7821 -9.5379
10.3251 -9.28342 -2.06869
46.8678 -10.8424 -7.14295
-35.2383 -23.4577 -6.23056
-30.3297 -25.0171 -5.75172
-11.7033 -38.7821 -5.9633
17.2646 -12.4908 -3.1204
-24.3557 20.0529 -4.58406
-22.5628 -50.5566 -7.98027
-7.29786 14.6153 -2.33372
-12.2283 16.6723 -2.94646
6.14301 -11.7356 -1.8917
-12.8899 17.2283 -3.02103
-33.0829 22.3484 -5.61243
6.86793 -11.2181 -1.83752
38.955 -12.856 -5.76837
-30.0187 -24.0539 -5.36898
-31.4678 22.6145 -5.36767
-18.9313 -45.6295 -6.82542
47.0301 -10.5213 -6.64438
-6.55996 14.5057 -2.17323
-20.3904 -53.2184 -7.74481
7.84393 -9.49237 -1.65202
9.29883 -9.15412 -1.79941
-13.4677 17.196 -2.94326
13.4371 -10.7173 -2.32493
-21.3422 19.4134 -3.87883
43.7921 -11.3227 -6.00399
46.7287 -10.2357 -6.33074
-21.7248 19.1181 -3.78359
-31.4904 -23.5637 -5.13754
-14.3221 17.538 -2.92669
-32.4801 21.679 -5.06949
-37.0183 -15.6305 -5.18852
7.11869 -10.5868 -1.63615
10.9537 8.96856 -1.8198
-32.5815 -22.453 -5.06397
-30.0194 21.9151 -4.70125
-34.2887 -21.3964 -5.06616
43.6339 -11.2845 -5.63917
6.89539 -10.5192 -1.57095
-7.32306 14.6464 -2.02573
-23.9872 20.1418 -3.83498
-31.8434 22.4425 -4.80526
6.41475 -12.3019 -1.68914
46.6741 -9.95801 -5.84466
15.2652 7.99776 -2.07364
-16.6839 -40.4089 -5.27305
7.19117 -10.6875 -1.55031
-20.0526 8.88718 -2.59625
-13.2041 -39.9444 -4.94853
-30.6938 -23.6643 -4.53204
-30.1904 -24.1446 -4.52394
43.7373 -11.7161 -5.32075
11.3906 -9.80933 -1.74108
-28.553 21.6504 -4.12246
6.74568 -10.9909 -1.47562
7.57603 -9.32731 -1.37411
11.7521 -9.86566 -1.74231
9.52349 -4.64602 -1.2001
15.2406 7.8319 -1.93275
-9.93045 15.8089 -2.10578
-30.6984 22.4318 -4.25929
40.3661 -13.2882 -4.76462
9.47184 -9.13404 -1.45539
-10.628 15.9397 -2.08168
6.93606 -13.0577 -1.60054
46.8312 -10.1782 -5.19461
10.9563 9.00375 -1.53025
17.1246 -12.7207 -2.2887
43.9486 -11.3986 -4.8641
9.73852 -9.09024 -1.41104
8.47042 -8.55645 -1.26102
-29.7877 -23.837 -3.9727
-27.3645 -54.8883 -6.39907
15.2359 7.64112 -1.74295
-30.6412 -23.6263 -3.96999
-12.348 16.8329 -2.11909
-12.2826 16.4559 -2.04048
10.3387 -9.20481 -1.35573
-18.985 -48.2159 -5.08127
6.44855 -12.3492 -1.34748
9.60498 -9.06829 -1.24912
16.9857 -12.427 -2.02231
43.8388 -11.7802 -4.35037
-27.7676 -56.1294 -5.95357
-18.8649 -49.5082 -5.03256
-22.372 19.5687 -2.77869
47.6075 -10.591 -4.55457
9.83785 -9.0993 -1.24021
41.267 -13.6131 -4.04823
-14.4248 17.6827 -2.06631
-28.893 -13.1731 -2.89468
-29.2251 -56.9726 -5.90247
16.1713 -12.1041 -1.83686
8.73582 -8.82786 -1.12437
-34.9858 -19.8423 -3.52346
13.1043 -10.817 -1.47917
47.1736 -10.9342 -4.14745
9.51834 -9.13982 -1.10898
11.1052 -9.77956 -1.24344
-32.5515 22.3551 -3.28661
17.1923 -12.5372 -1.76173
-15.6435 -40.7078 -3.49336
14.9562 -11.6948 -1.5134
-38.2649 -74.7756 -6.6714
-11.0586 -30.9599 -2.59523
-28.4847 21.6588 -2.76785
-31.5512 22.3019 -2.98338
-20.7997 -47.5127 -4.00421
7.69409 -9.41499 -0.970215
-48.113 26.1857 -4.14896
-20.5278 19.3201 -2.05098
-31.7614 22.4662 -2.8202
16.7186 -12.4922 -1.52612
43.8777 -11.742 -3.30842
-34.9371 -66.105 -5.39533
14.2242 -11.2544 -1.29761
-14.4379 -38.3004 -2.82507
10.917 -9.74968 -1.00252
-22.391 19.6057 -2.01057
13.0834 -10.7958 -1.13507
18.3554 -13.313 -1.51103
-21.3058 -49.0882 -3.53656
16.37 -12.3822 -1.35499
-13.6049 -37.7213 -2.59385
45.7871 -11.9084 -2.95649
-28.6712 -58.0928 -3.95243
37.0622 -8.99149 -2.34012
44.8535 -10.2664 -2.82427
6.20582 -13.4146 -0.882693
32.142 -21.2684 -2.30488
-9.41538 15.7179 -1.07702
-14.4795 -37.7716 -2.30298
16.9601 -12.6751 -1.18828
-9.53817 -12.3647 -0.855768
15.2325 7.81492 -0.926903
14.1476 -11.1994 -0.965836
-12.2752 16.635 -1.08018
-15.3305 -37.998 -2.17553
15.1262 7.95393 -0.838838
-15.1348 -38.687 -2.03764
-13.5854 17.2198 -1.0494
9.68546 -9.136 -0.610505
-21.8158 -50.043 -2.46906
12.6497 -10.3992 -0.758889
-14.7176 -41.0268 -1.93429
-15.9727 -39.3535 -1.8174
7.01407 -12.9519 -0.652953
-12.8186 -39.0764 -1.75098
-49.3689 26.849 -2.27819
18.7632 -13.4802 -0.937093
17.1619 -12.7565 -0.832329
-36.3906 -70.6306 -2.99514
-16.7003 -43.794 -1.72497
-32.0704 22.0357 -1.42444
44.3831 -11.4359 -1.6498
-30.8057 -61.2778 -2.29248
-23.4995 -51.4994 -1.90422
21.0216 24.3129 -1.06978
-20.5703 19.2767 -0.919544
8.33385 -14.709 -0.567246
9.53922 -9.10671 -0.427369
11.4674 -10.0955 -0.496409
19.0257 -13.4528 -0.765309
36.0781 -13.6076 -1.27898
23.0353 27.8845 -1.16262
-26.6852 -13.385 -0.935709
-21.9624 19.558 -0.897343
-30.2639 21.4348 -1.15869
-22.6036 -51.9665 -1.75332
-12.8533 -36.3628 -1.18684
-19.5083 -49.7648 -1.61668
-15.282 -41.4174 -1.26337
-32.8574 -19.9221 -1.02308
11.6166 -9.8549 -0.407913
16.6762 -12.4036 -0.547507
-38.8976 24.0639 -1.2078
-28.8992 21.99 -0.899776
-29.4149 21.5579 -0.863545
9.68806 -9.12023 -0.30812
-39.6346 13.699 -0.928134
-29.0285 -48.6094 -1.27324
21.8269 -14.598 -0.576672
31.6438 -19.1881 -0.834369
14.4256 3.98669 -0.306007
30.0669 52.543 -1.11761
24.1228 -11.2306 -0.468297
49.3302 -11.3594 -0.941074
-29.617 -21.2838 -0.664534
-28.3846 -27.8792 -0.629956
-17.4994 -42.94 -0.770286
12.9286 -10.6317 -0.275199
18.9601 -13.7006 -0.357079
-28.5009 -12.6679 -0.409388
-31.6203 -23.6638 -0.548835
-29.8558 -60.1868 -0.904139
-25.1183 -53.46 -0.806846
-32.7043 -22.3352 -0.516462
-28.9143 21.9981 -0.429276
17.3685 -12.9705 -0.257048
30.3767 -18.8352 -0.41984
-29.3825 21.5712 -0.407399
-36.5652 -20.4312 -0.471072
-17.7187 -40.6373 -0.472409
-11.2353 -33.8188 -0.357303
-30.4884 -53.7205 -0.566468
-13.7434 17.4336 -0.171518
-26.0522 -13.1347 -0.235432
-14.4087 17.5645 -0.156526
-21.6547 19.3399 -0.150857
-20.1635 18.9131 -0.127166
-10.3841 -13.3496 -0.0590951
14.992 7.8757 -0.0213368
11.2705 -9.91055 -0.00778852
-33.3572 -18.2705 0.0584767
-10.6422 -31.6291 0.110473
17.3205 -12.5841 0.0931919
-17.4777 -40.1256 0.196878
19.2226 -13.5439 0.125225
7.32829 -12.5974 0.10645
26.6974 -10.9534 0.177793
-52.3522 18.6937 0.528193
16.5859 -12.2921 0.197341
38.7938 -7.92041 0.373872
-28.3749 -8.00098 0.344699
-34.9665 -21.105 0.451133
-10.6748 -30.5849 0.349393
-51.0363 27.9711 0.709305
-11.9293 -33.0573 0.420539
-9.69186 -29.7914 0.377825
6.49047 -13.2669 0.188561
7.33788 -11.3047 0.177252
-26.9585 21.1619 0.522914
11.4814 -10.0272 0.229254
-23.133 19.7832 0.500653
11.0582 -9.87374 0.232742
13.1924 -10.8606 0.269346
37.673 -8.06275 0.641218
-33.3035 -22.3127 0.730012
-29.8465 21.3408 0.7185
6.29829 -13.1595 0.283036
7.14243 -11.2403 0.256574
8.129 -9.53892 0.244744
30.9693 63.6817 1.53651
7.82817 -9.56502 0.279429
10.2634 -9.29607 0.334094
-28.1168 -9.01583 0.711169
-22.3751 19.5303 0.801679
-26.4014 20.8178 0.900377
-28.2444 -8.48072 0.776998
9.30276 -9.00495 0.349739
9.74555 -9.05783 0.362666
-24.5054 20.6538 0.868808
25.959 -5.25161 0.737415
13.2021 -10.8305 0.508758
15.535 25.308 0.914687
6.34249 -13.0844 0.457397
7.59522 -11.8399 0.44137
-27.7983 -7.83989 0.947511
-12.2938 -18.8233 0.741672
-27.4911 -8.59224 0.995751
16.4685 11.2719 0.720479
-28.9493 -17.9387 1.19103
16.6434 28.9117 1.18902
-29.5728 -16.131 1.24881
24.0289 -4.33906 0.882148
-27.0173 -19.2151 1.22927
-7.23797 -7.89184 0.404141
9.16089 -8.9333 0.47559
12.7479 13.945 0.727608
29.1072 60.0473 2.52463
27.8875 59.376 2.46766
-11.4245 -9.04294 0.574602
8.82486 -8.76998 0.492108
-24.6096 20.2727 1.29223
22.2526 -3.01589 0.909675
-27.9927 -17.0028 1.34232
9.53104 -9.03736 0.538478
12.7934 14.7344 0.838671
6.72313 -12.7323 0.611202
15.3969 20.006 1.10882
21.8918 30.2387 1.63361
-9.34098 -13.582 0.725101
-9.78879 -15.3093 0.807373
7.72121 -11.1285 0.596642
8.7245 -8.81503 0.560395
24.7036 -3.78444 1.12835
-29.1347 -8.49023 1.38507
6.85839 -11.2751 0.607035
-8.203 -8.07269 0.541687
23.2988 47.0089 2.50845
-27.7624 -17.1582 1.54336
-9.61205 -13.4828 0.788669
9.78164 -9.07572 0.628407
17.1944 47.7836 2.4568
-29.4588 -13.0482 1.53808
-6.70952 -8.17988 0.520665
15.6932 36.4955 2.02594
-28.9935 -11.3538 1.56275
-7.53953 -6.93283 0.517688
-6.65275 -7.54161 0.508757
17.087 30.9532 1.83474
10.7851 12.6113 0.896116
14.7328 20.049 1.335
9.4596 -9.035 0.700786
15.3343 19.9521 1.38861
15.9652 24.6582 1.61658
-26.4676 18.6362 1.77206
-6.91826 -8.13042 0.592097
-25.4063 19.4944 1.77812
6.24384 -13.1835 0.81574
-7.04202 -9.0753 0.655256
10.1841 12.7207 0.957732
15.6376 26.3477 1.7891
6.6177 -13.2912 0.854081
14.4396 23.558 1.63128
-8.19028 -8.05068 0.692029
11.7713 11.8527 0.995556
15.1872 20.1992 1.51759
-7.32175 -9.91154 0.766654
7.12737 -11.3581 0.816932
11.4207 -9.8511 0.914268
5.96517 -10.9352 0.772646
-7.14946 -6.60831 0.608304
15.0155 21.3008 1.64825
16.4105 7.28441 1.16533
-6.99583 -6.11229 0.609471
6.62489 -13.7825 1.01861
9.84515 22.2388 1.64024
10.6488 12.8353 1.13961
13.9903 18.8123 1.6346
12.881 21.3569 1.72522
11.583 12.2359 1.18212
6.68532 -9.97019 0.849831
11.73 12.001 1.21398
9.89636 -6.98586 0.861828
12.6141 12.2116 1.28897
10.0359 -8.47522 0.962177
-6.06517 6.57343 0.666388
10.5977 9.33161 1.0603
12.3077 18.4022 1.66528
11.8643 18.9024 1.68115
-6.89595 -7.64371 0.798349
11.2435 19.4063 1.72047
9.62464 -9.06165 1.02145
10.7356 14.4111 1.40844
-6.38893 -4.28101 0.606261
9.53371 19.1009 1.70573
10.1755 -6.96306 0.987134
12.7007 11.7839 1.40014
10.1171 19.6436 1.77898
-7.19611 -9.54503 0.97397
6.79555 -9.48879 0.949468
12.4868 11.9454 1.41553
12.3933 12.1884 1.44306
11.6552 12.1825 1.39542
-4.98643 -11.3812 1.04592
10.5458 13.1943 1.43689
-6.92136 -6.04814 0.791596
-6.77647 -6.6561 0.802294
-5.14791 -11.291 1.05594
-7.24792 -7.69097 0.910152
9.36931 -7.32223 1.02724
-7.06787 -7.99806 0.934194
-6.968 -7.63679 0.909258
9.59858 12.8123 1.41907
-6.89883 -8.30797 0.964939
10.9827 9.21527 1.30631
10.7109 13.7951 1.57771
10.689 9.38777 1.30199
7.93656 14.4069 1.51287
-6.45141 -8.07728 0.947313
-6.84496 -8.94267 1.03969
11.403 10.9979 1.46149
11.426 9.32248 1.37967
11.0675 11.0009 1.46253
6.70971 15.5058 1.5878
-11.3106 2.89762 1.09393
-6.3351 -4.1537 0.709397
-6.76782 -6.25888 0.854767
9.65889 13.622 1.61076
-5.94101 6.45538 0.862387
8.02076 -6.65931 1.01586
8.13515 13.5648 1.57117
-7.01942 -7.56449 1.03971
9.49775 11.876 1.5337
7.1827 12.7536 1.48555
7.25227 13.3611 1.54993
9.68141 9.23393 1.38442
6.05635 14.4383 1.62319
9.34533 12.7105 1.64477
-6.0822 -4.43848 0.788942
6.15076 14.1339 1.62401
6.41338 14.0486 1.62389
-6.93659 -4.40622 0.878684
8.90318 9.15778 1.36153
9.29722 10.3575 1.51361
7.48227 11.2351 1.46705
5.97107 11.7614 1.43429
-6.25896 -7.36305 1.05636
10.3875 6.52834 1.35728
9.11655 8.25134 1.35532
7.47817 11.9538 1.55706
7.00628 11.9083 1.5277
5.5057 12.2265 1.49226
5.01547 12.4678 1.50402
4.87981 14.1923 1.65177
9.98864 7.14199 1.37096
8.89896 9.45962 1.4512
5.52438 11.821 1.46973
-6.79959 -6.68232 1.06109
7.01019 10.9421 1.46401
4.47725 13.6596 1.62542
9.8209 -3.21819 1.15219
-6.07546 -5.38854 0.940028
7.33669 -6.15976 1.08728
10.5282 5.77666 1.37718
-7.34196 -0.980534 0.848152
-6.2274 -5.33045 0.94337
5.26826 -5.57801 0.883813
5.20876 11.948 1.51458
-6.84938 -4.53689 0.951771
4.48218 -7.30847 0.991219
10.5146 5.20159 1.37646
9.00356 7.99119 1.41313
-5.97794 -4.35065 0.861379
-6.45398 -5.24756 0.982481
4.12558 -7.93032 1.06272
4.98684 -5.87399 0.924274
10.2659 4.80027 1.35841
8.63884 8.3887 1.45849
5.41605 11.7998 1.58538
9.14458 6.33502 1.36198
8.1265 8.45749 1.4693
-6.45616 -5.71697 1.07339
3.73324 -7.62732 1.06322
8.77599 6.76673 1.39348
-6.43597 -5.31807 1.05648
9.18777 6.07731 1.40634
8.28336 7.22787 1.40259
8.21829 7.60398 1.4296
5.8014 -5.36803 1.01461
-6.93805 -4.4215 1.05578
8.213 8.10913 1.49708
-7.31884 -1.03692 0.954446
-6.89215 -2.81374 0.971757
9.05231 4.13616 1.3033
8.49881 6.70499 1.42108
5.02037 -6.05446 1.03367
4.93914 -6.22102 1.05166
6.90118 -4.30196 1.08237
-7.09921 -1.71002 0.978377
-6.97751 -2.20981 0.978017
-6.00132 -4.40466 0.994948
8.22911 6.73551 1.44167
8.68539 4.47859 1.33228
8.71424 5.21671 1.38721
8.12732 7.2262 1.48031
-6.77769 -3.71662 1.04924
8.93761 4.19536 1.35142
8.35088 5.89414 1.39973
-6.37037 -4.31036 1.05222
-5.93374 -4.50703 1.01738
5.45869 9.19901 1.47785
3.73904 10.3452 1.52853
-7.32913 -1.08723 1.02545
-6.8719 -3.90866 1.09682
4.96744 -5.56427 1.03069
5.2483 -5.41891 1.04687
7.50007 -3.55429 1.16058
3.48189 10.4436 1.54359
8.47714 4.63963 1.36701
7.41096 -3.69604 1.17471
7.62459 -3.35139 1.1873
7.80153 -3.32255 1.20311
9.00575 2.83572 1.35893
4.85191 -5.65648 1.07103
7.38752 -2.86614 1.15356
-6.92641 -3.28491 1.11698
7.95891 -2.7939 1.22974
8.71451 -1.83051 1.30701
5.09938 8.73119 1.49301
3.03346 9.69795 1.51285
7.77011 -1.89716 1.17871
7.30457 5.81741 1.3914
3.54496 9.80805 1.54262
3.27528 10.0706 1.57062
-7.33128 -1.03785 1.09723
-7.0409 -2.01344 1.09085
7.02591 6.36029 1.43098
-6.23865 -2.26278 0.995423
-7.20344 -1.36831 1.10623
8.01277 4.86235 1.42794
5.79062 7.46179 1.43339
5.37389 7.74872 1.43554
5.14119 8.14774 1.45701
6.78722 -3.23886 1.13723
7.27952 -3.13901 1.21393
7.67342 -2.76893 1.24304
-7.27743 -0.729018 1.11625
-7.06323 -1.94508 1.13021
6.81702 -3.10554 1.1584
3.76237 -5.80579 1.06963
-7.01963 -2.06613 1.14666
-7.30746 -1.08714 1.15942
7.42795 4.81803 1.39842
-7.16239 -1.43624 1.16164
-7.23423 -1.2944 1.17855
-7.06347 -2.00932 1.19369
7.13331 4.80609 1.40416
-7.06702 -1.93607 1.20313
7.07336 4.90942 1.4303
6.67505 4.89613 1.3816
5.26918 6.31881 1.37094
4.74298 7.27964 1.45158
3.89396 8.08278 1.49211
-7.21236 -1.36651 1.2248
2.79973 -5.7919 1.08426
7.2031 4.46661 1.42792
6.5763 5.2889 1.42389
3.88488 -5.38073 1.1188
3.94631 -5.03319 1.0826
-7.23495 -1.24598 1.24476
-6.57005 -2.61397 1.19922
7.46725 2.86735 1.35671
7.08494 3.92168 1.38007
-6.38792 -2.74165 1.18224
6.8286 4.13141 1.37023
5.70105 -3.5311 1.15417
-7.35689 -1.0341 1.28411
-6.33112 -2.27116 1.15586
5.55281 -3.65941 1.14623
5.33483 -3.78524 1.14651
3.65643 7.28157 1.43409
-6.7684 -1.72721 1.22618
4.49145 -4.47878 1.11618
-7.05634 -0.910016 1.26675
4.73857 -4.47031 1.15275
4.38692 6.58074 1.41184
6.63273 3.49858 1.35434
6.67445 3.70974 1.37191
-6.41391 -1.49414 1.18388
3.61818 -5.33999 1.17325
5.13196 5.67308 1.40108
-6.1315 -2.17486 1.1918
3.42015 -5.16905 1.15257
3.44103 6.87864 1.43981
-1.69332 -5.76662 1.14159
6.48432 2.74878 1.34038
-2.13777 -5.71283 1.17254
6.34771 2.81322 1.33682
-2.78073 -5.36329 1.18369
-3.47819 5.28038 1.36769
4.50363 3.92234 1.36345
4.15636 -2.88232 1.17858
4.63712 -2.19023 1.23925
4.22572 3.31251 1.33047
3.71002 -2.93227 1.22483
4.03823 2.58754 1.34037
-1.44429 -4.11994 1.2219
-2.32162 -3.58011 1.21203
3.8776 2.37536 1.31792
-2.84027 3.49895 1.34904
-2.48182 -2.91753 1.18907
-2.37954 -2.93901 1.19414
1.83688 -2.80281 1.1787
1.85999 -2.78138 1.20875
1.98608 -2.51914 1.19537
-2.03304 2.79051 1.3108
2.80314 -0.555484 1.25943
2.78293 -0.336722 1.24138
-2.09183 -1.62076 1.21298
-2.07947 -1.4526 1.23794
-1.86512 -1.79811 1.2838
-1.99704 -1.13246 1.20429
-1.98847 -1.07131 1.23106
-1.94815 -0.881086 1.23115
-1.93234 -0.708941 1.22128
-1.93116 -0.702008 1.24845
-1.90728 -0.470015 1.22106
-1.87258 -0.345973 1.21816
-1.85757 -0.401483 1.22497
2.3714 -19.5835 -9.95442
-7.52806 -8.88781 0.46067
8.07723 -8.86309 -10.5419
8.32082 -8.68739 -10.5733
8.2723 -8.3463 -9.95214
7.00779 -12.038 -11.4859
8.58424 -9.04379 -9.81666
7.9076 -9.00082 -9.1996
5.88798 -12.8741 -10.7916
9.51007 -8.91065 -9.82826
6.18723 -14.1765 -11.6421
8.35264 -8.74624 -9.0914
8.08122 -9.23995 -9.17797
7.34695 -9.31373 -8.83662
5.95126 -14.2418 -11.2595
7.78 -9.37871 -8.79132
7.91707 -9.18659 -8.73443
7.18158 -10.6559 -9.14718
6.87258 -11.1546 -9.28619
10.1549 -9.28481 -9.66212
6.59016 -11.2582 -8.92878
8.09617 -8.69442 -7.90991
7.41994 -9.35414 -7.93294
8.58619 -8.75169 -8.14817
7.78693 -9.5531 -8.09528
6.5411 -12.8749 -9.42782
7.99967 -9.25626 -7.97782
5.02338 -16.0905 -10.8403
-0.480469 13.8855 -8.88463
7.79099 -9.31873 -7.78756
7.4007 -10.9579 -8.41732
8.44889 -8.63784 -7.6967
10.9949 -9.72547 -9.30905
9.06707 -8.89388 -7.96434
11.9113 -10.1565 -9.80833
8.1425 -8.60881 -7.28888
4.04988 -16.8566 -10.6243
4.26814 -15.4304 -9.82887
7.91357 -9.43994 -7.38067
3.96266 -15.6503 -9.62611
11.6188 -9.94617 -9.15852
6.92525 -11.1725 -7.80328
7.83042 -8.88426 -7.0143
5.52836 -14.0927 -8.94225
6.54354 -12.8088 -8.41563
8.43247 -8.66586 -7.04536
9.78585 -9.1722 -7.8193
2.80858 -11.8599 -6.98466
5.5374 -14.039 -8.54235
9.69438 -9.19916 -7.55344
6.67474 -11.1623 -7.32135
3.33591 -20.5809 -11.6854
8.96119 -9.02109 -7.12683
12.3478 -10.3587 -9.02758
6.88238 -11.0977 -7.27323
4.72018 -14.7157 -8.53892
6.27922 -12.7331 -7.80801
0.888718 18.6367 -10.1592
14.8318 7.83819 -9.11777
4.23704 -14.3432 -8.07562
14.9563 -11.8343 -10.2786
15.1943 7.55118 -9.04067
14.2118 7.83123 -8.62487
4.79734 -14.9351 -8.33338
12.2319 -10.2742 -8.4049
1.80883 -20.3586 -10.5157
11.5525 -9.96912 -7.81611
2.07671 -20.1072 -10.2579
14.1757 -11.2514 -9.15225
-0.00408265 14.2495 -7.15322
-7.1209 14.7914 -8.223
10.7148 -9.70906 -7.26408
7.58675 -9.51495 -6.06171
17.932 5.58083 -9.16325
-8.2882 15.7032 -8.57764
11.791 -9.90216 -7.45113
10.6131 -9.69255 -6.90045
15.0171 -11.5124 -9.12493
17.0663 16.1697 -11.1739
7.56804 -11.1839 -6.43206
15.2378 7.5296 -7.97748
14.1262 -11.1849 -8.4196
-11.5913 16.5936 -9.26999
16.1013 -12.1994 -9.22683
9.84707 -2.46903 -4.66387
-9.04072 -1.64359 -4.17827
19.2164 18.5459 -12.0554
3.9419 -9.1632 -4.52634
-9.91697 16.1938 -8.52378
-5.29181 4.39976 -3.09332
6.93625 -11.4171 -6.01226
9.52347 -9.17802 -5.83239
16.2692 7.42224 -7.8916
-6.4561 14.6524 -6.98974
1.504 -18.7177 -8.12133
-10.8325 16.4767 -8.48637
9.65144 -3.39493 -4.38254
7.09641 -11.1679 -5.59195
16.0806 -12.1549 -8.43623
14.8702 7.86138 -7.05776
19.2712 20.0533 -11.6286
1.01398 -22.3248 -9.30522
-4.4379 13.5572 -5.87501
-9.84934 -1.10165 -4.10705
14.2982 7.89578 -6.67153
21.1185 22.9753 -12.7259
-12.8992 2.4173 -5.34546
15.3456 7.29155 -6.87357
-5.08938 13.9332 -5.96281
3.6662 -8.87383 -3.82062
12.5524 -10.4018 -6.38513
14.1574 -11.1781 -7.04799
19.881 22.2548 -11.5812
19.1274 5.89845 -7.7634
1.54554 19.4487 -7.5678
-8.46302 15.2433 -6.71823
11.5416 -10.1756 -5.91729
19.847 23.0141 -11.7116
0.676898 15.4424 -5.92145
-1.64398 12.5632 -4.8731
2.72265 -12.2717 -4.82229
-8.70595 -1.24343 -3.34246
0.696814 -23.2086 -8.76358
15.4417 -11.8333 -7.3354
9.55939 -3.48817 -3.8389
-14.0966 17.3751 -8.33629
-7.842 -3.48359 -3.14719
1.09345 -10.4137 -3.85154
7.10997 -11.3653 -4.90109
14.4148 8.04926 -5.96285
-8.23886 -2.82871 -3.13228
0.785109 15.3685 -5.4892
-3.84488 12.9865 -4.78859
5.80005 -11.1044 -4.40744
16.1132 -12.177 -7.1519
19.4135 5.99607 -7.15001
2.15524 21.1296 -7.45355
22.4864 27.1876 -12.2674
-14.3451 17.7055 -7.81924
3.00043 -13.4559 -4.74368
-8.58796 15.5089 -6.05549
18.8615 -13.359 -7.92015
-4.89136 14.0403 -5.05301
1.3433 -21.859 -7.25894
1.77405 19.8857 -6.59866
1.44917 -10.3105 -3.44103
40.7204 -20.8151 -15.0051
-3.2389 -23.895 -7.78051
6.22808 -10.1419 -3.80868
17.9089 -12.6452 -7.02031
2.13939 20.9797 -6.71497
-12.8712 17.1812 -6.76644
1.42602 -22.2248 -6.94118
-4.1721 14.2638 -4.61578
-10.5568 15.9931 -5.80559
-2.62153 -26.7319 -8.16495
3.08918 -9.54306 -3.04756
0.780395 -23.638 -7.11508
19.5447 -13.8728 -7.11037
17.8875 5.65906 -5.50668
-7.60895 14.7256 -4.82307
4.27161 -10.5968 -3.31947
3.66163 -10.6841 -3.21327
4.29284 -11.075 -3.33304
-12.8041 17.1129 -5.94341
-8.93913 15.2788 -4.81357
-13.0741 1.95984 -3.62464
-16.2505 18.6693 -6.71911
27.0802 -17.8269 -8.78285
-3.68965 -26.3297 -7.13602
3.81575 -9.22287 -2.66974
-9.43484 15.6812 -4.86931
49.2987 -14.3941 -13.6168
10.663 -9.51018 -3.7814
-6.19611 14.3409 -4.07863
-13.8666 17.3842 -5.83377
-7.47406 -35.3822 -9.42508
5.00957 -9.66961 -2.81796
6.63272 -10.6138 -3.228
-6.92018 14.6834 -4.12385
-10.158 15.8196 -4.80189
-9.18513 -36.41 -9.3438
-8.34906 -36.0536 -9.04281
11.0855 -9.77217 -3.63309
-7.65853 14.8607 -4.05195
-11.2734 16.3844 -4.81277
14.8489 7.84389 -3.9879
4.08285 -9.33354 -2.41043
15.4595 7.65666 -4.0676
3.78114 -8.98901 -2.2917
-6.14674 -30.6425 -7.2411
5.68562 -9.9875 -2.6629
46.5468 -11.2642 -11.1299
-12.3105 16.7676 -4.78677
15.1095 7.73833 -3.84257
45.4991 -9.84279 -10.5446
-9.40349 15.6619 -4.08725
-32.6565 -80.247 -18.8265
3.75781 -9.35988 -2.19347
44.6261 -11.4484 -10.0544
15.3737 7.62713 -3.67691
-10.2156 15.9452 -4.05472
-20.8416 -32.7657 -8.34467
4.87644 -9.86239 -2.37275
46.8709 -10.9747 -10.2986
-14.1959 17.5876 -4.75409
-31.0335 -22.9056 -8.17638
43.3025 -14.4886 -9.6588
15.0983 7.97848 -3.56331
-33.7387 22.8158 -8.32755
-7.78913 -31.8651 -6.64717
4.01223 -11.6782 -2.48102
46.3534 -10.0012 -9.6442
11.9441 -9.88683 -3.10893
44.6537 -11.4954 -9.1875
-25.8547 19.5104 -6.42837
6.22302 -10.4154 -2.41477
47.8418 -11.1877 -9.59528
-12.2796 16.754 -4.01312
-25.7068 20.146 -6.34575
16.4012 12.4065 -3.9332
-6.58181 14.4857 -3.05249
-31.881 -23.0598 -7.53186
-30.4416 -23.8379 -7.43115
-33.9603 22.6297 -7.68407
-32.4105 -21.38 -7.33789
18.3293 5.76269 -3.58765
-32.9478 -19.8797 -7.18683
-13.8934 -40.0586 -7.90242
3.82163 -9.95281 -2.00653
-22.0844 -54.9848 -11.0246
-15.4977 -41.7538 -8.14985
4.02304 -9.7497 -1.90171
13.2646 -10.3649 -3.03531
47.27 -10.519 -8.69779
-14.145 17.5432 -4.02564
-25.8403 20.2669 -5.7973
15.344 8.12264 -3.02566
-29.1327 -25.3872 -6.73594
44.5137 -11.4022 -7.88846
-7.60051 14.6401 -2.7928
-9.29694 17.1202 -3.28946
46.498 -10.9458 -8.0769
-29.3588 21.3849 -6.11443
-29.2051 -22.4688 -6.15927
-19.9594 19.0845 -4.59369
-30.8599 21.7941 -6.30218
16.2187 -12.1011 -3.31532
-9.91266 15.7368 -2.95774
-41.0689 24.1663 -7.55963
-30.4959 -22.9097 -6.10674
-32.2582 -22.2506 -6.1725
3.47908 -9.62085 -1.59923
-22.794 19.4717 -4.62932
17.2525 -12.1966 -3.27207
-10.7208 16.0447 -2.93071
48.0058 -11.2509 -7.48304
-20.9065 -48.4504 -7.97609
-28.1808 21.1351 -5.26668
-36.4993 22.7583 -6.38416
-30.494 -23.6706 -5.75956
46.481 -9.96069 -7.07749
-32.4847 -23.4933 -5.8581
-47.03 26.259 -7.7448
-34.207 -22.8164 -5.919
6.8709 -13.1849 -2.15779
-34.924 -20.298 -5.71711
-6.60954 14.5712 -2.22054
-12.582 16.9846 -2.94019
-30.6821 22.0899 -5.28421
-26.333 -22.5823 -4.78371
-22.4712 -50.0453 -7.56676
-14.7749 -43.1941 -6.28078
37.9933 -12.6351 -5.49042
-22.2262 19.5315 -3.93671
-31.1045 -23.2937 -5.07363
-29.5192 -24.2166 -5.04837
-32.6731 -22.502 -5.082
7.53419 -9.54281 -1.57178
44.5786 -11.4113 -5.90387
-31.9693 21.7547 -4.91624
-28.9379 -15.4415 -4.18124
6.09347 -7.89145 -1.27335
46.666 -10.9685 -6.07693
-29.6762 21.8105 -4.59555
14.7647 -11.503 -2.29895
-28.6669 21.5913 -4.34135
-31.1046 21.9883 -4.58621
-9.92231 15.7811 -2.15302
-30.4332 -21.888 -4.41055
-20.9754 -50.4956 -6.36251
13.1997 -10.6758 -1.98688
37.0389 -12.2394 -4.51309
6.43494 -10.4937 -1.41436
11.3508 -9.83623 -1.69191
16.7773 -12.4915 -2.35644
-10.6165 15.919 -2.11807
6.8956 -12.8476 -1.59704
11.7685 -9.82795 -1.69765
44.41 -11.3882 -5.03284
-37.104 23.135 -4.6931
46.7371 -10.9213 -5.16719
15.1902 -11.6644 -2.03706
-12.4326 16.7967 -2.14604
15.0245 7.95246 -1.70023
14.2498 -11.2413 -1.81263
-13.4447 17.1953 -2.1168
6.53265 -12.5189 -1.3586
9.51729 -9.02754 -1.26767
17.3696 -12.7008 -2.09948
-28.1238 -13.439 -2.93647
-14.3794 17.6085 -2.11905
-33.0686 -64.4244 -6.74127
-32.8054 -20.5278 -3.42664
16.4592 -12.3335 -1.85033
39.9479 -13.2922 -3.7674
11.2718 -10.0198 -1.24606
44.8578 -11.4652 -3.86102
-15.0553 -39.1789 -3.37173
-35.341 -69.105 -6.04612
18.0021 -13.1182 -1.75864
-28.8418 21.8286 -2.76713
7.53765 -9.28528 -0.925515
-31.3599 22.199 -2.8547
-15.4633 -38.2539 -3.08392
-33.0462 -62.1852 -5.00778
-31.8408 -63.7723 -4.88256
12.7732 -10.6301 -1.11827
17.4249 -12.6913 -1.4568
-37.5126 23.3531 -2.88995
45.1399 -11.5571 -3.05808
-27.9392 -13.1377 -1.84899
-35.7269 -69.0238 -4.70606
14.7715 -11.5158 -1.12825
32.3626 -21.319 -2.11668
32.2922 -20.3525 -2.08539
15.6109 7.70997 -0.904496
15.0395 7.97493 -0.876409
-12.3496 16.8531 -1.06053
-22.5817 -49.8316 -2.81019
-12.631 -34.3799 -1.8152
-26.4404 -15.2705 -1.44903
-37.3574 -70.4064 -3.89092
9.77789 -9.20896 -0.67169
13.6767 -10.8764 -0.858025
16.2938 10.3655 -0.913668
16.6264 11.6537 -0.946786
6.97967 -12.8017 -0.692942
-19.7125 -5.81649 -0.882689
-27.6111 -49.2063 -2.4885
10.4595 -14.1211 -0.717803
18.4569 -13.3102 -0.929577
44.2959 -11.315 -1.8189
-9.25624 -12.2425 -0.592026
45.9357 -10.7568 -1.85473
23.2216 27.9177 -1.24138
-31.3102 21.4038 -1.31559
-35.2458 -19.7643 -1.31519
-16.8812 -42.0727 -1.45555
16.8186 -12.5476 -0.68433
14.5841 3.95039 -0.44636
-23.4543 -53.8956 -1.76095
-21.9171 19.5239 -0.839484
-11.5064 -34.8908 -0.987006
44.7158 -9.49914 -1.27798
-39.9055 24.8219 -1.27191
-51.7181 18.5973 -1.318
45.4764 -10.5603 -1.00381
-29.6442 22.4039 -0.743959
-29.5823 9.40949 -0.649966
34.7472 60.8382 -1.29283
-28.9965 21.4006 -0.691484
13.1843 -10.803 -0.295171
-33.4872 -20.8398 -0.610944
-27.7799 -55.8685 -0.926481
17.8625 -12.882 -0.319681
-11.7495 -35.5221 -0.481496
-13.7055 17.3987 -0.226759
-18.6249 -42.8041 -0.505592
31.3548 -19.6387 -0.332974
-21.9128 19.5513 -0.200512
-9.77912 -12.5511 -0.0478767
7.1487 -11.925 -0.0239361
14.8606 7.77136 -0.000290143
-34.4364 -21.2642 0.216287
-22.5202 -38.4902 0.330504
-50.4907 27.6594 0.586629
6.81809 -12.0973 0.143899
8.10137 -9.21128 0.122616
-39.6781 -21.0949 0.494599
-10.8497 -30.7262 0.365105
11.2552 -9.81141 0.195826
-22.305 19.0588 0.384809
-12.1003 -18.7745 0.325436
-29.9604 21.3199 0.653535
-34.0709 -22.8416 0.734941
-33.5467 -24.7825 0.728725
10.778 -9.6859 0.236513
7.8885 -9.72388 0.269072
7.98997 -9.32581 0.264983
-66.7601 23.1179 1.64966
18.5013 -13.4303 0.556902
-28.1147 -8.44634 0.785695
-26.9061 21.1 0.9834
11.7509 -10.0678 0.422119
17.5414 -7.60375 0.544433
-24.0735 20.4175 0.938362
-7.8388 -9.1922 0.384626
13.0054 14.14 0.682398
-27.0852 -19.2694 1.14856
6.28211 -12.9439 0.506089
9.01046 -8.86657 0.431965
25.035 -4.43635 0.850349
19.0685 18.2102 0.951159
14.4673 25.0447 1.08656
-54.1796 17.8088 2.05166
24.8371 -4.82487 0.958555
-24.5467 20.052 1.19662
9.48905 -9.02723 0.506344
22.7763 -3.13796 0.868546
12.5063 14.4851 0.78268
15.2459 19.6995 1.01922
6.6514 -12.6112 0.58511
19.4352 44.9227 2.04209
7.7667 -11.1921 0.574233
-7.5057 -7.38843 0.46537
-8.18981 -11.3308 0.625076
-28.9278 -11.4515 1.48205
16.6944 10.8376 0.991425
-7.68174 -7.14749 0.502534
15.9148 24.7254 1.5186
-6.91032 -8.13487 0.586891
15.0293 20.5806 1.3959
-25.1939 19.4002 1.75654
15.0073 24.4408 1.66018
-7.07392 -9.1189 0.659723
6.97989 -13.8321 0.88904
10.1082 12.7148 0.960983
15.1768 20.1643 1.58181
15.7296 27.995 1.97673
11.0209 30.9086 2.08692
-7.24341 -9.88635 0.784369
9.91563 22.5973 1.65623
11.6061 10.2092 1.10146
11.6747 12.3458 1.19916
14.0429 16.227 1.53541
8.33841 -12.8536 1.08137
10.9162 9.11232 1.04596
13.1812 14.7842 1.4818
-14.1427 8.34019 1.24041
-11.0381 2.07943 0.849041
12.7521 16.5997 1.62431
11.9365 19.0235 1.74395
10.1826 -6.96848 0.96338
-7.62333 -8.06437 0.887931
12.975 11.7452 1.42735
12.062 11.8003 1.40055
-6.97706 -6.13876 0.755126
-7.02468 -6.86902 0.814992
-6.99433 -8.85719 0.972478
11.6732 12.1851 1.45495
9.15145 -7.19157 1.01327
10.7866 9.5021 1.30666
-11.2989 2.89326 1.07106
-7.58116 -7.06121 0.93083
11.7979 9.10343 1.4268
9.40184 13.2954 1.5637
