ply
format ascii 1.0 
element vertex 1862
comment /media/mkaihara/Seagate Backup Plus Drive/model_iterations/model_21.ply
property float32 x 
property float32 y 
property float32 z 
end_header 
-7.22783 -9.3638 0.780645
13.161 19.9816 1.6143
13.7992 22.0274 1.74871
9.94603 24.7384 1.85563
-7.00889 -8.19851 0.748803
-7.02089 -7.53207 0.732059
9.6964 -9.02128 0.939834
11.7014 12.3019 1.25703
12.3198 17.5135 1.61035
12.9447 11.8423 1.34811
13.2264 11.7808 1.37946
12.6163 11.8966 1.34973
12.3913 12.0326 1.36719
-7.11301 -9.24277 0.924931
11.9519 12.3002 1.38055
-7.29287 -6.07653 0.750421
-6.97231 -7.99939 0.854506
-6.6757 -8.20125 0.85208
-7.20012 -6.18647 0.756345
9.39855 -7.70175 1.00679
-7.2694 -8.00381 0.90063
-7.27449 -9.7378 1.0163
-7.19849 -7.77837 0.891589
9.32508 -7.06481 0.990378
11.9955 12.2748 1.45893
-6.31258 -4.30304 0.653884
-6.98634 -8.25239 0.932132
-6.74625 -8.30284 0.950748
9.1184 -6.95448 1.02274
8.32658 -7.2303 0.991303
5.99018 -5.96458 0.780271
11.1244 11.4116 1.52642
-6.96362 -5.67729 0.85774
11.0301 9.53073 1.41654
-7.0951 -5.66132 0.885226
7.83309 -6.65159 1.01098
11.3447 10.0767 1.49987
11.1772 9.30403 1.46054
9.87805 11.8845 1.54747
-6.44144 -6.43672 0.912922
-6.81546 -4.47802 0.825582
-6.89633 -7.23168 1.01266
11.0327 9.30305 1.4928
10.3781 9.68881 1.45535
9.54399 10.3831 1.47344
-6.80075 -4.41927 0.854251
-7.07081 -5.61969 0.965754
-7.04227 -5.65899 0.964589
-6.8592 -4.5899 0.900695
-6.99575 -5.45229 0.964055
8.92923 10.5581 1.53623
-6.84309 -3.40337 0.856058
-6.91123 -4.31186 0.908154
-6.79028 -3.46308 0.855692
-6.83239 -3.54642 0.862623
-6.83586 -4.19783 0.902053
-6.85573 -4.36661 0.917121
-6.85527 -4.45132 0.91977
8.95034 9.01994 1.43899
-6.89518 -3.82179 0.903786
-6.85941 -4.03706 0.901554
-6.85851 -4.11985 0.909163
5.90319 -5.82924 0.958489
-6.87391 -3.38904 0.892512
-6.88096 -4.33507 0.943352
-6.85073 -4.40599 0.944966
-6.85003 -2.8079 0.867467
-6.8299 -3.58805 0.902742
-6.91118 -4.10008 0.945167
-6.85824 -4.16839 0.939948
8.69961 8.22855 1.42075
-6.86518 -2.95949 0.901267
-6.84077 -3.93751 0.947459
-6.82541 -3.62672 0.937923
-6.86649 -4.09229 0.978465
-6.85168 -4.27399 0.989584
-6.41353 -5.31265 1.01793
6.06311 -6.01158 1.04297
-6.85293 -3.72179 0.966331
-6.85064 -3.88482 0.977745
-6.9506 -4.69889 1.04633
-6.87733 -4.35101 1.02664
-6.81466 -3.45119 0.967202
-7.02439 -2.15334 0.938168
-6.83255 -3.05869 0.959714
-6.85075 -3.13553 0.968785
-6.09343 -5.44034 1.06426
-6.87135 -3.20522 0.99087
-6.33152 -4.32941 1.0101
-6.74394 -3.75433 1.02237
-6.82776 -4.1501 1.05975
-6.99611 -2.11851 0.975705
-6.94719 -2.31777 0.984643
-6.85401 -3.24099 1.01219
-6.85248 -3.51134 1.03023
-6.86047 -3.36685 1.04331
-6.97781 -2.1445 1.01365
-6.87703 -3.15476 1.04697
-6.84725 -3.23779 1.04656
-6.79468 -3.62091 1.0622
-6.85151 -2.92279 1.04052
-6.81642 -3.38387 1.06158
-6.8303 -3.72439 1.09388
-6.88023 -3.21067 1.07311
-5.95987 -4.45801 1.05863
-6.8347 -3.55613 1.106
7.82577 6.45482 1.46631
5.33379 8.55337 1.45861
-6.83861 -3.46522 1.1094
7.35904 -3.55094 1.18581
-6.83137 -3.25364 1.10343
-6.8276 -3.36436 1.10944
-6.81214 -3.17562 1.10513
-7.10875 -1.73952 1.07782
-6.86322 -2.91925 1.107
-6.8684 -3.00586 1.11142
7.24024 5.70009 1.4268
-6.33338 -2.26937 1.04291
7.16521 5.24853 1.41752
-6.9597 -2.39206 1.18315
-6.41736 -2.80055 1.14139
3.8943 8.16207 1.49188
-6.26799 -2.24638 1.10454
-6.43416 -2.27384 1.16166
-6.10874 -2.26531 1.13402
2.63691 7.62571 1.53219
7.91291 -8.60816 -10.275
8.03998 -8.89171 -10.4891
7.76953 -8.83563 -10.2354
8.27882 -8.41034 -10.1069
7.00544 -11.5644 -11.0758
8.23003 -8.35682 -9.62161
7.01184 -11.9873 -11.2726
8.10713 -8.49593 -9.33089
8.05471 -9.26023 -9.55309
8.32786 -8.79059 -9.41334
7.93926 -9.07584 -9.19465
8.3917 -8.80322 -9.22642
6.36864 -14.0661 -11.5224
7.57169 -9.52193 -9.08977
8.00809 -9.1729 -9.01295
6.2674 -14.4375 -11.5899
6.31868 -12.9707 -10.5999
9.34751 -8.94413 -9.47122
9.3296 -9.09933 -9.48263
6.01457 -12.8299 -10.2793
5.95036 -13.2022 -10.3666
9.48035 -9.10168 -9.40113
9.33226 -9.14159 -9.27719
6.99451 -11.3199 -9.43666
5.65812 -13.0507 -10.0635
6.57671 -11.1073 -8.87591
8.56414 -8.95287 -8.45973
11.9507 -10.1392 -10.5182
8.34285 -8.72954 -7.98983
7.52257 -9.38194 -7.92871
8.35639 -8.89764 -8.05019
9.27997 -8.89726 -8.46258
7.69905 -9.43768 -7.95336
12.3147 -10.2835 -10.439
4.69397 -15.8668 -10.6967
9.29709 -8.93163 -8.28874
5.05747 -15.4799 -10.4956
7.85466 -9.41644 -7.84685
8.35453 -8.57707 -7.65429
0.338734 15.6309 -9.97288
4.77289 -15.2206 -10.1536
11.0615 -9.7265 -9.36473
8.01543 -9.18905 -7.72632
8.26579 -8.60174 -7.5267
4.75941 -15.8745 -10.409
-0.401784 13.5273 -8.46271
8.94952 -8.91306 -7.79849
4.23639 -18.6856 -11.8314
8.01746 -9.16703 -7.51704
8.37461 -8.67996 -7.44612
4.28988 -15.4853 -9.83964
8.32564 -8.751 -7.38374
4.27152 -18.2164 -11.4097
0.142645 15.0139 -9.14691
3.783 -17.9325 -11.09
4.20449 -15.8438 -9.90989
7.13977 -10.958 -7.84698
8.16074 -9.33209 -7.44464
4.21908 -16.6334 -10.2255
8.40246 -8.78175 -7.23915
9.54709 -9.13051 -7.87081
10.8572 -9.35998 -8.56885
7.11343 -11.2132 -7.89496
7.83634 -9.39063 -7.25753
9.19111 -8.93956 -7.5959
8.1069 -9.28722 -7.2122
8.69871 -8.89375 -7.25989
9.84893 -9.29583 -7.89187
6.87247 -13.521 -8.75262
9.38159 -9.10768 -7.54953
5.88434 -13.5652 -8.53022
6.9779 -11.0095 -7.51021
2.83378 -12.9718 -7.65113
9.70441 -9.24502 -7.63047
12.1681 -10.4349 -9.04752
10.962 -9.63286 -8.20754
6.9731 -11.2451 -7.42498
9.27654 -9.21931 -7.33227
9.3939 -9.15654 -7.33322
12.8493 -10.7244 -9.3461
4.70316 -14.505 -8.52108
10.3662 -9.53807 -7.87245
8.64503 -8.82466 -6.87481
2.74268 -17.2537 -9.63772
8.21135 -9.4657 -6.96249
15.0663 7.70668 -9.25774
2.69546 -19.6974 -10.8147
2.44181 -8.84089 -4.97326
2.97264 -19.8061 -10.8218
15.0364 7.83276 -9.11008
2.35427 -20.031 -10.7118
11.1484 -9.77617 -7.88597
9.93364 -9.17301 -7.15894
15.2313 7.64422 -9.02425
2.37676 -8.85813 -4.84613
1.64537 -19.5662 -10.1438
2.37266 -20.6378 -10.6565
14.253 -11.3874 -9.34594
-9.18745 -2.57492 -4.85685
11.5422 -9.99414 -7.75238
2.16323 -20.0953 -10.1868
10.3009 -9.40357 -7.04527
0.841016 17.5315 -8.73186
11.1947 -9.8205 -7.42199
-8.77025 -1.92923 -4.40455
2.19783 -20.0026 -9.88176
3.89464 -9.28559 -4.944
11.4577 -9.83061 -7.38925
1.98803 -19.7233 -9.69016
-8.11354 15.5566 -8.50145
2.51494 -11.2339 -5.50741
1.98701 -20.9209 -10.0077
0.627914 17.2679 -8.18901
15.2068 7.77415 -8.06854
17.8993 16.7684 -11.609
18.2955 17.5341 -11.7831
14.6713 -11.6005 -8.67054
9.9122 -2.63864 -4.75579
17.8406 16.7953 -11.3308
9.85819 -2.49526 -4.70563
-9.88061 16.2138 -8.64863
-9.45556 -2.04878 -4.38758
9.96261 -2.63614 -4.67881
10.3008 -2.42576 -4.79463
9.8682 -3.01041 -4.6706
-5.32341 4.38727 -3.10804
8.19693 -8.43555 -5.3022
18.4645 17.9954 -11.5859
18.3229 18.1655 -11.6078
19.6621 5.9816 -9.22395
7.25204 -11.0657 -5.89201
20.8406 5.47212 -9.57808
9.66557 -3.45893 -4.56509
-9.585 15.7444 -8.18003
-5.26917 4.82731 -3.16352
19.7679 5.71111 -9.09981
-10.8727 16.5683 -8.71456
18.6132 18.4668 -11.5056
-6.33337 14.504 -6.9422
9.6946 -3.6394 -4.5134
20.5681 5.57422 -9.24349
18.7853 19.0637 -11.5483
18.5733 19.2223 -11.5301
15.1745 7.76663 -7.27088
3.90641 -9.45787 -4.3358
-10.8318 16.4694 -8.32362
-13.217 3.23708 -5.73494
1.26675 -21.3312 -8.9544
3.28158 -10.2757 -4.51154
14.4717 7.79626 -6.87797
19.4163 20.274 -11.7529
3.91116 -9.27962 -4.19218
15.1187 7.88382 -7.07792
19.0798 20.3444 -11.592
14.3039 7.90198 -6.72543
4.03094 -8.53174 -3.86747
6.88574 -11.0285 -5.32324
-13.16 2.47526 -5.47981
15.2819 7.65993 -6.97248
-7.73639 14.9576 -6.84069
1.19085 -10.5749 -4.32264
0.757542 -21.4543 -8.69547
-12.7357 2.30666 -5.20664
-9.21194 -1.42231 -3.72136
-4.99184 5.53772 -2.95373
2.84724 -11.7908 -4.78377
14.5317 -11.4642 -7.23387
4.16729 -9.60459 -4.10146
1.5289 19.3896 -7.56373
4.00479 -13.3498 -5.3857
19.4468 5.94536 -7.84101
0.862284 -25.2576 -9.6545
4.80205 -8.76828 -3.79337
11.9495 -10.3446 -6.00406
19.8205 5.70766 -7.82208
21.1185 25.0429 -12.2447
20.4365 5.55065 -7.90499
21.4001 24.9497 -12.2592
3.31851 -11.0206 -4.29168
-12.5247 16.8634 -7.74514
12.1273 -10.2912 -5.84642
20.8456 5.32187 -7.89056
22.0881 26.4127 -12.519
-8.09834 -2.79241 -3.10347
19.7391 5.85637 -7.41644
2.29842 -13.3007 -4.85543
0.805769 15.9004 -5.71051
-4.14641 13.4929 -5.02831
-8.15132 -2.77559 -3.07241
6.85293 -10.6989 -4.50888
-15.2929 17.6677 -8.25552
16.379 -12.3676 -7.26885
-10.6484 16.0482 -6.7277
19.7883 6.0334 -7.18738
3.76456 -8.77653 -3.2923
-8.45442 15.3675 -5.96288
3.0455 -13.7201 -4.79071
19.5317 -13.9714 -8.2128
35.9251 -22.2563 -14.3585
-14.2892 17.5017 -7.62141
20.5597 5.5865 -7.14615
39.0252 -22.0361 -14.9619
43.0066 -21.1646 -15.9702
16.8166 7.54357 -6.14386
3.50451 -10.4206 -3.66368
1.35202 -10.9199 -3.63706
-6.02679 14.3662 -5.076
-12.1603 16.6752 -6.7125
16.1896 -12.4415 -6.64048
6.13654 -9.99553 -3.76826
3.38481 -10.262 -3.46351
-1.07353 -22.6634 -7.25207
2.3378 -11.0721 -3.60424
3.28323 -10.2116 -3.39723
2.85586 -9.12699 -3.01473
13.9414 -11.0235 -5.58441
-17.1134 18.4968 -7.88598
-8.61828 -2.62504 -2.82174
29.8999 -16.4011 -10.6957
1.34398 -20.9377 -6.4809
-2.34237 -25.2708 -7.82223
20.7688 26.8958 -10.2524
3.27499 -10.0178 -3.17578
3.47978 -9.04817 -2.91693
-13.7221 17.1598 -6.5687
-20.3468 18.9736 -8.23608
-7.6152 14.8022 -4.89298
4.86908 -12.2242 -3.85223
4.21193 -9.05204 -2.93363
2.10053 20.9021 -6.17437
-4.17386 14.0151 -4.27923
4.11343 -9.07901 -2.9129
-14.589 17.5501 -6.57718
-29.4998 -42.1586 -14.7248
7.28485 -11.3416 -3.84351
2.56821 -9.55251 -2.80347
-8.3256 -2.18086 -2.42637
4.53176 -11.2438 -3.41546
-2.30086 -23.2652 -6.55761
-8.86861 15.2887 -4.86339
4.44678 -11.4686 -3.38911
8.71167 -8.49708 -3.34283
-12.4951 16.6459 -5.69315
48.2534 -15.9979 -13.8548
-8.6376 -2.41606 -2.42866
-25.0542 -34.7462 -11.6404
-23.1976 19.4691 -8.18845
3.3029 -10.146 -2.88173
3.46042 -10.16 -2.89705
-3.91076 -28.1574 -7.64006
-25.4358 19.5071 -8.54155
44.981 -14.8401 -12.5157
48.6354 -14.0787 -13.3938
-7.77157 -35.0065 -9.45554
-7.4807 -35.3008 -9.52056
-13.7709 17.2554 -5.72541
10.0148 -9.10743 -3.53686
11.539 -10.2455 -4.00724
-10.1567 15.8449 -4.86495
-13.0054 2.00935 -3.44116
-3.94126 -25.8636 -6.80417
3.31571 -10.0181 -2.72631
3.5832 -10.4788 -2.86408
-24.8817 19.7247 -8.14108
4.36122 -11.2654 -3.05434
4.48379 -9.85518 -2.72933
9.63637 -9.3187 -3.37812
7.05484 -11.5897 -3.40332
-25.7921 19.9006 -8.13656
46.384 -13.5016 -12.0521
-10.9909 16.191 -4.85284
-23.8061 -34.7032 -10.3867
12.0474 -10.3739 -3.92826
3.43037 -10.4285 -2.69942
-23.2746 19.5504 -7.43302
10.1414 -9.15837 -3.28651
-7.48766 14.6027 -3.93529
4.16952 -12.3136 -3.12948
15.4004 7.73545 -4.1269
3.46093 -11.3677 -2.84655
3.21959 -10.0352 -2.51021
4.9442 -12.8842 -3.3194
-6.08788 -34.8568 -8.42912
-10.0328 -38.5576 -9.45408
4.02891 -9.22746 -2.38023
-27.33 20.424 -8.05765
15.2083 7.78425 -4.00409
-8.98773 15.5225 -4.2086
4.03435 -11.6274 -2.89439
-12.2331 16.6766 -4.83003
-25.0449 19.8726 -7.4222
3.53105 -10.453 -2.52869
11.2489 -9.65717 -3.42015
16.0572 -12.1047 -4.60476
-34.9592 24.7348 -9.79022
-11.1994 -38.9997 -9.25592
11.1129 -9.71652 -3.37586
-10.5344 -37.872 -8.926
-5.63667 -28.603 -6.6407
42.8123 -13.2356 -10.1526
-25.6332 19.802 -7.30605
15.0597 -11.6864 -4.2848
-29.0439 21.0969 -8.05289
4.48056 -5.84548 -1.65302
5.37996 -9.32503 -2.40759
-23.8215 -61.4627 -14.585
-9.19191 15.3852 -3.94396
-11.7282 -40.2941 -9.24005
4.18443 -9.95941 -2.37574
13.7631 -11.1022 -3.89725
4.08389 -9.34976 -2.24217
43.2137 -12.7795 -9.8672
-22.3029 19.4405 -6.44967
3.45273 -10.2683 -2.32311
4.48499 -10.0937 -2.38827
15.2847 7.68348 -3.67768
-27.3482 20.4632 -7.34025
-19.8747 -31.5119 -8.0072
-7.62849 -32.3273 -7.10989
-23.169 19.5407 -6.45604
-29.2795 21.2664 -7.69923
3.321 -10.1489 -2.27692
4.94812 -8.99759 -2.17641
15.0917 7.88083 -3.60605
4.33355 -10.7433 -2.46314
43.9328 -11.4492 -9.61954
-10.0379 15.7221 -3.9321
4.41196 -9.30206 -2.15813
3.18534 -9.2154 -2.01954
5.24326 -9.19771 -2.21692
15.0893 7.59321 -3.52197
-35.6242 23.4582 -8.87651
-25.8835 -24.0002 -7.29759
3.06353 -9.57959 -2.08961
-27.0577 -28.5331 -8.10363
-18.6572 -29.1337 -7.12618
-28.5592 -73.0593 -16.1957
3.92385 -9.49649 -2.11875
3.79672 -8.87291 -1.97961
-14.8674 17.58 -4.71
-21.2171 -56.2458 -12.3472
4.05263 -8.92174 -2.00258
-33.2935 22.2963 -8.14496
-13.7137 3.0001 -2.86802
-31.8026 -22.4762 -7.94246
-22.8724 -63.1868 -13.6884
-10.3428 -33.3169 -7.0994
46.304 -10.1128 -9.62623
15.2571 7.7949 -3.43563
-16.9837 -22.4992 -5.66626
12.6046 -10.3004 -3.27233
-16.5337 -47.3057 -10.0082
4.27965 -11.0072 -2.35348
-11.4546 16.4239 -3.97486
-24.7815 19.4991 -6.24863
-33.6796 -19.9379 -7.78166
-30.5091 -23.8269 -7.67294
-12.1546 -37.7521 -7.86047
-8.31419 -32.2377 -6.6352
14.8958 -11.7438 -3.75677
4.1114 -10.0209 -2.13359
3.29289 -10.0609 -2.07361
-33.3957 22.0663 -7.77683
-20.3594 -49.027 -10.2665
-14.2209 -41.0676 -8.294
3.55542 -9.07572 -1.8653
-18.9303 -30.6602 -6.84358
-30.3296 -23.6703 -7.25525
-27.5424 -24.4571 -6.93466
-19.3331 -47.7792 -9.75661
3.96967 -9.28696 -1.92191
-14.9104 -40.6719 -8.11224
-22.7232 -51.6372 -10.3816
3.5086 -9.39722 -1.85061
-30.7994 -22.9884 -6.99719
-29.5788 -25.3616 -7.10206
-30.9748 21.8072 -6.82693
-17.97 -44.4643 -8.56175
-29.6335 -23.8715 -6.69358
-20.9076 -54.14 -10.2296
-32.1663 21.4061 -6.76396
-14.7098 -41.4849 -7.72283
3.47558 -9.76668 -1.81045
14.395 7.98948 -2.85759
-32.7943 22.4723 -6.89372
-27.4137 -24.0272 -6.34079
3.55132 -9.72401 -1.79371
4.87914 -8.80282 -1.74315
-25.3938 19.9366 -5.57767
-28.9331 21.0435 -6.1692
-29.2875 -26.9764 -6.87149
3.97746 -10.2332 -1.89275
14.2355 7.67444 -2.78129
-20.8262 -47.8558 -8.88025
-19.5878 18.6369 -4.56065
-29.8723 -23.7433 -6.47134
-17.5622 -43.5453 -7.96593
5.75135 -12.0486 -2.25245
44.6057 -12.5982 -7.85637
-16.2191 -43.2935 -7.7879
43.5979 -11.3436 -7.57675
5.11944 -10.9841 -2.01577
6.85627 -11.3922 -2.24461
-9.82162 15.6142 -2.99041
-28.8398 -22.3248 -5.94392
45.0313 -12.0935 -7.58649
-20.9659 19.0453 -4.59292
7.73737 -9.32419 -1.91846
-35.0901 -24.2936 -6.7266
-18.0838 -44.7421 -7.66813
-21.7103 19.0887 -4.5585
-22.8349 19.4662 -4.66726
-30.9095 21.7732 -5.8486
3.90988 -10.3548 -1.69932
-30.4313 -23.5296 -5.88025
-12.3744 -37.3365 -6.0459
-29.2389 21.2787 -5.49628
-19.9804 -48.0906 -7.93441
-7.21315 14.6042 -2.45313
-31.6447 -22.2386 -5.82767
-30.9482 -22.7526 -5.82072
-26.3528 -24.726 -5.43885
-31.4963 -22.6689 -5.82081
-29.7423 -23.8082 -5.69557
-32.996 -22.0388 -5.8905
-23.4817 19.7118 -4.51861
-31.3878 -23.4885 -5.77779
-30.4542 -23.0622 -5.64169
-24.1027 19.8615 -4.56803
-29.9178 -24.8224 -5.69218
-11.1921 -37.0952 -5.68343
-11.9557 16.3539 -2.9167
-7.23369 14.4703 -2.3044
3.5855 -9.76762 -1.47922
40.4936 -13.3179 -6.06156
-31.7043 -23.3544 -5.57074
-29.0726 -23.1059 -5.22677
-23.9934 -50.7108 -7.96654
-28.5417 -24.073 -5.25825
-21.3659 -49.2598 -7.50026
-18.2352 -43.9404 -6.6326
-6.42292 14.2295 -2.11672
-13.2637 16.946 -2.91782
-10.4415 -36.5562 -5.18047
-6.98807 14.1615 -2.11816
-20.7319 -53.9723 -7.82639
-21.1757 19.2576 -3.81114
-21.6247 -49.0165 -7.12156
-29.7517 -22.9668 -4.96145
48.1264 -11.0901 -6.4938
47.3962 -10.4194 -6.39188
-11.9848 -37.2481 -5.14575
6.79169 -11.193 -1.72065
-14.2141 17.41 -2.92385
-21.5771 19.0043 -3.72665
-31.3066 -16.8035 -4.58557
-30.9522 -23.1071 -4.97295
10.9509 8.9824 -1.8309
-31.547 21.6914 -4.91507
-27.911 21.2391 -4.42074
-29.3967 -23.0153 -4.71023
-11.6337 -33.1026 -4.43896
-28.7365 -58.5859 -8.1739
9.83592 -9.20553 -1.6805
13.0713 -10.6827 -2.12445
-31.6258 22.1861 -4.83022
-34.2165 -21.3169 -5.02098
-29.036 -23.9996 -4.68107
6.918 -10.521 -1.57048
-31.2813 -22.1106 -4.74706
-12.0983 -37.7471 -4.87854
13.4859 -11.2423 -2.15436
44.1557 -11.4764 -5.63228
-15.3285 17.6466 -2.85618
-14.5273 -35.2148 -4.65859
-8.26784 14.7798 -2.06089
46.2275 -10.6491 -5.74321
15.3425 8.00943 -2.0809
9.57107 -9.0815 -1.57455
-32.0144 -22.3368 -4.62905
-16.8937 18.3612 -2.9188
-20.1039 8.89665 -2.60528
-30.1161 -23.3154 -4.4921
-22.4033 -50.7608 -6.52128
11.5055 -9.89739 -1.7763
44.5551 -11.9277 -5.42991
15.0718 -11.7026 -2.19237
15.2632 7.84578 -1.95323
-28.1062 21.3749 -4.02798
7.43222 -11.2859 -1.53246
-9.69774 15.4832 -2.04484
9.61494 -9.47905 -1.50243
13.0506 -10.7189 -1.88243
14.3 -11.2868 -2.02564
9.61385 -9.27129 -1.48184
7.20217 -10.6653 -1.40888
47.3018 -10.331 -5.26925
-10.3273 15.5133 -2.00863
-31.0848 21.9196 -4.13077
11.9489 -10.0392 -1.68457
6.37339 -13.1052 -1.53143
7.73519 -11.8398 -1.47072
10.0117 -9.05365 -1.4197
-13.6284 -39.3833 -4.3714
17.0172 -12.6021 -2.21992
-26.5504 -53.3417 -6.18201
15.2018 7.65501 -1.74154
-29.4597 -23.4782 -3.8696
14.1482 -11.1944 -1.84824
-30.1741 -23.3404 -3.85986
15.1936 7.93856 -1.72434
-12.0155 16.0688 -1.97113
-17.8788 -45.3317 -4.72359
-28.1252 -56.8166 -6.07056
-22.1223 19.3522 -2.77705
-29.3052 -24.0071 -3.60111
-29.2691 -24.3123 -3.62646
-18.7393 -49.0369 -4.95149
-13.3297 17.057 -2.02595
-29.5974 -23.1556 -3.5071
-14.0401 -38.2436 -3.79652
-12.3208 -38.2967 -3.75431
9.9864 -9.25625 -1.26488
-28.7569 -56.0179 -5.80204
8.69379 -8.79251 -1.12238
16.9472 -12.6272 -1.93272
-14.1787 17.3933 -2.01294
-33.9497 -21.1159 -3.61801
-31.0364 21.9133 -3.3468
-29.3766 -23.7001 -3.33553
14.3737 -11.4322 -1.62971
-30.6351 -18.6684 -3.06096
11.2565 -9.87857 -1.27482
-25.1184 20.3752 -2.71704
-10.2848 -32.0116 -2.84258
9.55359 -9.16038 -1.11094
-31.7094 21.8017 -3.19794
8.82076 -8.82241 -1.02444
17.2192 -12.5581 -1.74022
-14.9392 -38.8202 -3.34368
-19.0441 -43.5652 -3.72215
-13.9086 -34.3371 -2.93707
-12.0518 -33.8157 -2.85296
9.3514 -9.08779 -1.02421
11.5002 -9.9693 -1.1928
15.2317 -11.9139 -1.53033
-28.1091 21.4358 -2.75148
-28.1177 -13.1247 -2.41074
12.0949 -10.2467 -1.22826
-20.4837 -45.6203 -3.83054
13.0521 -10.8338 -1.2846
-34.5347 -65.5197 -5.35973
10.118 -9.28619 -0.995014
11.111 -9.9179 -1.0377
-31.6115 -19.6243 -2.57381
12.1922 -10.247 -1.10235
15.0733 -11.8681 -1.3328
-14.0599 -35.5277 -2.60045
-13.645 -36.098 -2.6457
19.1354 -13.829 -1.56657
-22.0274 19.2867 -1.9438
-21.6575 -49.9616 -3.60066
-15.2183 -44.8786 -3.1207
13.1507 -10.818 -1.13793
-13.1535 -36.4929 -2.52111
15.6573 -11.8221 -1.27432
-27.9043 -56.4978 -3.9565
-13.1521 -40.7673 -2.66197
-30.7875 21.7497 -2.30799
-28.3685 -56.1004 -3.8255
-15.3317 -37.3471 -2.46143
32.5592 -21.5868 -2.37641
44.2964 -11.5516 -2.77857
38.1597 -9.20034 -2.37796
-13.6287 -36.5912 -2.35907
-25.4064 20.6199 -1.85605
-27.8536 -13.713 -1.79401
-34.9881 -67.6092 -4.33066
-14.2567 -37.1416 -2.21868
17.3693 -12.9606 -1.21342
-26.0886 -15.6992 -1.63893
44.9216 -10.0065 -2.36646
-9.18271 -12.2696 -0.777953
-13.8734 -36.9218 -1.96401
5.90846 -12.8953 -0.703919
-13.4392 17.0373 -1.05876
-13.2234 -41.5643 -2.14152
15.2166 7.98319 -0.829515
-14.714 -37.7167 -1.92336
-12.7125 -41.346 -2.04035
19.2955 -13.6905 -1.1332
-15.0784 -43.7307 -2.15684
38.4894 -9.45337 -1.85681
-27.7493 -14.1895 -1.3944
-21.3304 -48.8768 -2.36348
-14.9591 -36.8065 -1.76771
9.82413 -9.27063 -0.601991
12.8709 -10.5642 -0.746978
46.7665 -10.7011 -2.13305
-12.5086 -38.0504 -1.70393
-30.7223 21.7185 -1.5681
-49.1884 26.7145 -2.23433
-31.687 21.807 -1.41273
-16.6339 -43.5 -1.74642
-32.8628 -20.6942 -1.38758
9.91196 -9.22455 -0.497613
6.76157 -11.0875 -0.450217
-11.7542 -35.0411 -1.22214
7.70086 -13.5172 -0.530661
19.1812 -13.5857 -0.793288
-23.2741 -50.9751 -1.8428
-12.0961 -34.3178 -1.17767
22.3398 25.7659 -1.09884
-21.8527 19.4007 -0.92154
-20.604 -51.6209 -1.77631
-41.6204 -79.3828 -2.77699
-18.3013 -46.8649 -1.55802
21.7562 -14.8365 -0.799781
-26.6017 -13.6895 -0.906637
-11.5657 -37.0148 -1.15138
-22.7694 19.3476 -0.859486
-20.8053 -47.8815 -1.48259
-15.5166 -41.9953 -1.28946
23.2357 -10.4567 -0.768702
-32.7665 -19.9647 -1.0606
-9.56282 -12.5465 -0.450346
-20.1206 -47.4508 -1.45238
18.5777 -13.84 -0.589092
34.5196 57.6091 -1.74782
-28.2482 21.5535 -0.914997
-29.3355 21.4571 -0.900397
-26.2615 -12.6184 -0.713796
9.72526 -9.15191 -0.323064
-19.4521 -31.3318 -0.858346
-38.0449 13.1971 -0.881773
21.9603 -14.694 -0.56034
-49.4905 17.8498 -0.972726
19.004 -13.701 -0.438979
13.0922 -10.7557 -0.281998
-6.74945 14.6104 -0.282379
-31.6656 10.0143 -0.550169
-27.251 -12.9768 -0.477563
-35.1776 -20.0332 -0.614169
-16.2581 -39.8562 -0.663358
-7.33917 15.4353 -0.232998
-30.8679 -23.0592 -0.533144
-32.175 -21.9339 -0.497384
-29.7287 -60.0689 -0.826143
17.8009 -13.2812 -0.268955
18.7788 -13.5208 -0.2929
30.3048 -18.6869 -0.474123
-18.6544 -47.7785 -0.618756
-28.4126 21.6625 -0.382925
-35.647 -19.9266 -0.450119
-24.2753 -51.8005 -0.605284
-16.8359 -38.616 -0.448258
-48.9078 26.8035 -0.466388
-29.6929 -52.3803 -0.550959
-17.5797 -46.1072 -0.465255
39.2718 -9.48784 -0.371102
-13.5359 17.1811 -0.155126
-29.4014 -65.4748 -0.485849
-16.1366 -39.1398 -0.285354
-28.3141 -8.80439 -0.171696
9.73449 -9.15995 -0.0415373
13.4625 15.4077 -0.0440178
15.1145 7.95678 -0.0303526
-28.3135 -12.6307 -0.0557823
-11.3127 -16.4713 0.0251291
-12.4021 -18.6674 0.0436904
-16.8868 -38.7638 0.177889
9.59653 -9.13672 0.0604391
-30.7637 21.7719 0.193596
-18.9945 -47.9529 0.25424
-29.0359 -13.476 0.192637
17.2935 -12.6182 0.11999
-12.6179 -19.3466 0.151867
15.0628 -11.7335 0.150472
-49.4253 17.7086 0.462542
7.28492 -12.5173 0.121651
16.4095 -12.1599 0.173635
-34.6004 -20.9377 0.4254
39.9999 -8.22153 0.425284
-33.5277 -21.011 0.45188
-11.5145 -31.804 0.397692
-11.9683 -32.1861 0.419048
-10.317 -29.7098 0.385431
-8.8983 -27.5327 0.352736
29.7852 60.3112 0.870661
9.74729 -9.16824 0.173004
-12.3186 -19.0889 0.310546
-9.97075 -30.268 0.439462
8.69562 -8.63843 0.185775
6.5023 -13.3028 0.215572
7.3124 -11.2682 0.205034
9.49894 -9.20864 0.191071
8.15902 -9.25787 0.197314
9.88527 -9.15317 0.221902
39.4354 -8.44918 0.661805
-22.6525 19.4261 0.532297
-31.6025 -21.2621 0.656662
-32.6819 -23.9784 0.71144
13.187 -10.8332 0.279728
13.5081 -10.8954 0.325312
-9.69463 -12.292 0.296051
6.99008 -11.4561 0.261615
8.1201 -9.54332 0.246338
30.4591 62.6747 1.39145
7.1341 -11.2137 0.267131
9.31988 -8.81836 0.272534
11.7446 -10.0949 0.339392
17.6009 -7.86166 0.388035
7.37054 -11.183 0.303053
-9.24589 -11.9361 0.382396
-12.3315 -18.9305 0.541044
7.77144 -9.46168 0.278833
7.95953 -9.51883 0.287996
-24.2718 20.4004 0.821083
-27.965 -8.96779 0.737021
9.77425 -9.09445 0.343394
17.9735 -13.1302 0.561361
18.8536 -13.5759 0.578032
-21.8192 19.1035 0.753191
-26.2197 20.7222 0.869905
-27.9834 -8.39868 0.764895
-31.729 -16.9179 0.977432
-12.8633 -19.4245 0.620616
15.1046 -11.7364 0.510493
23.2833 -3.38776 0.661852
-11.7733 -18.3582 0.632254
25.6501 -4.85924 0.759671
17.3274 26.8907 0.956624
-26.8578 -19.7857 0.988331
7.39372 -11.5819 0.412434
7.11284 -10.923 0.396851
15.5848 25.3883 0.912582
-7.5118 -8.68011 0.351172
13.3012 -10.8839 0.524855
-7.20498 -9.3645 0.362128
-27.6435 -7.80245 0.95585
-11.5176 -16.8364 0.684281
7.99871 -9.50098 0.410834
16.5549 11.3106 0.716918
11.0452 -9.6177 0.531992
12.1168 -10.2376 0.577979
25.6692 51.6898 2.16438
-7.34996 -8.02445 0.406834
9.80233 -9.0995 0.499238
23.3554 -3.27919 0.905155
30.7714 63.6114 2.73249
-7.32475 -9.72223 0.476455
10.6083 -9.67538 0.563162
12.9833 -10.7231 0.68033
22.0437 -2.70172 0.905145
-28.0099 -16.993 1.34059
8.86738 -8.82759 0.516997
-6.8291 -8.3502 0.463856
9.58304 -9.06537 0.551379
13.0763 15.011 0.878007
-27.9593 -8.2055 1.28052
15.3481 19.991 1.13131
15.9673 27.4926 1.41498
24.0388 47.2715 2.34292
6.4133 -14.2892 0.697787
11.0299 -9.67669 0.663517
18.8229 -1.67052 0.864184
21.2769 40.5125 2.14413
15.9269 28.0625 1.51133
-11.0276 2.73524 0.546122
-7.12973 -9.39785 0.569212
9.30896 -9.12413 0.617222
11.5805 -8.8848 0.683442
20.5158 -2.35109 0.994459
11.9278 12.1561 0.844753
17.8827 43.0069 2.28786
7.88671 -9.61225 0.611818
10.3512 -9.42761 0.693222
15.4371 26.1772 1.5203
22.1 42.8571 2.44558
21.4485 -2.67196 1.09879
-7.30422 -8.39165 0.577389
9.52965 -9.07337 0.685033
17.6311 25.855 1.64255
17.7257 32.1349 1.91389
13.2735 -10.9409 0.9139
10.8396 12.6716 0.890898
14.8252 20.1241 1.3415
11.268 -9.77063 0.806345
15.6488 20.3891 1.41624
-24.9585 19.1325 1.71572
-6.87845 -8.06991 0.586795
10.5298 12.7306 0.924296
-7.15245 -9.23342 0.654504
10.2637 12.7858 0.950011
-26.3635 18.5611 1.82803
6.30401 -13.3134 0.842745
11.4725 12.4021 0.970134
-6.80953 -6.72051 0.554878
11.5635 12.3308 0.994486
-6.71889 -8.30249 0.639466
6.4395 -12.9442 0.844185
15.2681 20.3145 1.52695
14.8846 24.3363 1.7006
14.5552 33.6388 2.19858
-6.01899 6.41068 0.538399
-8.06479 -7.64175 0.672148
-7.02618 -8.06036 0.656896
5.90137 -12.8339 0.8535
-7.3987 -6.8119 0.625671
7.16113 -11.4097 0.832574
7.12726 -10.7715 0.805802
11.5424 -9.96358 0.94158
12.3587 -10.3387 0.9984
16.5455 7.32767 1.15227
15.514 20.0975 1.60524
-7.16403 -6.24351 0.6163
10.4356 -9.53113 0.911938
-7.30373 -6.19622 0.628226
11.7746 12.4246 1.16554
10.1026 22.7433 1.69386
-7.1606 -9.50509 0.79553
11.9505 12.9614 1.20861
-6.89981 -4.42172 0.563401
-6.66797 -8.09856 0.715647
-6.64817 -4.39963 0.549596
9.41543 -9.00182 0.906646
10.1388 -7.95467 0.907603
13.1538 16.5786 1.52934
-6.60435 -6.59705 0.648609
9.95519 -8.40676 0.952595
11.9121 17.8116 1.61016
11.8767 18.9351 1.66895
10.0345 19.0989 1.62632
9.48337 20.4952 1.69796
7.85588 23.4147 1.8565
11.2505 19.4193 1.70911
10.1529 -7.70314 0.974249
-6.95084 -7.11016 0.762013
-16.8647 -6.11693 1.40265
9.60104 -7.78362 0.968686
9.78011 19.5341 1.7237
-6.33483 -4.22989 0.603587
-6.74478 -8.11775 0.836961
4.87114 -5.77638 0.600501
9.49723 20.8949 1.82004
8.18585 20.015 1.73843
5.06727 -5.84015 0.622705
13.0987 11.8197 1.42895
12.0807 12.135 1.40146
6.84368 -9.5473 0.954457
12.5454 11.9994 1.42634
7.09678 20.8341 1.80161
-6.3108 -4.35649 0.624675
-7.05559 -9.33815 0.961124
11.8498 12.4146 1.41933
10.6845 9.3471 1.20823
-4.93536 -11.2605 1.03964
6.18141 -6.10074 0.757845
9.33439 -7.27182 1.01746
-6.7275 -6.62629 0.80229
10.7155 12.699 1.44995
8.90843 -7.42302 1.00775
11.1176 12.5326 1.46562
-7.22294 -7.67243 0.92401
8.29067 -7.3808 0.985285
10.4901 12.8221 1.48881
-6.98899 -7.65149 0.919053
-6.8504 -8.2351 0.961686
10.8864 12.6548 1.5153
10.82 13.9573 1.59952
-7.02655 -8.22256 0.985572
11.4858 11.0945 1.46832
-6.27024 -4.20154 0.69373
-6.77178 -8.4815 0.993382
-6.28317 -4.36299 0.704827
11.2991 8.71995 1.33885
10.8623 9.52251 1.34638
6.77913 16.1042 1.64348
11.3342 11.2683 1.49123
10.7711 11.5878 1.49657
-11.0721 2.83723 1.07875
6.21257 -6.01859 0.82437
8.09451 -6.71041 1.00963
10.9623 9.38737 1.40061
9.79986 12.8947 1.56786
9.98645 12.8159 1.60038
7.89523 12.6269 1.47912
8.17021 13.6584 1.58407
11.4361 8.21235 1.43447
7.37036 13.1156 1.51825
9.295 11.6486 1.51605
7.2477 14.0317 1.6163
6.10862 14.5156 1.61702
9.41511 10.7338 1.47537
9.2897 12.6559 1.63095
11.5969 7.79835 1.45746
9.45996 10.2307 1.45044
5.01303 -5.86603 0.828088
-6.79247 -4.61974 0.86628
5.81162 14.4796 1.65647
-7.00313 -4.47095 0.885814
9.14492 10.9577 1.53217
-6.69883 -6.70845 1.0142
5.96034 -5.88301 0.90434
9.8789 8.69787 1.41841
9.15056 9.55757 1.42285
9.47303 10.5603 1.53786
5.00228 14.4985 1.65596
4.29899 -8.17566 0.999991
6.64375 11.1152 1.425
-6.75218 -3.89649 0.85777
6.54744 12.2769 1.54391
-6.84488 -3.83486 0.868858
9.87616 7.32806 1.37492
6.86357 11.7141 1.51213
9.97024 7.14858 1.3779
5.61393 11.9682 1.49505
5.63056 12.5205 1.55096
4.88441 12.7121 1.54145
9.99488 6.79333 1.37698
-6.83858 -4.52835 0.93911
7.48248 -6.29368 1.11422
-7.27638 -0.779651 0.838364
-6.22573 -5.34835 0.94518
5.29022 -5.61152 0.889608
9.03821 8.03523 1.4087
4.47016 -7.26762 0.987953
10.5651 5.23042 1.38026
9.1219 7.93564 1.42103
5.24156 -5.65587 0.91074
8.76101 8.06448 1.41271
9.08768 9.24528 1.51653
-6.98578 -5.60135 1.05943
10.2816 4.81442 1.35235
-6.86837 -3.82378 0.946856
9.28061 6.23885 1.35603
5.3861 11.8067 1.57364
-6.84571 -3.04444 0.909906
-6.82987 -3.229 0.913188
4.92243 -6.00307 0.947219
6.03019 -6.18673 1.05158
9.51074 5.70473 1.37073
8.60736 7.34851 1.39911
-6.89781 -4.27791 0.999615
-6.82917 -4.5003 1.0078
8.42468 8.75796 1.50755
5.2021 11.6998 1.59049
-6.49622 -5.57144 1.06504
3.75969 -7.6779 1.06473
8.65813 7.88396 1.46507
6.13011 -5.6656 1.04627
9.30674 6.15365 1.41368
-6.08785 -5.37188 1.02444
8.68615 6.71973 1.40032
8.23167 7.64288 1.42876
-7.0512 -1.77041 0.929288
-6.96521 -2.29013 0.93588
-6.39506 -5.27713 1.05779
8.95665 5.74225 1.36372
8.30939 8.1979 1.50435
-7.21054 -1.24409 0.937611
-6.84703 -4.08856 1.03076
7.54318 6.31454 1.27395
8.21384 7.15913 1.41274
8.12144 8.28095 1.50294
-6.86298 -2.80683 0.964885
-6.86396 -2.94563 0.965244
4.69064 10.3882 1.49855
9.10797 4.16133 1.31782
-7.19509 -1.59449 0.967896
6.89097 -4.29113 1.07866
4.96998 -5.99384 1.03199
-7.27847 -1.10882 0.984834
-6.96563 -2.1841 0.97599
-7.00212 -2.25276 0.982181
-5.95529 -4.36913 0.9869
5.23963 -6.62945 1.12579
6.9623 -4.20741 1.09495
8.21039 7.29192 1.48754
-7.1003 -1.70596 0.98114
-7.03282 -1.94195 0.980744
8.90933 4.91875 1.38204
8.45303 5.95856 1.40599
-6.87159 -3.59317 1.05632
8.97545 4.21249 1.35974
3.4741 10.9204 1.57008
-7.25844 -1.19102 1.00623
-5.97013 -4.4119 1.02078
-5.95036 -4.50976 1.02197
7.20225 -3.964 1.12972
8.19772 6.58704 1.45432
5.48606 9.27283 1.49233
-6.33782 -4.29138 1.0491
4.97079 -5.56813 1.03659
7.23993 -3.85882 1.14159
7.61953 -3.71551 1.17274
3.74302 10.3853 1.53819
3.56085 10.7159 1.5755
-7.31367 -1.07397 1.03132
-7.02383 -1.98966 1.01678
5.00828 -5.32579 1.02171
7.30212 -3.76615 1.15406
7.42007 -3.70066 1.17582
7.93649 -3.38377 1.22633
-7.1035 -1.86128 1.04379
-6.95864 -2.92506 1.09348
-5.9683 -4.34457 1.06153
7.96954 -2.8049 1.23595
8.33696 4.67934 1.4006
5.11008 8.75443 1.48616
8.47536 4.5641 1.42257
7.8925 -2.35927 1.21412
7.2472 5.76927 1.38715
3.06552 9.78713 1.53483
-7.0434 -2.00513 1.09702
7.5426 -3.13407 1.23114
8.33257 4.60511 1.44303
5.89567 7.58248 1.45875
5.39761 7.78726 1.44417
5.23656 8.11348 1.46723
5.19138 8.22824 1.47293
7.3904 -3.19422 1.22951
7.74071 -2.77811 1.2522
-6.71042 -1.67139 1.04107
7.89449 -2.27489 1.25969
7.33513 5.50137 1.40792
-7.05278 -1.93846 1.1345
-6.8716 -2.76642 1.15091
6.90991 5.60489 1.39564
-7.29979 -1.08746 1.1521
-7.09291 -1.81103 1.14594
-6.99674 -2.05289 1.14197
-7.06994 -1.85906 1.14663
-6.8469 -2.91374 1.16775
4.9092 7.61236 1.44105
3.47331 -6.07887 1.11749
-7.22188 -1.28979 1.17458
3.55255 -5.747 1.08803
3.58879 -5.65034 1.0771
7.16908 4.83254 1.40888
4.75956 7.53346 1.45083
-7.02104 -2.00916 1.18964
-7.04273 -1.9331 1.19787
7.06362 4.89482 1.42133
3.91543 8.13489 1.49563
6.09141 -3.34016 1.15707
6.72685 4.94183 1.39181
4.75848 7.31412 1.45611
3.85971 -5.33255 1.10606
7.20112 4.48431 1.42844
7.55889 2.89045 1.36761
6.41465 5.36254 1.41721
-7.22536 -1.24645 1.24794
6.83891 4.13489 1.37254
-6.40941 -2.75413 1.1899
5.54136 -3.6506 1.13971
5.72471 -3.53948 1.15539
2.83688 8.08672 1.48305
-7.31707 -1.03171 1.28041
5.36393 -3.80471 1.14615
-6.27208 -2.24573 1.15472
-6.233 -2.40193 1.16913
4.30367 -4.68908 1.11273
4.51765 -4.5006 1.11836
4.61627 -4.4727 1.1274
-6.75534 -1.72091 1.22743
4.41605 6.62581 1.42105
-7.10755 -0.921551 1.2804
-6.10773 -2.24436 1.15856
6.71928 3.73644 1.37828
6.17916 4.41858 1.37804
3.63001 -5.35865 1.1767
5.23132 5.77783 1.42604
2.58512 7.39996 1.474
6.55537 3.08537 1.36996
-1.69605 -5.74762 1.13458
6.46813 -1.39488 1.25533
6.33751 2.8065 1.33452
6.27803 2.40445 1.34134
-4.40461 3.89695 1.38052
4.37063 3.57184 1.35055
4.25224 3.32466 1.33674
4.68133 -1.68346 1.24919
4.83689 -1.38605 1.25873
-2.1095 4.7224 1.28876
3.73518 -2.95934 1.22504
3.67969 -2.554 1.19579
3.41193 -2.96622 1.22772
4.03385 2.58864 1.33992
-2.58939 -3.527 1.24791
-2.32222 -3.56439 1.21375
3.77719 2.07027 1.31005
3.75299 1.99177 1.30924
-2.81768 3.45349 1.37234
-2.29512 -2.41761 1.18575
1.952 -2.77633 1.2111
-2.11111 2.74891 1.3139
-2.01712 2.73749 1.32022
2.24774 -1.8672 1.22419
2.37789 -1.49678 1.22172
-2.00897 1.86908 1.28884
-2.06452 -1.4427 1.22708
1.44473 -2.06375 1.24242
-1.99265 -1.08761 1.21307
-1.92509 -0.707546 1.21838
-1.92678 -0.703311 1.24392
-1.9554 -0.344268 1.22682
-1.893 -0.564585 1.22816
-1.89258 -0.530799 1.23321
8.31756 -8.80101 -7.55105
12.3292 -10.4586 -8.94445
-8.44853 15.0733 -6.6991
21.4384 26.1132 -12.1473
-8.71968 -2.49721 -2.5558
-32.7823 -21.8987 -7.28332
-32.4433 -21.2171 -5.72002
-32.1662 -21.8596 -5.77576
-29.8503 -19.1441 -2.66645
9.44372 -8.99497 -0.39832
-7.17998 15.4769 -0.421337
-28.4512 -11.0096 0.703165
-6.83259 -8.16617 0.455009
17.6492 25.3438 1.67635
11.8316 16.6399 1.68811
-6.63044 -6.60387 0.875125
4.40764 12.7909 1.55983
8.92112 9.29275 1.50656
8.05666 -8.85419 -10.485
8.93106 -8.63332 -10.6113
7.02715 -12.0502 -11.6213
6.94154 -11.4577 -10.9973
8.24035 -8.35194 -9.63206
7.08873 -12.1356 -11.4252
7.13951 -11.0813 -10.5578
8.09005 -8.4678 -9.30148
6.79743 -11.3956 -10.3882
6.51097 -11.809 -10.309
7.84307 -8.94599 -9.06743
6.26741 -14.4455 -11.9126
8.39598 -8.80104 -9.20456
6.36386 -12.0221 -10.2701
6.20643 -12.1952 -10.2008
7.57926 -9.55349 -9.10243
7.99733 -9.15403 -9.02207
10.6237 -9.58924 -10.6408
6.17246 -14.2207 -11.4556
6.14607 -13.7552 -11.0744
6.19118 -12.6899 -10.3821
9.316 -8.93882 -9.4686
9.40533 -9.18882 -9.58755
5.92265 -12.6184 -10.123
9.48203 -9.1043 -9.37885
6.94415 -11.2544 -9.38206
5.66924 -13.0824 -10.0884
9.82784 -9.20691 -9.54106
7.69731 -9.4498 -8.56668
10.1398 -9.3161 -9.67096
11.0772 -9.63056 -10.2968
11.6235 -9.85184 -10.2299
8.48611 -8.71028 -8.04903
7.52147 -9.40969 -7.95692
8.27066 -8.82689 -7.99302
7.72231 -9.46501 -7.98943
7.93392 -9.51587 -7.93818
8.42435 -8.64021 -7.71213
0.345827 15.8221 -10.0988
7.62204 -9.43857 -7.71794
11.0816 -9.75599 -9.38451
7.32403 -10.8433 -8.27852
8.25675 -8.60165 -7.51727
4.64482 -15.4893 -10.1677
8.81714 -8.80196 -7.70635
8.01964 -9.14233 -7.49922
4.07089 -18.0805 -11.414
8.29949 -8.73288 -7.36318
4.09824 -17.3235 -10.861
0.132982 14.8239 -9.02106
6.74232 -11.4059 -8.06367
7.83733 -9.37894 -7.41379
10.2883 -9.46104 -8.47835
6.9094 -11.3925 -7.99581
8.16471 -9.3213 -7.43589
11.457 -9.8573 -9.03351
5.45904 -13.9925 -8.90498
7.83321 -9.38155 -7.24573
9.48128 -9.15773 -7.80864
6.99483 -11.2595 -7.84224
8.08581 -9.243 -7.20371
9.89833 -9.32324 -7.92219
15.1375 7.56519 -9.83323
8.78803 -8.95271 -7.24677
7.02407 -11.1041 -7.54846
2.66308 -11.2936 -6.67113
7.96176 -9.18725 -6.96053
7.51711 -8.94889 -6.63305
9.74987 -9.27662 -7.64238
10.9623 -9.64281 -8.23368
0.118153 15.2703 -8.61428
3.27115 -20.4795 -11.663
6.88636 -11.1149 -7.3275
10.2623 -9.43354 -7.80393
12.5764 -10.5516 -9.20312
9.37213 -9.13447 -7.3108
4.66746 -14.4354 -8.45495
8.11502 -9.3426 -6.87049
15.0619 7.70153 -9.29221
9.84353 -9.24297 -7.41355
0.822828 17.4613 -9.54826
2.72914 -19.6934 -10.8416
11.3139 -9.80288 -8.12558
4.2912 -14.6 -8.23385
14.9725 7.83112 -9.10617
15.4112 10.6424 -10.0619
14.2905 7.88497 -8.7259
11.133 -9.7768 -7.87658
13.5331 -11.0194 -9.2805
3.03048 -19.1853 -10.2113
11.5513 -9.99282 -7.76924
2.161 -20.2149 -10.2616
10.4332 -9.49795 -7.09236
14.5645 -11.5182 -9.32002
14.1044 -11.4071 -9.07793
11.2015 -9.82407 -7.42043
7.61316 -9.46604 -6.01357
3.59304 -8.53477 -4.56216
-8.61614 -1.89181 -4.33662
2.20645 -19.9173 -9.82999
4.56751 -9.36672 -5.09515
0.39228 13.6529 -6.68809
7.71263 -9.396 -5.9297
-8.22841 15.6887 -8.57338
-9.10553 -2.40715 -4.53773
15.339 -11.8442 -9.30981
19.817 5.67042 -9.86088
-10.193 -2.52367 -4.96645
1.90333 -20.3803 -9.73358
17.7236 16.6596 -11.5285
7.70194 -11.3829 -6.48217
20.4982 5.53312 -10.0021
14.3168 -11.3334 -8.48849
2.95834 -17.4578 -8.23077
19.8007 5.85888 -9.54303
18.3156 -13.3464 -10.4645
9.96154 -2.51627 -4.74802
20.7624 5.26273 -9.88553
17.8602 16.7993 -11.3065
1.79839 -19.9844 -9.18413
9.81567 -9.17732 -6.15136
-9.11596 -1.65467 -4.22489
9.54348 -3.50192 -4.6304
6.82286 -11.4978 -6.07823
10.0102 -2.64416 -4.69694
19.6926 6.00515 -9.27218
18.3021 18.1582 -11.5984
9.45661 -3.11524 -4.48221
15.8065 -12.1623 -8.94687
7.15467 -11.7511 -6.1506
7.25896 -11.0775 -5.90071
9.65187 -3.43783 -4.56631
-9.68762 15.8671 -8.27065
18.1248 -13.2266 -9.96707
19.9879 5.75826 -9.22295
16.4442 7.45944 -8.00018
18.4229 18.6128 -11.5906
16.8316 -12.5168 -9.24154
-10.8322 16.4639 -8.65541
-6.35925 14.5164 -6.94234
-5.16649 4.84444 -3.08344
20.6115 5.59664 -9.28859
9.65081 -3.4381 -4.42183
18.852 19.1121 -11.5468
16.2069 -12.4709 -8.79638
15.1603 7.58088 -7.23812
3.88115 -9.4002 -4.31898
-10.7719 16.3744 -8.29111
7.05231 -11.0726 -5.53293
-13.3427 3.26977 -5.78641
0.739869 -21.9712 -9.26623
16.168 -12.2401 -8.47778
-5.08689 5.59953 -3.16241
0.989796 -21.8212 -9.15889
1.23052 -20.5924 -8.64261
14.4481 7.74984 -6.8617
19.2261 20.0409 -11.6125
3.82159 -9.04215 -4.09202
15.0724 7.88819 -7.08542
18.5551 19.8223 -11.2765
-9.4114 -1.08019 -3.91003
4.03934 -8.56621 -3.87913
14.3142 7.90484 -6.71687
6.95254 -11.1578 -5.37219
-13.3904 2.50124 -5.57131
-7.69641 14.8988 -6.80814
20.0196 21.7587 -11.9879
15.3832 7.39229 -6.88054
-5.12457 13.974 -5.96195
14.2645 -11.2768 -7.11953
3.99255 -9.21163 -3.9392
1.53974 19.5146 -7.60842
-8.43971 15.233 -6.76115
19.4297 5.92571 -7.87379
-1.72983 13.0254 -5.08661
5.36472 -9.51354 -4.21009
-2.34367 13.2104 -5.14989
20.4264 23.6354 -11.9881
4.70957 -8.60231 -3.72306
19.8749 5.70195 -7.87107
0.855116 -25.5139 -9.70638
15.2602 -11.7589 -7.24753
20.4557 5.54211 -7.93499
9.5346 -3.47387 -3.79437
0.522851 -21.8297 -8.14238
3.30057 -10.9581 -4.27289
21.0825 24.5339 -12.0227
0.906483 -8.66562 -3.23203
14.338 -11.3541 -6.74151
20.8816 5.31122 -7.92506
18.5199 18.3033 -9.5231
-12.8256 2.24687 -4.733
21.8189 26.0621 -12.338
2.31499 -13.3905 -4.89352
13.306 -10.7597 -6.15543
0.789425 15.5406 -5.57127
-8.12665 -2.77328 -3.07127
0.405969 -21.147 -7.56466
-4.08892 13.3946 -4.97598
0.631124 -21.3529 -7.59436
16.2591 -12.2792 -7.2189
-15.0876 17.439 -8.12126
6.01105 -11.4906 -4.55755
-10.6025 15.9943 -6.69653
0.0983261 -17.9974 -6.32988
14.5836 -11.5567 -6.50406
20.8363 5.48773 -7.52367
0.648121 -22.3605 -7.72875
-4.84301 14.039 -5.08254
3.67989 -8.53914 -3.19926
4.93573 -9.1398 -3.55797
-13.9115 17.2676 -7.58456
2.29392 -10.9585 -3.83559
-8.54789 15.4981 -6.02729
3.0925 -13.9699 -4.87464
-14.3666 17.6292 -7.70425
20.6511 5.61496 -7.19601
23.2441 28.7605 -12.3701
37.9965 -21.4479 -14.5754
-5.11915 13.5623 -4.80873
1.9371 21.1448 -7.0518
1.26943 -10.2353 -3.41008
19.7264 -14.3384 -8.09606
34.1106 -21.4424 -13.2445
-5.07167 13.9471 -4.81464
-12.0843 16.5394 -6.63966
19.1285 -13.6305 -7.62455
3.59016 -8.74155 -3.02886
6.31489 -10.2647 -3.86041
2.32679 -11.0521 -3.59336
-4.24764 -31.9847 -10.2627
-1.07804 -22.7661 -7.2601
15.3953 10.6037 -5.9041
-12.6759 16.8635 -6.66311
-17.191 18.5397 -7.94296
3.05515 -9.84838 -3.25077
13.5418 -10.6778 -5.42456
7.09257 -11.3006 -4.12253
1.36145 -21.3619 -6.62381
-2.42428 -25.9134 -7.99501
7.51467 34.7843 -10.8715
0.764556 15.1277 -4.60411
-10.6786 16.1078 -5.81978
-2.53433 -24.9578 -7.56129
-13.7432 17.1802 -6.55981
-4.95281 -32.5454 -9.80834
0.813378 -23.9893 -7.18125
-5.18181 14.236 -4.50078
2.10917 21.1218 -6.26015
-20.3038 18.93 -8.18572
18.6281 5.9281 -5.75686
-4.14422 13.8952 -4.25826
-7.61368 14.7634 -4.86822
4.31691 -9.27163 -3.00432
4.72092 -11.822 -3.71979
-12.4189 2.18776 -3.62366
-30.2053 -42.7896 -15.077
-14.5506 17.5016 -6.5384
7.10253 -11.3104 -3.84258
2.59132 -9.6388 -2.83465
13.2047 -10.6876 -4.83274
-8.37287 -2.43679 -2.47264
22.1919 28.6276 -10.2724
-8.49787 -2.23974 -2.48326
-2.37775 -24.3296 -6.86719
-12.816 1.96388 -3.61017
4.47713 -11.5539 -3.43666
-8.92316 15.3405 -4.86737
-12.5069 16.6773 -5.72127
-5.174 13.7953 -4.02169
-7.76547 -37.7548 -10.5541
9.90233 -9.02503 -3.64497
-20.4591 19.0909 -7.51887
-9.32487 15.4581 -4.83332
-25.3892 19.5027 -8.51375
11.7272 11.8047 -4.39537
4.41879 -11.5295 -3.26849
49.9637 -14.5244 -13.781
-7.43113 -35.0962 -9.4379
4.15554 -8.79577 -2.55984
11.3892 -10.1297 -3.98584
-13.8136 17.2937 -5.75111
6.64751 -10.5985 -3.2364
3.22694 -9.78829 -2.66275
-27.6478 -40.495 -12.6663
-4.01514 -26.3662 -6.90788
3.60689 -10.5588 -2.87498
4.13581 -9.5402 -2.67087
16.0182 -12.0444 -5.11151
-6.83413 14.5527 -4.06432
-29.0972 -38.806 -12.3037
4.40175 -11.3712 -3.08374
4.31546 -7.81351 -2.2705
6.66747 -10.8742 -3.1791
47.4136 -14.3353 -12.3471
-26.7939 20.2144 -8.29489
-11.0284 16.1996 -4.82705
-25.5896 -37.3326 -11.1325
-8.99771 -35.4346 -9.02538
-23.267 19.5416 -7.46366
4.42801 -10.5129 -2.80084
-11.5371 16.5225 -4.88211
-7.50821 14.6232 -3.95757
10.4567 -9.43158 -3.37058
42.3827 -14.0783 -10.6844
15.4465 7.7254 -4.11457
-5.74567 -32.9423 -7.97306
4.02455 -9.21944 -2.38224
49.8002 -13.3286 -12.2331
-26.5794 -39.7027 -11.3271
-10.9066 -40.1771 -9.87003
4.28539 -9.16874 -2.41253
-24.4856 -35.5254 -10.1193
3.96914 -11.3803 -2.83756
4.98639 -8.83051 -2.38434
-12.2128 16.6408 -4.80005
-6.99372 -33.0085 -7.81412
11.2172 -9.82972 -3.40759
-5.72095 -29.0375 -6.7587
-25.7627 19.8972 -7.37618
43.6576 -9.54795 -10.1402
-28.8252 20.9281 -7.98378
-33.6539 -22.0544 -9.01666
-5.05782 -24.1012 -5.49572
42.8416 -13.2436 -10.0661
5.54847 -9.63597 -2.48109
-12.2084 2.78569 -2.7473
42.7109 -12.5167 -9.83162
44.8684 -12.8022 -10.2633
29.8024 41.9783 -11.2886
-5.12415 13.4348 -3.13911
13.7054 -11.0285 -3.87059
39.9083 -12.8251 -9.21333
-22.2243 19.3691 -6.39194
-25.096 -61.8802 -14.4985
4.39388 -9.88745 -2.34456
4.62187 -9.34644 -2.2506
-13.9062 17.3242 -4.741
-29.1977 21.2083 -7.70325
-29.9994 21.2894 -7.86108
-23.6628 -62.7889 -14.3925
-10.1974 15.9318 -4.00729
-7.69703 -32.6912 -7.14784
3.258 -9.88664 -2.21783
4.05313 -10.0425 -2.30708
48.406 -11.2232 -10.6054
15.2747 7.65128 -3.62465
-14.4437 17.7788 -4.84662
5.25119 -9.20683 -2.22548
28.8264 41.7152 -10.6084
-37.5421 24.6627 -9.41423
-26.2735 -25.712 -7.6345
15.325 8.02069 -3.59403
-28.7364 -22.1933 -7.5331
-27.1405 -69.5967 -15.4756
42.5679 -11.4558 -9.11506
-10.9186 16.0854 -3.94732
-14.8902 17.604 -4.69104
-33.0396 22.1786 -8.08383
46.869 -10.2234 -9.78112
-11.8806 -38.2347 -8.14376
4.22108 -9.93278 -2.19405
4.3542 -9.91473 -2.20548
11.8395 -9.8419 -3.13131
-11.4384 16.413 -3.99034
-17.3593 -49.8294 -10.5529
-7.84662 -30.374 -6.28134
-7.21043 -29.4688 -6.08593
-11.7743 -36.5847 -7.61429
4.15522 -10.127 -2.16555
-32.4271 -22.1734 -7.74483
-25.3304 19.88 -6.33533
-31.5157 -22.5438 -7.55414
-6.54579 14.4587 -3.07661
-23.1304 -54.3545 -11.4803
-31.9485 -21.2692 -7.39686
3.5093 -9.56014 -1.96478
48.4837 -11.2335 -9.55511
-12.1449 16.5806 -3.92607
4.07091 -9.535 -1.97694
-34.6294 -21.035 -7.67045
-19.8618 -32.2659 -7.20829
-13.9555 -40.2718 -8.07005
39.7567 -13.1148 -7.9122
-33.7063 22.6382 -7.5968
-32.0373 -22.1257 -7.31495
-31.0399 -22.7101 -7.22041
-18.8837 -46.7872 -9.49903
-15.1455 -41.1443 -8.13774
3.88724 -9.36584 -1.87173
44.8657 -12.0922 -8.62711
5.86778 -9.89781 -2.10744
-21.642 -49.0765 -9.82509
-18.2344 -45.2646 -8.8311
-13.8523 17.2666 -3.92265
-29.5533 -23.8355 -6.74957
-19.2875 -25.7018 -5.74776
-22.7148 -59.3564 -11.2852
-36.7969 23.2194 -7.67522
-25.3283 19.8876 -5.60336
-32.0281 21.9166 -6.7367
3.9989 -10.2771 -1.91052
4.85202 -8.75681 -1.73874
14.3049 7.68244 -2.80308
14.3928 8.25951 -2.84479
-29.0602 21.1321 -6.15822
44.5301 -12.5987 -7.87713
44.2708 -11.4659 -7.78358
-29.7111 -23.5963 -6.4369
-19.9903 19.038 -4.63382
-18.1239 -45.0521 -8.2096
15.1878 7.61241 -2.85171
-29.8729 21.1481 -6.1124
6.74663 -11.2335 -2.20198
-20.755 -49.4878 -8.87179
40.9058 -12.8986 -6.98903
46.0007 -12.3924 -7.74194
-9.84066 15.6213 -2.97673
-18.3423 -45.5074 -7.82942
-33.1141 -22.8589 -6.34098
-21.6144 18.99 -4.50385
-24.1874 -15.1635 -4.50863
-22.9054 19.5534 -4.66624
-37.4819 22.6941 -6.78873
-10.6684 15.9662 -2.96209
3.55577 -9.75678 -1.6045
3.97038 -10.4973 -1.73602
-7.20006 14.6015 -2.48354
-29.2567 21.2939 -5.53023
-30.1902 -23.3181 -5.80113
-26.5563 -24.8406 -5.50938
-19.4778 -45.2754 -7.51056
44.491 -11.5664 -6.98618
47.3977 -10.3265 -7.38931
-6.18242 13.7674 -2.25495
9.95044 -5.21571 -1.6675
-31.8135 -22.9457 -5.84171
-22.7249 -57.4668 -9.16949
10.3848 -9.33709 -2.0804
47.5737 -11.0058 -7.25045
-34.7306 -23.1198 -6.14066
-29.8984 -24.6615 -5.66989
-11.3617 -37.6519 -5.79048
17.4047 -12.5922 -3.14539
-24.03 19.7847 -4.52237
-21.8398 -48.9374 -7.72539
-7.20627 14.4315 -2.30378
-12.0836 16.4748 -2.91112
6.19875 -11.8417 -1.90826
-12.7332 17.0187 -2.98386
-32.5686 22.001 -5.52479
6.92295 -11.3078 -1.85176
39.4717 -13.0266 -5.84469
-29.6049 -23.7224 -5.29488
-30.9826 22.2659 -5.28453
-18.3623 -44.2589 -6.62106
47.7395 -10.6801 -6.74455
-6.47248 14.3117 -2.14355
-19.6488 -51.2839 -7.46411
7.89067 -9.54883 -1.66158
9.35301 -9.20749 -1.80965
-13.3059 16.9894 -2.90751
13.5298 -10.7912 -2.34071
-21.0671 19.1632 -3.82851
44.4192 -11.4849 -6.08988
47.4279 -10.3889 -6.42543
-21.45 18.8762 -3.73543
-31.0553 -23.2382 -5.06643
-14.1486 17.3254 -2.89088
-31.9894 21.3514 -4.99258
-36.5485 -15.4322 -5.12247
7.17077 -10.6642 -1.64774
11.0068 9.01217 -1.82926
-32.1384 -22.1477 -4.99494
-29.5723 21.5886 -4.63091
-33.8232 -21.1059 -4.99721
44.2551 -11.4452 -5.71939
6.94659 -10.5972 -1.58224
-7.229 14.458 -1.99918
-23.6651 19.8713 -3.78321
-31.3543 22.0978 -4.73115
6.47575 -12.4185 -1.70466
47.3705 -10.1066 -5.93188
15.3482 8.04129 -2.08548
-16.2362 -39.3254 -5.13206
7.24438 -10.7665 -1.56143
-19.8985 8.81892 -2.57624
-12.8147 -38.7674 -4.80329
-30.2727 -23.3397 -4.4697
-29.7725 -23.8105 -4.46116
44.3659 -11.8845 -5.39716
11.461 -9.86994 -1.75164
-28.1354 21.3338 -4.0619
6.79906 -11.0777 -1.48691
7.62094 -9.38252 -1.38202
11.8257 -9.92748 -1.75303
9.5571 -4.66242 -1.20437
15.3227 7.87416 -1.94372
-9.80883 15.6152 -2.07964
-30.2317 22.0907 -4.19429
40.9235 -13.4718 -4.83028
9.52602 -9.18629 -1.46354
-10.5001 15.7478 -2.05632
7.00676 -13.1905 -1.61634
47.5348 -10.3312 -5.27267
11.0108 9.04863 -1.53846
17.2671 -12.8265 -2.30748
44.5821 -11.5629 -4.93418
9.79417 -9.14219 -1.41893
8.51567 -8.60214 -1.2676
-29.3813 -23.5119 -3.91831
-26.4442 -53.0428 -6.18402
15.3177 7.6822 -1.75284
-30.2218 -23.3029 -3.91544
-12.1977 16.628 -2.09305
-12.1368 16.2605 -2.01604
10.3986 -9.25815 -1.36344
-18.3578 -46.6237 -4.91369
6.51488 -12.4761 -1.3609
9.65813 -9.11839 -1.25588
-50.5909 28.1801 -5.59339
17.1248 -12.5288 -2.03866
44.4733 -11.9508 -4.41331
-26.8094 -54.193 -5.74816
-18.2136 -47.7995 -4.85908
-22.0807 19.314 -2.74238
48.3385 -10.7536 -4.62455
9.89428 -9.1515 -1.24719
41.8503 -13.8055 -4.10536
-14.2467 17.4644 -2.04064
-28.601 -13.04 -2.86525
-28.2179 -55.0095 -5.69899
16.2996 -12.2001 -1.85123
8.78444 -8.877 -1.13049
-34.5243 -19.5806 -3.47669
13.1953 -10.8921 -1.48927
47.896 -11.1017 -4.21101
9.57323 -9.19253 -1.11525
11.174 -9.84007 -1.251
-32.0481 22.0094 -3.23567
17.3342 -12.6407 -1.77608
-15.1974 -39.5472 -3.39378
15.0698 -11.7837 -1.52474
-36.5706 -71.4656 -6.37568
-10.8104 -30.2653 -2.53705
-28.068 21.342 -2.7273
-31.0701 21.9619 -2.93781
-20.1538 -46.0376 -3.87975
7.74267 -9.47449 -0.97618
-47.165 25.6697 -4.06708
-20.2634 19.0713 -2.02453
-31.272 22.12 -2.7767
16.8565 -12.5953 -1.53854
44.5156 -11.9127 -3.35655
-33.5653 -63.5097 -5.18304
14.3286 -11.337 -1.30699
-14.0462 -37.2615 -2.74834
10.9848 -9.81022 -1.00864
-22.0983 19.3494 -1.98427
13.1746 -10.8711 -1.14287
18.5173 -13.4305 -1.52419
-20.6283 -47.5277 -3.42384
16.5039 -12.4835 -1.36592
-13.232 -36.6877 -2.52265
46.4799 -12.0886 -3.00128
-27.646 -56.016 -3.81061
37.5097 -9.10008 -2.36848
45.5066 -10.4159 -2.8655
6.28405 -13.5837 -0.893482
32.617 -21.5828 -2.33864
-9.29519 15.5173 -1.06321
-14.0976 -36.7759 -2.24203
17.1022 -12.7814 -1.19812
-9.47364 -12.2811 -0.849897
15.3159 7.85771 -0.93245
14.2509 -11.2811 -0.972794
-12.1262 16.4333 -1.06711
-14.9298 -37.0051 -2.11837
15.2092 7.99756 -0.843909
-14.729 -37.6501 -1.98267
-13.4193 17.0094 -1.03663
9.74157 -9.18893 -0.61399
-21.0991 -48.3993 -2.38737
12.735 -10.4694 -0.763938
-14.276 -39.7962 -1.87586
-15.5418 -38.2923 -1.76794
7.09161 -13.0952 -0.65996
-12.4386 -37.9184 -1.69871
-48.3737 26.3079 -2.23234
18.9334 -13.6025 -0.945498
17.3077 -12.8649 -0.839318
-34.8354 -67.6123 -2.86606
-16.1835 -42.439 -1.67103
-31.5829 21.7008 -1.40292
45.0332 -11.6035 -1.6741
-29.6459 -58.971 -2.20519
-22.7221 -49.796 -1.84044
21.3031 24.6387 -1.08512
-20.306 19.0291 -0.907893
8.43495 -14.8875 -0.573932
9.59465 -9.15964 -0.429829
11.5419 -10.161 -0.499596
19.1987 -13.5751 -0.772196
36.5419 -13.7825 -1.29545
23.3927 28.3173 -1.1818
-26.4297 -13.2569 -0.926482
-21.6764 19.3034 -0.88583
-29.82 21.1204 -1.14185
-21.8303 -50.1888 -1.69251
