ply
format ascii 1.0 
element vertex 1873
comment /media/mkaihara/Seagate Backup Plus Drive/model_iterations/model_25.ply
property float32 x 
property float32 y 
property float32 z 
end_header 
-30.7895 -43.6165 -15.3672
-14.6829 17.6612 -6.59874
7.06264 -11.2474 -3.82177
2.58147 -9.60526 -2.82515
13.1373 -10.6332 -4.80849
-8.39169 -2.44225 -2.4781
21.9669 28.3359 -10.166
-8.51705 -2.24479 -2.48878
-2.41781 -24.7239 -6.97679
-12.8598 1.9706 -3.62254
4.45085 -11.4878 -3.41763
-9.0004 15.4741 -4.91052
-12.6186 16.8268 -5.77327
-5.21752 13.9134 -4.05695
-7.92936 -38.5425 -10.7725
9.85711 -8.98383 -3.62869
-20.6665 19.2846 -7.59585
-9.40581 15.593 -4.87623
-25.6619 19.7124 -8.60592
11.6725 11.7494 -4.37395
4.39167 -11.4604 -3.24954
49.3176 -14.3366 -13.6032
-7.59737 -35.8753 -9.64542
4.13419 -8.75114 -2.54735
11.3336 -10.0803 -3.96678
-13.9424 17.4553 -5.80555
6.61499 -10.5472 -3.22119
3.21058 -9.74061 -2.65026
-28.1693 -41.2584 -12.9041
-4.09226 -26.8655 -7.03691
3.58627 -10.5003 -2.85962
4.11409 -9.49105 -2.6576
15.9195 -11.9702 -5.08046
-6.89678 14.6872 -4.10267
-29.6176 -39.4997 -12.5228
4.3748 -11.3032 -3.06589
4.29541 -7.77741 -2.26042
6.63016 -10.8138 -3.16195
46.8219 -14.1563 -12.1934
-27.0951 20.4418 -8.38882
-11.1281 16.3465 -4.8715
-26.0234 -37.9647 -11.3202
-9.192 -36.1955 -9.21749
-23.514 19.7492 -7.54356
4.40335 -10.4556 -2.78608
-11.6418 16.6729 -4.9272
-7.57395 14.7522 -3.99317
10.4092 -9.3888 -3.35557
41.9039 -13.9193 -10.5641
15.3814 7.69276 -4.09664
-5.87102 -33.6527 -8.14328
4.00449 -9.17439 -2.37102
49.1625 -13.1579 -12.0768
-11.1721 -41.1508 -10.1075
4.25924 -9.11312 -2.39845
3.9371 -11.2897 -2.81575
4.96169 -8.78709 -2.37302
-12.3252 16.7943 -4.84495
-7.15868 -33.7831 -7.99564
11.1632 -9.78253 -3.39152
-5.8273 -29.5714 -6.88161
-26.0445 20.115 -7.45744
43.1762 -9.44263 -10.0285
-29.1628 21.1733 -8.07787
-34.0413 -22.3082 -9.12028
-5.12628 -24.422 -5.56796
42.3572 -13.0939 -9.95253
5.51955 -9.58613 -2.46866
-12.2494 2.79503 -2.75652
42.2299 -12.3756 -9.72114
44.3447 -12.6527 -10.1438
29.2842 41.2476 -11.0896
-5.1726 13.5633 -3.16988
13.628 -10.9662 -3.84909
39.4849 -12.689 -9.11586
-22.4584 19.5733 -6.45983
-25.9659 -64.0235 -14.9988
4.36712 -9.82788 -2.33093
4.59552 -9.29355 -2.23832
-14.0391 17.49 -4.78691
-29.5475 21.4626 -7.79612
-30.3651 21.5489 -7.95746
-24.5338 -65.0984 -14.9198
-10.293 16.0815 -4.04552
-7.86054 -33.3818 -7.2974
3.23588 -9.82086 -2.20363
4.02578 -9.97547 -2.29224
47.8098 -11.0849 -10.4749
15.2105 7.61906 -3.60886
-14.584 17.9517 -4.8943
5.22375 -9.15901 -2.21431
28.3613 41.0406 -10.4346
-26.5811 -26.0129 -7.72359
15.2589 7.98604 -3.57796
-29.0475 -22.4335 -7.61445
-28.2479 -72.435 -16.1045
42.0976 -11.3292 -9.01454
-11.0211 16.2368 -3.98501
-15.0339 17.7741 -4.73686
-33.4682 22.4663 -8.18923
46.3129 -10.1021 -9.66518
-12.1702 -39.1652 -8.34049
4.19381 -9.86928 -2.18052
4.32379 -9.84584 -2.19071
11.7798 -9.79223 -3.11578
-11.5463 16.5682 -4.0286
-17.8779 -51.3161 -10.8661
-12.0318 -37.3828 -7.77918
4.12782 -10.061 -2.15193
-32.7949 -22.4248 -7.83254
-25.6094 20.0991 -6.40558
-31.8722 -22.7987 -7.63945
-6.60994 14.6013 -3.10759
-23.8234 -55.9819 -11.8226
-32.3 -21.5031 -7.47814
3.48493 -9.49453 -1.95181
47.8857 -11.0949 -9.43738
-12.2607 16.7387 -3.96403
4.04434 -9.47325 -1.96461
-35.0229 -21.274 -7.75753
-20.1709 -32.7677 -7.31985
-14.2977 -41.2582 -8.26645
39.3307 -12.9743 -7.82766
-34.1521 22.9376 -7.69778
-32.3982 -22.3749 -7.39725
-31.3905 -22.9666 -7.30186
-19.3844 -48.0266 -9.74944
-15.5115 -42.1375 -8.33301
3.86424 -9.31118 -1.8612
44.3416 -11.9509 -8.52649
5.83449 -9.8419 -2.0959
-22.2307 -50.4108 -10.0911
-18.695 -46.4069 -9.05288
-13.9881 17.436 -3.96158
-29.8919 -24.1086 -6.82679
-19.5151 -26.005 -5.81524
-23.4803 -61.3546 -11.6637
-37.3056 23.5404 -7.78178
-25.6094 20.1083 -5.66591
-32.4339 22.1944 -6.82248
3.97005 -10.2037 -1.89735
4.82597 -8.70995 -1.72976
14.2463 7.6509 -2.79108
14.3317 8.22439 -2.83216
-29.4072 21.3845 -6.23216
44.0087 -12.4511 -7.78505
43.7625 -11.3342 -7.69432
-30.0498 -23.8652 -6.51019
-20.1986 19.2364 -4.68248
-18.5925 -46.2162 -8.42074
15.1235 7.58015 -2.83914
-30.2316 21.4021 -6.18617
6.69964 -11.1553 -2.18709
-21.3287 -50.8546 -9.11586
40.4602 -12.7581 -6.91307
45.4472 -12.2433 -7.64892
-9.93533 15.7718 -3.00583
-18.8241 -46.7019 -8.03401
-33.4993 -23.1247 -6.41473
-21.8398 19.1881 -4.55113
-24.3808 -15.2846 -4.54464
-23.1523 19.7642 -4.71686
-37.9946 23.0046 -6.88195
-10.771 16.1201 -2.99101
3.52806 -9.68136 -1.59255
3.93825 -10.413 -1.72256
-7.27542 14.7547 -2.51009
-29.61 21.551 -5.59733
-30.5332 -23.5829 -5.867
-26.8625 -25.1269 -5.57281
-19.9757 -46.4321 -7.70166
43.9759 -11.4325 -6.90538
46.826 -10.2019 -7.30022
-6.24625 13.91 -2.27881
9.91953 -5.19951 -1.6623
-32.178 -23.2085 -5.90864
-23.4683 -59.3452 -9.46829
10.3349 -9.29223 -2.07058
46.9936 -10.8715 -7.16209
-35.1448 -23.3955 -6.21393
-30.2506 -24.9519 -5.73664
-11.64 -38.5726 -5.93119
17.2886 -12.5082 -3.12465
-24.2936 20.0017 -4.57225
-22.4278 -50.2542 -7.93258
-7.28001 14.5794 -2.32785
-12.2004 16.6341 -2.93959
6.15171 -11.7521 -1.89423
-12.8596 17.1877 -3.0138
-32.9852 22.2824 -5.59575
6.87657 -11.2322 -1.83971
39.047 -12.8864 -5.78193
-29.9429 -23.9933 -5.35535
-31.3756 22.5483 -5.35184
-18.8254 -45.3745 -6.78731
47.1567 -10.5497 -6.66223
-6.5429 14.4678 -2.1674
-20.2514 -52.8559 -7.69212
7.85134 -9.50131 -1.6535
9.30778 -9.16293 -1.80107
-13.4365 17.156 -2.93632
13.4528 -10.7298 -2.32757
-21.2898 19.3657 -3.8692
43.9041 -11.3517 -6.0193
46.8535 -10.263 -6.34761
-21.6722 19.0718 -3.77434
-31.4106 -23.504 -5.12444
-14.2887 17.4969 -2.91975
-32.3869 21.6167 -5.05484
-36.9317 -15.594 -5.17628
7.12692 -10.599 -1.63793
10.9638 8.97694 -1.82159
-32.5002 -22.397 -5.05123
-29.9345 21.8531 -4.68786
-34.2031 -21.343 -5.05342
43.7444 -11.3131 -5.65342
6.90347 -10.5315 -1.57269
-7.30463 14.6095 -2.02049
-23.9258 20.0902 -3.82508
-31.7506 22.3771 -4.79117
6.42422 -12.32 -1.6915
46.7985 -9.98455 -5.86022
15.2807 8.00591 -2.07584
-16.6014 -40.2093 -5.247
7.19959 -10.7 -1.55203
-20.0234 8.87424 -2.59241
-13.1322 -39.727 -4.92163
-30.6167 -23.6049 -4.52056
-30.1139 -24.0835 -4.51238
43.8492 -11.746 -5.33433
11.4023 -9.8194 -1.74279
-28.4735 21.5901 -4.1109
6.75405 -11.0045 -1.47734
7.58318 -9.33609 -1.37533
11.7644 -9.87599 -1.74406
9.52906 -4.64873 -1.20078
15.256 7.83982 -1.93478
-9.90677 15.7712 -2.10066
-30.6096 22.3669 -4.24689
40.4653 -13.3209 -4.77629
9.48069 -9.14257 -1.45669
-10.6032 15.9024 -2.07671
6.94733 -13.0788 -1.60301
46.9569 -10.2055 -5.20853
10.9667 9.01236 -1.5318
17.1491 -12.7388 -2.29189
44.0617 -11.4279 -4.87659
9.74767 -9.09877 -1.4123
8.4777 -8.56379 -1.26204
-29.7134 -23.7776 -3.9627
-27.1935 -54.5455 -6.35902
15.2512 7.64881 -1.74478
-30.5646 -23.5672 -3.95995
-12.3189 16.7932 -2.11401
-12.2544 16.4181 -2.03572
10.3486 -9.2136 -1.35697
-18.8683 -47.9196 -5.05
6.45921 -12.3696 -1.34959
9.61355 -9.07636 -1.25017
17.0096 -12.4445 -2.02508
43.9519 -11.8106 -4.36155
-27.5892 -55.769 -5.91525
-18.7435 -49.1897 -5.00014
-22.3162 19.5199 -2.7717
47.7382 -10.6201 -4.56706
9.84713 -9.10787 -1.24132
41.371 -13.6474 -4.05839
-14.3903 17.6403 -2.0613
-28.8395 -13.1487 -2.88924
-29.0375 -56.6071 -5.86449
16.1933 -12.1205 -1.83928
8.74371 -8.83583 -1.12532
-34.9007 -19.7941 -3.51477
13.1197 -10.8296 -1.48083
47.303 -10.9642 -4.15881
9.52734 -9.14845 -1.10997
11.1167 -9.78961 -1.24466
-32.4561 22.2895 -3.27691
17.2167 -12.555 -1.76416
-15.5614 -40.4942 -3.47495
14.9756 -11.71 -1.5153
-37.9483 -74.1572 -6.61604
-11.0139 -30.8348 -2.58468
-28.4054 21.5986 -2.7601
-31.4598 22.2373 -2.97468
-20.6799 -47.2391 -3.98104
7.70203 -9.42471 -0.97115
-47.9336 26.088 -4.13343
-20.4773 19.2725 -2.04589
-31.6684 22.4004 -2.8119
16.7423 -12.5099 -1.52822
43.9918 -11.7725 -3.317
-34.6809 -65.6203 -5.35558
14.2421 -11.2685 -1.29917
-14.3663 -38.1106 -2.81098
10.9283 -9.75977 -1.0035
-22.3351 19.5568 -2.00551
13.0988 -10.8086 -1.13636
18.3834 -13.3333 -1.51326
-21.1809 -48.8006 -3.5157
16.3932 -12.3996 -1.35684
-13.5368 -37.5324 -2.58076
45.9111 -11.9406 -2.96447
-28.4806 -57.7067 -3.92597
37.1423 -9.0109 -2.34517
44.9703 -10.2931 -2.83161
6.21845 -13.4419 -0.884388
32.2258 -21.3239 -2.3108
-9.39185 15.6786 -1.07428
-14.4101 -37.5908 -2.29183
16.9846 -12.6935 -1.18994
-9.52703 -12.3503 -0.854704
15.2481 7.82293 -0.927916
14.1653 -11.2133 -0.966985
-12.2462 16.5957 -1.07761
-15.257 -37.816 -2.16498
15.1417 7.9621 -0.839762
-15.0609 -38.4983 -2.02756
-13.5532 17.179 -1.04689
9.69481 -9.14481 -0.611046
-21.6833 -49.7392 -2.45387
12.6643 -10.4112 -0.759713
-14.6363 -40.8003 -1.92346
-15.8938 -39.1593 -1.80827
7.02686 -12.9756 -0.654064
-12.7495 -38.8657 -1.74139
-49.1806 26.7466 -2.26948
18.7929 -13.5015 -0.938516
17.1872 -12.7753 -0.833501
-36.098 -70.0629 -2.97076
-16.6053 -43.5448 -1.71497
-31.9781 21.9723 -1.42033
44.499 -11.4658 -1.6541
-30.5891 -60.8471 -2.27608
-23.3556 -51.1842 -1.89233
21.0742 24.3738 -1.07263
-20.5197 19.2292 -0.917279
8.35061 -14.7386 -0.568308
9.54839 -9.11546 -0.427736
11.4799 -10.1065 -0.496906
19.0558 -13.474 -0.766466
36.1605 -13.6386 -1.28187
23.1018 27.965 -1.16618
-26.6389 -13.3618 -0.933978
-21.9078 19.5093 -0.895111
-30.1793 21.3749 -1.15545
-22.4603 -51.6369 -1.74196
-12.7923 -36.1905 -1.18105
-19.3877 -49.4573 -1.60647
-15.1978 -41.1894 -1.25622
-32.7813 -19.876 -1.02056
11.6291 -9.8655 -0.408309
16.7 -12.4213 -0.54824
-38.7717 23.986 -1.2039
-28.8178 21.928 -0.897249
-29.3331 21.4979 -0.861148
9.69739 -9.12901 -0.308377
-39.5319 13.6635 -0.925703
-28.8824 -48.3648 -1.26658
21.8653 -14.6237 -0.577638
31.7214 -19.2351 -0.836356
14.4376 3.99001 -0.306294
30.2401 52.8459 -1.12441
24.1619 -11.2488 -0.469028
49.4729 -11.3923 -0.943803
-29.5503 -21.2359 -0.662892
-28.3064 -27.8024 -0.628045
-17.407 -42.7133 -0.765991
12.9438 -10.6442 -0.275482
18.9906 -13.7227 -0.357608
-28.4497 -12.6451 -0.408543
-31.5414 -23.6047 -0.547302
-29.6484 -59.7688 -0.897526
-24.9617 -53.1268 -0.801522
-32.6243 -22.2806 -0.515041
-28.8329 21.9362 -0.428087
17.3945 -12.9899 -0.257389
30.4486 -18.8797 -0.420782
-29.3013 21.5116 -0.406292
-36.4744 -20.3805 -0.469746
-17.6328 -40.4402 -0.469886
-11.1848 -33.6669 -0.355504
-30.3133 -53.4122 -0.562904
-13.7105 17.3918 -0.171128
-26.0084 -13.1127 -0.234928
-14.3743 17.5226 -0.156175
-21.6016 19.2924 -0.150513
-20.115 18.8675 -0.126886
-10.371 -13.3329 -0.0589303
15.0074 7.88381 -0.0214079
11.2827 -9.92132 -0.00776228
-33.2834 -18.2301 0.0584931
-10.5963 -31.4926 0.110205
17.346 -12.6026 0.0933641
-17.3935 -39.9324 0.19619
19.2534 -13.5655 0.125461
7.34062 -12.6186 0.10667
26.7436 -10.9724 0.178117
-52.1738 18.6299 0.526396
16.6097 -12.3097 0.197657
38.8809 -7.9382 0.374697
-28.3284 -7.98789 0.344225
-34.8809 -21.0534 0.450196
-10.6315 -30.4608 0.34819
-50.8383 27.8625 0.706511
-11.8779 -32.9149 0.41896
-9.65213 -29.6694 0.37649
6.50363 -13.2938 0.188979
7.34814 -11.3205 0.177534
-26.8861 21.1051 0.521463
11.494 -10.0383 0.229536
-23.075 19.7336 0.499351
11.0701 -9.88442 0.233023
13.2085 -10.8738 0.269704
37.7555 -8.0804 0.642608
-33.2216 -22.2578 0.728393
-29.7642 21.2819 0.71647
6.31117 -13.1864 0.283643
7.15246 -11.2561 0.256965
8.13746 -9.54886 0.245028
31.2034 64.1634 1.54782
7.83645 -9.57513 0.279753
10.2738 -9.30544 0.334456
-28.0708 -9.0011 0.710103
-22.3198 19.4821 0.799643
-26.3316 20.7627 0.897939
-28.1984 -8.46695 0.775829
9.31175 -9.01365 0.350103
9.75503 -9.06665 0.363044
-24.4415 20.5999 0.866481
25.9977 -5.25943 0.738505
13.2182 -10.8437 0.509403
15.5789 25.3795 0.917163
6.35514 -13.1106 0.458327
7.60649 -11.8575 0.44205
-27.7541 -7.82744 0.946095
-12.2711 -18.7886 0.740448
-27.4473 -8.57856 0.994258
16.49 11.2866 0.721366
-28.8904 -17.9023 1.18876
16.6979 29.0065 1.1928
-29.5143 -16.0991 1.24648
24.0617 -4.34498 0.883342
-26.9622 -19.176 1.22692
-7.23297 -7.88641 0.403929
9.16968 -8.94188 0.476068
12.7667 13.9657 0.728628
29.3151 60.4765 2.54243
28.0919 59.8113 2.48552
-11.4144 -9.03498 0.574174
8.83314 -8.7782 0.49259
-24.5467 20.2209 1.28886
22.2803 -3.01963 0.910793
-27.9383 -16.9698 1.33986
9.54033 -9.04617 0.539024
12.8136 14.7576 0.839937
6.73533 -12.7554 0.612323
15.43 20.049 1.11113
21.9623 30.3361 1.63875
-9.32915 -13.5648 0.724295
-9.77442 -15.2869 0.806314
7.73148 -11.1433 0.597454
8.7327 -8.82332 0.560941
24.7379 -3.7897 1.1299
-29.0859 -8.47602 1.38284
6.86827 -11.2914 0.607924
-8.19705 -8.06685 0.541364
23.4293 47.2723 2.52234
-27.7084 -17.1248 1.54051
-9.60009 -13.4661 0.7878
9.79123 -9.08462 0.629042
17.3105 48.1065 2.47326
-29.4055 -13.0246 1.53543
-6.70477 -8.17412 0.520367
15.7681 36.6696 2.0355
-28.9432 -11.3341 1.56015
-7.5349 -6.9286 0.517431
-6.64843 -7.53673 0.508492
17.1488 31.0653 1.84128
10.7998 12.6285 0.897292
14.7648 20.0925 1.33783
9.4688 -9.04379 0.701485
15.3672 19.9949 1.39152
16.009 24.7259 1.62094
-26.4039 18.5913 1.76772
-6.91339 -8.12471 0.591751
-25.3434 19.4461 1.77363
6.25657 -13.2103 0.817399
-7.03645 -9.06815 0.654818
10.1982 12.7383 0.95902
15.6847 26.4271 1.79441
6.63078 -13.3175 0.855766
14.4782 23.6209 1.63558
-8.18435 -8.04487 0.6916
11.7862 11.8677 0.996775
15.2202 20.2432 1.52084
-7.31529 -9.90281 0.766065
7.13753 -11.3743 0.818104
11.4331 -9.86182 0.915278
5.97401 -10.9514 0.773793
-7.14535 -6.60452 0.608015
15.0501 21.3499 1.65199
16.428 7.2922 1.16654
-6.99205 -6.10899 0.609198
6.6386 -13.811 1.0207
9.87393 22.3039 1.645
10.6634 12.8529 1.14115
14.0188 18.8506 1.63788
12.9123 21.4088 1.72937
11.5982 12.2519 1.18364
6.69324 -9.982 0.850843
11.7451 12.0165 1.21551
9.90407 -6.99129 0.862511
12.6307 12.2277 1.29063
10.0451 -8.48302 0.963074
-6.05969 6.56748 0.66575
10.6084 9.34111 1.06135
12.3329 18.4399 1.66865
11.8897 18.9429 1.68472
-6.89138 -7.63866 0.797891
11.2689 19.4503 1.72434
9.63406 -9.07052 1.02246
10.7523 14.4335 1.4106
-6.3863 -4.27926 0.606056
9.55635 19.1463 1.70977
10.1836 -6.96856 0.987924
12.7168 11.7989 1.40188
10.1414 19.6909 1.78324
-7.19009 -9.53707 0.973245
6.80292 -9.49907 0.950501
12.5028 11.9607 1.41732
12.4094 12.2043 1.44492
11.6704 12.1983 1.39722
-4.98071 -11.3682 1.04484
10.5609 13.2132 1.43892
-6.91768 -6.04494 0.791233
-6.77268 -6.65239 0.801908
-5.14223 -11.2786 1.05489
-7.24313 -7.68591 0.909624
9.37677 -7.32806 1.02807
-7.06303 -7.99261 0.933631
-6.96348 -7.63186 0.908741
9.61208 12.8304 1.42105
-6.89393 -8.3021 0.964333
10.9939 9.22465 1.30762
10.727 13.8159 1.58006
10.6999 9.3974 1.3033
7.95043 14.4321 1.51551
-6.44698 -8.07176 0.946742
-6.83967 -8.93578 1.03897
11.4165 11.011 1.4632
11.4378 9.33211 1.38107
11.0806 11.014 1.46425
6.72374 15.5383 1.59113
-11.3026 2.89557 1.09316
-6.33256 -4.15205 0.709156
-6.76424 -6.2556 0.854375
9.67349 13.6426 1.61319
-5.93577 6.44968 0.861581
8.02636 -6.66396 1.01658
8.14808 13.5864 1.57367
-7.01488 -7.55963 1.03911
9.51005 11.8914 1.53568
7.19366 12.773 1.48782
7.26411 13.3829 1.55247
9.69112 9.24321 1.3858
6.06833 14.4669 1.62642
9.35849 12.7284 1.64708
-6.07975 -4.43671 0.788669
6.16248 14.1608 1.62713
6.42523 14.0746 1.62691
-6.93355 -4.40431 0.878344
8.91199 9.16685 1.36287
9.30764 10.3691 1.5153
7.49188 11.2495 1.46893
5.97989 11.7788 1.43643
-6.25514 -7.35859 1.05579
10.3958 6.53353 1.35834
9.12479 8.25881 1.35654
7.48853 11.9704 1.55923
7.01618 11.9251 1.52987
5.51464 12.2464 1.49471
5.02421 12.4896 1.50668
4.89041 14.2232 1.6554
9.9969 7.14791 1.37208
8.9081 9.46934 1.45269
5.53293 11.8393 1.47203
-6.79575 -6.67857 1.06056
7.01906 10.956 1.46587
4.48669 13.6885 1.6289
9.82645 -3.22001 1.15285
-6.07264 -5.38605 0.939647
7.34133 -6.16365 1.08797
10.5361 5.78099 1.3782
-7.33912 -0.980162 0.847844
-6.22456 -5.32804 0.942993
5.27107 -5.58099 0.884293
5.21718 11.9673 1.51706
-6.84638 -4.53491 0.9514
4.48588 -7.31449 0.992032
10.5222 5.20533 1.37744
9.01147 7.99823 1.41437
-5.9756 -4.34896 0.861088
-6.45102 -5.24517 0.982084
4.12972 -7.93829 1.06377
4.98969 -5.87734 0.924807
10.2729 4.80357 1.35934
8.64673 8.39637 1.45982
5.4245 11.8183 1.58789
9.15137 6.33972 1.36299
8.13398 8.46529 1.47066
-6.45303 -5.71422 1.07293
3.73687 -7.63471 1.06423
8.78272 6.77193 1.39454
-6.43299 -5.31562 1.05605
9.19444 6.08173 1.40736
8.28998 7.23366 1.40372
8.22515 7.61033 1.4308
5.80442 -5.37081 1.01515
-6.93503 -4.41959 1.05537
8.22027 8.11631 1.49841
-7.31603 -1.03652 0.954098
-6.88953 -2.81268 0.971421
9.05774 4.13865 1.30408
8.50525 6.71008 1.42216
5.02335 -6.05805 1.03428
4.94219 -6.22486 1.05231
6.90442 -4.30398 1.08288
-7.09656 -1.70939 0.978035
-6.97491 -2.209 0.977681
-5.99897 -4.40295 0.994604
8.23533 6.74061 1.44277
8.69064 4.4813 1.33308
8.71991 5.22011 1.38811
8.13381 7.23198 1.4815
-6.77498 -3.71515 1.04886
8.94296 4.19787 1.35223
8.35663 5.89821 1.4007
-6.36779 -4.30863 1.05184
-5.9314 -4.50527 1.01702
5.4647 9.20915 1.47951
3.74475 10.361 1.53093
-7.32631 -1.08682 1.02508
-6.86907 -3.90706 1.09641
4.97007 -5.56722 1.03124
5.251 -5.4217 1.04741
7.50349 -3.55591 1.16112
3.4875 10.4606 1.54615
8.48227 4.64244 1.36784
7.41436 -3.69773 1.17525
7.62805 -3.35291 1.18785
7.80514 -3.32409 1.20367
9.0106 2.83725 1.35966
4.85453 -5.65954 1.07161
7.39063 -2.86735 1.15405
-6.92369 -3.28363 1.11658
7.9625 -2.79515 1.2303
8.71859 -1.83137 1.30763
5.10473 8.74038 1.49461
3.03808 9.71284 1.51524
7.77334 -1.89794 1.17921
7.30937 5.82124 1.39233
3.55014 9.82244 1.54494
3.28041 10.0865 1.57316
-7.32846 -1.03745 1.09682
-7.03828 -2.0127 1.09047
7.03084 6.36477 1.432
-6.23659 -2.26204 0.995121
-7.20072 -1.3678 1.10584
8.01761 4.8653 1.42881
5.79545 7.46802 1.43461
5.37865 7.75561 1.43684
5.14611 8.15556 1.45844
6.78997 -3.24017 1.1377
7.28263 -3.14035 1.21446
7.67675 -2.77013 1.24359
-7.27464 -0.728746 1.11584
-7.0606 -1.94437 1.12981
6.81975 -3.10678 1.15887
3.76455 -5.80914 1.07024
-7.01703 -2.06537 1.14626
-7.30467 -1.08673 1.159
7.43227 4.82084 1.39924
-7.1597 -1.43571 1.16122
-7.23149 -1.29392 1.17813
-7.06083 -2.00858 1.19327
7.13739 4.80885 1.40498
-7.06439 -1.93536 1.20271
7.07745 4.91227 1.43114
6.67884 4.89892 1.3824
5.27285 6.32322 1.37191
4.74701 7.28583 1.45284
3.89804 8.0913 1.49373
-7.20964 -1.36601 1.22436
2.80156 -5.79566 1.08495
7.20707 4.46907 1.42872
6.58024 5.29207 1.42476
3.88686 -5.38347 1.11937
3.94811 -5.03549 1.08309
-7.23221 -1.24551 1.24431
-6.56772 -2.61305 1.19882
7.47073 2.86869 1.35736
7.08855 3.92369 1.38079
-6.38571 -2.74071 1.18186
6.83211 4.13354 1.37095
5.70314 -3.5324 1.15461
-7.35406 -1.0337 1.28363
-6.329 -2.27041 1.1555
5.55485 -3.66076 1.14666
5.33679 -3.78663 1.14694
3.65981 7.28834 1.43547
-6.76602 -1.72661 1.22577
4.49324 -4.48056 1.11663
-7.05375 -0.909687 1.2663
4.74048 -4.47211 1.15322
4.39026 6.58577 1.41295
6.63582 3.50021 1.35499
6.67766 3.71153 1.37258
-6.41179 -1.49366 1.18351
3.62001 -5.34269 1.17384
5.13518 5.67664 1.40199
-6.12953 -2.17417 1.19144
3.42179 -5.17153 1.15312
3.44403 6.88467 1.44113
-1.69257 -5.76418 1.14117
6.48702 2.74993 1.34096
-2.1369 -5.71059 1.17214
6.35034 2.81438 1.33739
-2.77971 -5.36136 1.18332
-3.47561 5.27639 1.36657
4.50559 3.92405 1.36408
4.1574 -2.88304 1.17889
4.63825 -2.19077 1.23956
4.2273 3.31375 1.331
3.71089 -2.93296 1.22513
4.03946 2.58834 1.34082
-1.44404 -4.1193 1.22175
-2.32122 -3.57952 1.21187
3.8787 2.37604 1.31833
-2.83906 3.4974 1.34838
-2.48147 -2.91714 1.18893
-2.37924 -2.93866 1.19402
1.83715 -2.80322 1.17888
1.86026 -2.78178 1.20893
1.98632 -2.51945 1.19553
-2.03244 2.7896 1.31031
2.8034 -0.555536 1.25958
2.78319 -0.336753 1.24153
-2.09172 -1.62067 1.21291
-2.07936 -1.45253 1.23787
-1.86504 -1.79803 1.28375
-1.99695 -1.13241 1.20423
-1.98839 -1.07127 1.231
-1.94808 -0.881056 1.23109
-1.93226 -0.708918 1.22122
-1.93108 -0.701985 1.24839
-1.90721 -0.470002 1.22099
-1.87251 -0.345965 1.21809
-1.8575 -0.401474 1.22491
2.37041 -19.5714 -9.94832
-7.52206 -8.88074 0.460377
8.08091 -8.86699 -10.5465
8.32432 -8.69088 -10.5775
8.27585 -8.34973 -9.95616
7.01066 -12.0426 -11.4901
8.58852 -9.04815 -9.82129
7.91121 -9.00476 -9.20353
5.89003 -12.878 -10.7948
9.51533 -8.91545 -9.83346
6.18928 -14.1805 -11.6453
8.35681 -8.75047 -9.0957
8.08524 -9.24438 -9.18226
7.35044 -9.31797 -8.84053
5.95343 -14.2462 -11.2629
7.78393 -9.38328 -8.7955
7.921 -9.19099 -8.73851
7.18485 -10.6605 -9.15099
6.87581 -11.1595 -9.29016
10.1614 -9.29071 -9.66813
6.59328 -11.2632 -8.93261
8.1003 -8.69871 -7.91372
7.42382 -9.35887 -7.93683
8.59077 -8.75623 -8.1523
7.79129 -9.55828 -8.09955
6.5443 -12.8807 -9.43194
8.00402 -9.26114 -7.98192
5.02414 -16.0917 -10.8411
-0.480843 13.8826 -8.8828
7.79515 -9.32354 -7.79147
7.40489 -10.9639 -8.42176
8.45361 -8.64255 -7.70079
11.0027 -9.73225 -9.31542
9.07218 -8.89877 -7.96862
11.9209 -10.1646 -9.81598
8.1472 -8.61368 -7.29288
4.04982 -16.8547 -10.6231
4.26881 -15.4316 -9.82953
7.91816 -9.44527 -7.38472
3.96275 -15.6492 -9.62539
11.628 -9.95395 -9.16554
6.92919 -11.1786 -7.80739
7.83434 -8.88855 -7.01761
5.53059 -14.0976 -8.94525
6.54688 -12.8148 -8.41948
8.4372 -8.67061 -7.04912
9.79238 -9.17822 -7.82432
2.80949 -11.8627 -6.9862
5.54085 -14.0471 -8.5471
9.70106 -9.2054 -7.55844
6.67843 -11.1681 -7.32507
3.33434 -20.568 -11.6781
8.96672 -9.02655 -7.13103
12.3582 -10.3674 -9.03499
6.8862 -11.1035 -7.27696
4.7221 -14.7207 -8.5417
6.28274 -12.7397 -7.81196
0.888235 18.639 -10.1605
14.8445 7.84496 -9.12579
4.23874 -14.3479 -8.07815
14.9717 -11.8464 -10.2889
15.2075 7.55781 -9.04874
14.2238 7.83789 -8.63234
4.7989 -14.9389 -8.3354
12.242 -10.2826 -8.41162
1.80803 -20.3441 -10.5083
11.5618 -9.97709 -7.82224
2.07586 -20.0942 -10.2513
14.1901 -11.2628 -9.16132
-0.00456283 14.2476 -7.15234
-7.111 14.7702 -8.21097
10.7231 -9.71649 -7.26952
7.59182 -9.52119 -6.06556
17.9495 5.58631 -9.17237
-8.27585 15.6792 -8.5643
11.8013 -9.91075 -7.45746
10.6213 -9.69996 -6.9056
15.0329 -11.5244 -9.1343
17.0883 16.1908 -11.1887
7.57385 -11.1923 -6.43672
15.2515 7.53642 -7.98484
14.1397 -11.1955 -8.42748
-11.571 16.5642 -9.25331
16.1191 -12.2128 -9.23682
9.8519 -2.47024 -4.66614
-9.03592 -1.64273 -4.176
19.2464 18.575 -12.0747
3.9439 -9.16753 -4.52837
-9.9005 16.1665 -8.50915
-5.28897 4.39734 -3.09153
6.94166 -11.4258 -6.01667
9.5302 -9.18442 -5.83635
16.2846 7.42931 -7.89924
-6.44649 14.6299 -6.97878
1.50376 -18.7092 -8.11763
-10.8134 16.4473 -8.47095
9.65627 -3.39662 -4.3847
7.10196 -11.1764 -5.59606
16.0982 -12.1681 -8.44525
14.8836 7.86851 -7.06429
19.3024 20.086 -11.6479
1.0132 -22.2962 -9.29341
-4.43289 13.5408 -5.86773
-9.84373 -1.10104 -4.10466
14.3109 7.90283 -6.67762
21.1593 23.0199 -12.751
-12.8888 2.41533 -5.34104
15.3597 7.29829 -6.88005
-5.08236 13.9132 -5.954
3.66829 -8.8786 -3.82255
12.5633 -10.4107 -6.39052
14.1724 -11.1899 -7.0553
19.9157 22.294 -11.6019
19.1473 5.90462 -7.77162
1.54569 19.4579 -7.57156
-8.44853 15.2168 -6.7063
11.5515 -10.1842 -5.92222
19.8837 23.0569 -11.7338
0.676519 15.4451 -5.92257
-1.64305 12.5529 -4.86901
2.72285 -12.2714 -4.82212
-8.70155 -1.24281 -3.34072
0.696118 -23.1681 -8.74845
15.4597 -11.8471 -7.34378
9.56422 -3.48993 -3.84081
-14.0703 17.3423 -8.32034
-7.83817 -3.48189 -3.14561
1.09302 -10.4075 -3.84927
7.1158 -11.3744 -4.90487
14.428 8.05667 -5.96847
-8.2348 -2.82732 -3.13069
0.784801 15.372 -5.49056
-3.83925 12.9665 -4.78099
5.80461 -11.1128 -4.41065
16.1326 -12.1916 -7.16035
19.4342 6.00249 -7.15776
2.15746 21.1568 -7.46346
22.5391 27.2516 -12.2967
-14.3157 17.669 -7.80289
3.00203 -13.4618 -4.74564
-8.57181 15.4794 -6.04371
18.8881 -13.3778 -7.93114
-4.8837 14.0174 -5.04457
1.34149 -21.8212 -7.24656
1.7746 19.8984 -6.60306
1.44891 -10.3071 -3.4399
40.8289 -20.8705 -15.0448
-3.2325 -23.8508 -7.76624
6.23263 -10.1491 -3.81128
17.933 -12.6621 -7.02959
2.14019 20.9934 -6.71956
-12.845 17.1461 -6.75237
1.42355 -22.1782 -6.92681
-4.16534 14.2396 -4.60773
-10.5357 15.9609 -5.79365
-2.61187 -26.6371 -8.13632
3.09106 -9.54841 -3.04916
0.778997 -23.5799 -7.09781
19.5745 -13.8939 -7.12102
17.9054 5.66475 -5.5123
-7.59445 14.6972 -4.81355
4.27495 -10.6047 -3.32183
3.66471 -10.6927 -3.2157
4.29678 -11.0848 -3.33584
-12.7769 17.0763 -5.93048
-8.92088 15.2473 -4.80345
-13.0637 1.95827 -3.6217
-16.2139 18.6272 -6.70373
27.1341 -17.8623 -8.80012
-3.67381 -26.2182 -7.10614
3.81856 -9.22938 -2.67151
-9.41561 15.649 -4.85911
49.438 -14.4347 -13.6551
10.6727 -9.5188 -3.78472
-6.18325 14.3107 -4.06982
-13.8369 17.3469 -5.82105
-7.43845 -35.2149 -9.38084
5.01395 -9.6779 -2.82025
6.63867 -10.6232 -3.23073
-6.90529 14.6515 -4.11466
-10.1372 15.7869 -4.79177
-9.13938 -36.2294 -9.29778
-8.30477 -35.863 -8.99537
11.0962 -9.78164 -3.63651
-7.64262 14.8295 -4.04325
-11.2493 16.3493 -4.80226
14.8633 7.85152 -3.99188
4.0861 -9.34074 -2.41218
15.4744 7.6641 -4.07165
3.78426 -8.99622 -2.29343
-6.12048 -30.5127 -7.21068
5.69079 -9.99644 -2.66516
46.6694 -11.2939 -11.1591
-12.2839 16.7313 -4.77621
15.1241 7.74587 -3.84642
45.6154 -9.86794 -10.5715
-9.38325 15.628 -4.07822
-32.3354 -79.4584 -18.6419
3.76173 -9.36945 -2.19558
44.7404 -11.4777 -10.0801
15.3888 7.63463 -3.68063
-10.1934 15.9103 -4.04567
-20.7713 -32.6553 -8.31662
-17.2424 -53.8784 -12.1931
4.88134 -9.87217 -2.37498
46.9954 -11.0039 -10.3259
-14.1639 17.5479 -4.74318
-30.9567 -22.8489 -8.15608
43.4134 -14.5257 -9.68344
15.1133 7.9864 -3.56695
-33.6378 22.7475 -8.30247
-7.75147 -31.7115 -6.61535
4.01711 -11.692 -2.48381
46.4748 -10.0274 -9.6694
11.9564 -9.89707 -3.11206
44.7683 -11.5249 -9.21102
-25.7901 19.4617 -6.41216
6.22979 -10.4267 -2.41726
47.972 -11.2182 -9.62134
-12.252 16.7164 -4.00395
-25.6411 20.0944 -6.32936
16.4225 12.4227 -3.93847
-6.56632 14.4514 -3.04506
-31.8005 -23.0016 -7.51277
-30.3645 -23.7775 -7.41227
-33.8589 22.5621 -7.66097
-32.3315 -21.3279 -7.31995
18.3486 5.76876 -3.5915
-32.8697 -19.8325 -7.16972
-13.8204 -39.8483 -7.86111
3.82617 -9.96443 -2.00874
-21.9359 -54.6153 -10.9507
-15.4156 -41.5328 -8.10686
4.02735 -9.75996 -1.90359
13.279 -10.3761 -3.0385
47.3967 -10.5472 -8.72105
-14.1123 17.5026 -4.01619
-25.7737 20.2145 -5.7822
15.3595 8.13086 -3.02881
-29.0568 -25.321 -6.71832
44.6284 -11.4316 -7.90873
-7.58296 14.6062 -2.78616
-9.27282 17.0757 -3.28072
46.6219 -10.975 -8.09837
-29.2782 21.3261 -6.0975
-29.1354 -22.4152 -6.14451
-19.9112 19.0383 -4.58246
-30.7727 21.7325 -6.28425
16.2399 -12.1169 -3.31955
-9.89018 15.701 -2.95087
-40.9317 24.0856 -7.53425
-30.4209 -22.8533 -6.09164
-32.1782 -22.1954 -6.15712
3.48334 -9.63242 -1.60104
-22.7379 19.4237 -4.6178
17.2767 -12.2137 -3.27655
-10.6965 16.0083 -2.92393
48.1382 -11.282 -7.50364
-20.7841 -48.1669 -7.92949
-28.1042 21.0776 -5.25225
-36.3872 22.6884 -6.36443
-30.4174 -23.6111 -5.74501
46.6035 -9.98694 -7.09612
-32.4015 -23.4331 -5.843
-46.8564 26.1621 -7.71609
-34.1186 -22.7575 -5.90363
6.88208 -13.2062 -2.16113
-34.8384 -20.2483 -5.703
-6.59208 14.5326 -2.2145
-12.5527 16.945 -2.93321
-30.5945 22.0268 -5.26902
-26.2725 -22.5305 -4.77266
-22.3373 -49.7473 -7.52175
-14.6884 -42.9415 -6.24414
38.0806 -12.6641 -5.50296
-22.1711 19.4831 -3.92686
-31.0267 -23.2354 -5.06085
-29.4448 -24.1556 -5.03556
-32.5913 -22.4457 -5.06918
7.54153 -9.55208 -1.57323
44.6944 -11.4409 -5.91917
-31.8778 21.6923 -4.90206
-28.8812 -15.4112 -4.17296
6.09824 -7.89762 -1.27428
46.7917 -10.9981 -6.09326
-29.5927 21.7491 -4.58253
14.7833 -11.5175 -2.30177
-28.587 21.5311 -4.32916
-31.0155 21.9253 -4.57299
-9.89869 15.7435 -2.14779
-30.3605 -21.8357 -4.39991
-20.8465 -50.1855 -6.32342
13.2148 -10.688 -1.98909
37.1222 -12.2669 -4.52318
6.44265 -10.5062 -1.41596
11.3626 -9.8464 -1.69359
16.8008 -12.509 -2.35967
-10.5918 15.8819 -2.11304
6.90666 -12.8681 -1.59947
11.7809 -9.83833 -1.69938
44.5253 -11.4178 -5.04588
-36.9879 23.0626 -4.67833
46.8635 -10.9508 -5.18114
15.2098 -11.6794 -2.03961
-12.4033 16.7572 -2.14091
15.0397 7.9605 -1.70202
14.2675 -11.2553 -1.8148
-13.4132 17.155 -2.11177
6.5434 -12.5394 -1.36072
9.5261 -9.03588 -1.26878
17.3946 -12.7191 -2.10242
-28.0724 -13.4144 -2.93102
-14.3452 17.5666 -2.11394
-32.8289 -63.9575 -6.69229
-32.7275 -20.479 -3.41838
16.4821 -12.3506 -1.85283
40.0457 -13.3247 -3.77657
11.2838 -10.0304 -1.24732
44.9761 -11.4955 -3.87118
-14.9803 -38.9839 -3.35487
-35.0648 -68.565 -5.9987
18.0294 -13.1381 -1.76124
-28.761 21.7674 -2.75933
7.5453 -9.2947 -0.926389
-31.2692 22.1348 -2.8464
-15.389 -38.0702 -3.06903
-32.8181 -61.7561 -4.97304
-31.6079 -63.3059 -4.84666
12.788 -10.6424 -1.11951
17.4502 -12.7097 -1.45885
-37.3945 23.2796 -2.88081
45.26 -11.5878 -3.0662
-27.889 -13.1141 -1.84557
-35.4513 -68.4914 -4.66953
14.7905 -11.5306 -1.12964
32.4472 -21.3748 -2.12212
32.3736 -20.4038 -2.09056
15.627 7.71794 -0.905492
15.0549 7.98311 -0.877371
-12.3202 16.8129 -1.05798
-22.4482 -49.5371 -2.7934
-12.5734 -34.2232 -1.8068
-26.3918 -15.2425 -1.44626
-37.0632 -69.8521 -3.86001
9.78746 -9.21798 -0.672298
13.6932 -10.8896 -0.859009
16.3136 10.3781 -0.914856
16.6483 11.669 -0.948123
6.99206 -12.8244 -0.69409
-19.69 -5.80987 -0.881616
-27.466 -48.9479 -2.47522
10.4771 -14.1449 -0.718936
18.4856 -13.3309 -0.930966
44.4119 -11.3447 -1.82365
-9.24559 -12.2284 -0.591275
46.0591 -10.7857 -1.85972
23.2878 27.9974 -1.24513
-31.2223 21.3437 -1.31189
-35.1612 -19.7169 -1.3119
-16.7926 -41.852 -1.44772
16.8427 -12.5656 -0.685259
18.2606 -12.8512 -0.699778
14.5964 3.95371 -0.446768
-23.3006 -53.5426 -1.74916
-21.8626 19.4754 -0.837401
-11.4503 -34.7209 -0.982035
44.8317 -9.52376 -1.2813
-39.7726 24.7392 -1.26767
-51.5426 18.5342 -1.3135
-22.2052 -37.0299 -0.940792
45.5977 -10.5884 -1.00649
-29.559 22.3395 -0.741833
-29.5261 9.39159 -0.648706
34.9825 61.2504 -1.302
-28.9164 21.3415 -0.689586
13.2001 -10.8159 -0.295482
-33.4071 -20.79 -0.609332
-27.6021 -55.5109 -0.920246
17.8892 -12.9013 -0.320115
-11.6924 -35.3496 -0.47896
-13.6727 17.3571 -0.226236
-18.5289 -42.5837 -0.502745
31.4323 -19.6872 -0.333745
-21.8585 19.5028 -0.200039
-9.76759 -12.5363 -0.047734
7.15971 -11.9433 -0.0239285
14.8757 7.77927 -0.000338602
-34.3527 -21.2126 0.215926
-22.4276 -38.3321 0.329401
-50.2961 27.5528 0.58433
6.82907 -12.1168 0.144168
8.10942 -9.22043 0.12277
-39.5732 -21.0392 0.493464
-10.806 -30.6026 0.363852
11.2673 -9.82191 0.196066
-22.251 19.0126 0.383836
-12.0785 -18.7406 0.32498
-29.8777 21.2611 0.651686
-33.9856 -22.7845 0.733281
-33.459 -24.7177 0.727009
10.7894 -9.6961 0.236791
7.89701 -9.73437 0.269391
7.99807 -9.33526 0.26528
-66.4728 23.0184 1.64255
18.5305 -13.4515 0.557808
-28.0692 -8.43268 0.784516
-26.8342 21.0436 0.980714
11.7639 -10.079 0.422613
17.5613 -7.61237 0.545062
-24.0114 20.3648 0.93588
-7.83238 -9.18469 0.384386
13.025 14.1613 0.683366
-27.0295 -19.2298 1.14636
6.29449 -12.9695 0.507101
9.01902 -8.87499 0.432398
25.0706 -4.44265 0.851546
19.1051 18.2452 0.952901
14.5092 25.1173 1.08962
-53.9939 17.7478 2.04462
24.8724 -4.83171 0.959904
-24.4845 20.0012 1.19352
9.49827 -9.03599 0.506857
22.8053 -3.14195 0.869639
12.5257 14.5075 0.783837
15.2782 19.7412 1.0213
6.66335 -12.6338 0.586175
19.5439 45.1741 2.05336
7.77712 -11.2071 0.575023
-7.50085 -7.38367 0.465134
-8.1814 -11.3192 0.624529
-28.8776 -11.4317 1.47959
16.7159 10.8516 0.992652
-7.67687 -7.14297 0.502278
15.9586 24.7935 1.5227
-6.90544 -8.12915 0.586548
15.0627 20.6264 1.39894
-25.1318 19.3524 1.75214
15.0486 24.5081 1.66468
-7.06839 -9.11181 0.659287
6.99426 -13.8606 0.890867
10.1222 12.7324 0.962278
15.2099 20.2083 1.58519
15.7806 28.0859 1.98307
11.0701 31.0468 2.0962
-7.23699 -9.87761 0.783763
9.94507 22.6644 1.66112
11.619 10.2206 1.10266
11.6901 12.3621 1.20072
14.0674 16.2552 1.53804
8.35182 -12.8742 1.08311
10.9271 9.12148 1.04698
13.2019 14.8074 1.48409
-14.1262 8.33045 1.23893
-11.0308 2.07806 0.848493
12.775 16.6296 1.62719
11.9621 19.0643 1.74766
10.1906 -6.97399 0.964152
-7.61795 -8.0587 0.88738
12.9915 11.7601 1.42913
12.0773 11.8153 1.40231
-6.97334 -6.13552 0.754783
-7.02057 -6.86503 0.81458
-6.98881 -8.85021 0.971796
11.6884 12.201 1.45682
9.15853 -7.19713 1.01407
10.7978 9.51198 1.308
-11.2909 2.89122 1.07031
-7.57655 -7.05695 0.930332
11.81 9.11276 1.42824
9.41572 13.3151 1.566
7.36529 13.5528 1.51204
8.60655 13.3817 1.59571
-6.71013 -6.68663 0.941711
7.92156 -6.58461 1.00816
9.86937 12.3619 1.58539
10.0916 10.3087 1.48991
-6.85258 -5.37923 0.906528
9.74969 9.28409 1.43524
8.34184 11.3414 1.47588
6.92577 13.4295 1.61026
9.71156 8.47453 1.36429
9.32713 10.3886 1.52095
5.83114 12.8452 1.52757
-6.35148 -7.48024 1.06066
6.81995 11.6077 1.48154
5.39145 13.5097 1.60544
-6.80071 -3.96635 0.869186
-6.66588 -6.0498 0.991824
3.95385 -7.83573 0.971325
5.46827 -6.12635 0.92254
9.46286 7.61795 1.36535
9.19623 9.78688 1.51448
8.06412 11.486 1.569
6.89654 10.8842 1.46963
-6.85187 -4.55114 0.932757
4.74481 -7.7415 1.04889
-10.4881 7.03084 1.46416
-7.06217 -2.12477 0.857851
9.09501 6.14407 1.30582
6.02287 12.2929 1.61833
5.09258 11.7777 1.51401
4.79259 -5.88657 0.893364
4.14833 -7.95355 1.09043
8.39228 3.8872 1.15927
11.0628 5.51804 1.51942
4.68614 13.0396 1.72571
-6.13456 -5.3672 0.999707
-9.07819 1.29403 1.14223
8.34578 7.63319 1.43152
-6.41126 -5.29864 1.05198
7.88255 8.27926 1.46984
-6.86148 -3.55977 1.00065
4.99014 -5.99289 1.00671
5.04179 -5.44702 0.9677
8.48358 6.97996 1.45536
8.03046 7.94083 1.50275
-7.17497 -1.71715 0.993622
-7.00495 -2.20122 0.983552
-6.463 -4.35764 1.03536
4.8522 -6.11627 1.03881
8.46113 6.41271 1.44413
-6.82366 -4.20188 1.07963
-6.02947 -4.43033 1.00615
4.96864 -5.55867 1.0237
7.4445 -3.53589 1.14706
8.41801 4.27389 1.34099
8.38372 4.60699 1.35745
-6.9147 -2.89655 1.07164
7.51328 -3.74987 1.19901
7.04498 -3.06732 1.08388
4.96149 -5.81276 1.10307
8.22993 -1.74139 1.21826
-6.93348 -3.24572 1.13519
7.4441 5.6094 1.4001
5.81303 7.50537 1.43425
8.03347 3.93655 1.36704
7.9562 4.21945 1.36932
5.49428 7.88977 1.46219
5.14726 8.79282 1.54001
3.5667 9.75725 1.56841
-6.98257 -2.81636 1.14754
7.71439 -2.8064 1.25743
7.88009 -2.24563 1.26451
7.82913 -2.02542 1.24958
7.50762 4.22874 1.38955
7.11274 4.78282 1.40863
6.78491 4.94526 1.39627
5.42964 6.50677 1.41071
-7.17819 -1.35558 1.20908
5.0432 7.40659 1.49606
4.7727 7.30515 1.46543
-7.19165 -0.801102 1.21112
2.87688 -5.95221 1.11434
6.73671 4.11097 1.34858
6.55059 5.26209 1.42716
3.88602 8.04291 1.50007
-6.35989 -2.29375 1.14668
-6.26666 -2.674 1.16164
3.78328 -5.2553 1.10245
-6.94911 -1.78947 1.25352
4.24642 -4.65428 1.10721
6.69972 3.52803 1.36763
5.09718 5.63824 1.38955
3.64342 -5.37699 1.18276
3.39699 6.81257 1.42019
6.52717 3.06297 1.36997
6.45765 2.72685 1.33849
-1.64557 -5.69501 1.13805
-2.16579 -5.74948 1.1979
6.28039 2.38779 1.34321
3.94791 -4.59065 1.20434
-2.94608 5.49768 1.32764
-3.56869 5.13246 1.36034
4.2152 -2.93206 1.20709
-4.23548 3.88967 1.39944
4.59626 -2.19159 1.23602
4.48753 -1.27172 1.15997
3.71193 -2.93807 1.23342
3.68115 -2.58638 1.19384
3.42667 -2.97927 1.22571
-2.32059 -3.6155 1.20626
-2.49911 -2.92665 1.19655
1.86656 -2.48435 1.1288
1.92851 -2.64262 1.19358
-2.0289 2.7825 1.30284
-2.07334 -1.46469 1.19675
-1.82675 -1.83206 1.30258
-1.9779 -1.17257 1.20919
6.93446 -6.94454 -8.91678
9.75905 -9.1276 -9.45692
9.31635 -8.99895 -7.71769
2.44004 -19.9539 -10.676
3.69336 -9.35027 -4.53224
27.8446 34.5987 -14.9235
2.091 20.8203 -6.2083
-21.4069 -29.8196 -6.85522
-27.2898 -25.381 -5.74632
9.62 -8.87539 -1.63581
8.85908 -8.72931 -1.2468
9.01346 -8.89002 -0.938258
19.6148 -13.8883 -1.31364
45.2939 -12.1659 -2.42764
-30.5525 -12.9215 0.334904
10.1916 7.01446 1.3135
-3.44305 5.23739 1.34408
8.02743 -8.28623 -10.3489
7.88849 -8.3136 -10.0878
8.42985 -8.51925 -9.92438
6.87663 -11.8683 -11.2675
8.02421 -8.28498 -9.12282
8.06539 -8.76815 -9.15459
6.24323 -14.206 -11.6733
5.89634 -14.2375 -11.282
9.15352 -8.89726 -9.35709
7.67927 -9.26683 -8.72169
7.9094 -9.16938 -8.65588
7.26305 -10.7589 -9.23537
10.3225 -9.39644 -9.78368
6.46696 -11.143 -8.80123
8.23394 -9.1419 -8.24897
7.3879 -9.38887 -7.97303
8.01526 -9.2666 -8.05411
5.04492 -15.987 -10.8134
-0.531063 14.2879 -9.17792
7.3573 -10.8654 -8.41604
7.66195 -9.19888 -7.65884
11.1045 -9.90736 -9.44662
7.10534 -11.0013 -8.16134
8.25348 -8.66352 -7.43269
0.102023 14.2958 -8.71246
7.81423 -8.78724 -7.08399
11.6161 -9.86097 -9.19334
9.05899 -8.98612 -7.53991
6.62464 -12.9308 -8.56924
5.54556 -14.0499 -8.87533
7.10532 -11.1775 -7.60121
5.13704 -12.8901 -7.79084
3.16563 -19.2987 -10.9651
6.6658 -11.1832 -7.29374
7.91477 -9.12194 -6.77139
12.3385 -10.3343 -8.99886
-0.497458 14.3565 -7.8858
9.79807 -9.59749 -7.51981
13.4606 -10.7902 -9.30361
15.3338 10.5039 -9.99047
15.2733 7.50525 -9.098
14.0677 7.75719 -8.50052
11.5484 -9.96546 -7.83646
-0.0736368 15.2799 -7.73245
2.35864 -19.3768 -9.8611
10.7929 -9.6747 -7.29067
7.40844 -9.356 -5.98585
14.3328 -11.3675 -9.20949
18.3947 -13.152 -10.9996
18.9446 5.84985 -9.63682
2.64727 -19.3885 -9.50399
13.0171 -10.7524 -8.16197
15.6685 -11.9289 -9.55121
7.37585 -10.8712 -6.32566
15.2457 7.47419 -7.90549
7.15861 -11.0101 -6.11952
6.28335 -10.7305 -5.75738
10.0777 -2.52888 -4.77761
17.71 -12.9393 -10.0758
-11.4088 16.3703 -9.08913
3.56349 -9.08531 -4.42025
-9.88795 16.1577 -8.50721
16.2563 7.35327 -7.98721
-10.8645 16.5224 -8.52282
-6.94544 6.73429 -4.16399
-6.37703 6.35939 -3.83124
1.20514 -15.4735 -6.59676
20.5946 21.341 -12.4545
16.5172 -12.4822 -8.70356
15.408 7.57271 -7.17793
-9.97002 -1.08797 -4.16428
20.6231 22.4527 -12.5268
14.3275 7.91708 -6.66644
16.6885 7.51741 -7.35664
15.258 7.852 -6.88688
1.48985 -17.872 -7.00309
19.0152 5.86738 -7.70449
20.0918 22.4264 -11.6534
0.762899 16.3689 -6.2988
-9.15627 -1.328 -3.58422
0.702838 -23.5994 -8.98229
17.2359 -12.7478 -8.01725
14.3945 8.03862 -5.9633
0.531141 -22.0494 -7.7766
-3.93763 13.2212 -4.83651
-10.2259 15.7107 -6.5564
-0.824483 -22.0247 -7.75255
-14.4109 17.7806 -7.91065
-8.57511 15.4838 -6.06903
-4.86587 13.8443 -4.94271
1.27888 17.8452 -5.96584
-5.16536 13.7499 -4.83751
40.31 -20.7115 -14.958
12.6695 -10.4794 -5.2976
8.10353 -9.28354 -3.94748
18.4178 17.0409 -7.77842
7.4746 -8.8774 -3.59163
-4.07356 13.6936 -4.29392
11.7028 -9.92524 -4.63073
15.4092 9.69912 -5.21765
13.8897 -10.8456 -5.05535
-5.28538 14.0799 -4.22818
-12.8851 17.2903 -6.0812
16.0071 10.8202 -5.32516
-9.24169 15.5256 -4.79805
-25.8315 20.006 -8.52911
-22.8282 19.1753 -7.7093
-6.84113 14.5161 -4.09895
-7.60728 14.7554 -4.04434
-24.8618 19.6196 -7.7151
-3.17358 12.9593 -3.19118
-11.2493 16.3194 -4.73374
3.13965 -9.63888 -2.39648
15.0323 8.01907 -4.02436
-31.8574 -25.01 -9.49906
5.47976 -11.8129 -3.0666
51.8329 -12.5011 -12.3903
-6.67534 -32.6686 -7.66837
-9.31581 15.621 -4.15405
15.3354 7.51459 -3.87107
-28.6612 20.8374 -7.86443
-11.1849 -40.0375 -9.13606
3.77524 -9.53685 -2.25794
44.373 -11.2434 -9.88767
-33.3674 -21.9154 -8.5095
-14.1508 17.5583 -4.68028
14.9057 7.96168 -3.51204
-30.6242 -23.1731 -7.90663
9.4151 -9.32039 -2.74682
45.1817 -11.4863 -9.56191
48.1466 -10.2109 -9.93216
-27.1199 20.355 -6.68637
-20.0261 -32.5541 -7.51585
5.60431 -10.5421 -2.2861
-31.7914 -22.9688 -7.41636
-33.189 -21.9002 -7.42648
19.1504 5.94341 -3.69268
-14.118 17.5493 -4.0884
13.8875 -10.8141 -3.14566
15.6032 7.65098 -3.06396
-4.99852 13.3324 -2.50175
-17.7142 18.9537 -4.58463
-19.8365 -47.2328 -8.93695
-21.1009 -34.0401 -6.91334
-32.1668 21.7927 -6.58933
9.24642 -9.0946 -2.20059
-29.5548 21.529 -5.94952
-30.7295 -23.0887 -6.1386
-18.1658 -48.3521 -8.25313
44.5 -11.2986 -7.32261
-41.757 24.6631 -7.6411
-35.4532 -22.1961 -6.48664
6.55077 -11.0563 -2.0067
-28.0006 -24.9603 -5.66774
-29.3209 -24.0577 -5.68552
-18.4102 -45.3598 -7.27503
6.62058 -12.6799 -2.13486
-31.7244 -22.8157 -5.5934
-29.8146 -23.4702 -5.38511
-30.547 21.8699 -5.25356
-12.4542 16.8141 -2.84657
-31.469 -23.5269 -5.32052
-28.9239 -24.8838 -5.1796
-30.6119 -19.0377 -4.73391
-32.3454 -22.296 -5.18231
-31.7172 21.513 -4.829
-29.0311 21.6074 -4.42494
-38.4213 22.6945 -5.48456
13.1778 -10.6547 -1.98679
9.83887 -9.21206 -1.54973
10.6977 -9.35911 -1.56534
-12.4769 16.8694 -2.20921
-19.0538 -42.2003 -4.94831
15.4165 -11.855 -2.07556
-29.665 -23.4604 -3.83552
48.0065 -10.2031 -4.90559
17.5247 -12.7869 -2.135
44.2205 -11.8854 -4.31754
-29.6149 -60.7542 -5.99498
-22.2631 19.4799 -2.59206
-28.0917 -12.6069 -2.67542
7.06914 -10.8659 -1.138
17.4314 -12.5954 -1.86191
-28.0916 -25.064 -3.17621
9.9797 -9.06131 -1.11248
13.98 -11.1154 -1.43684
-32.5156 22.0444 -3.00481
-28.4711 21.3325 -2.63192
17.1209 -12.4886 -1.54825
-16.0023 -39.2364 -3.03904
7.44 -9.23025 -0.864253
-22.9905 -52.769 -3.96234
9.70053 -9.13764 -0.884311
9.80271 -4.7736 -0.688093
11.4894 -9.95439 -0.957316
-13.6914 -37.5914 -2.35514
15.5065 7.6168 -0.947518
14.9325 7.99511 -0.922406
11.9803 -10.1723 -0.811295
17.2918 -12.951 -1.0326
-11.9883 16.4223 -0.978547
-32.5241 -58.112 -3.19795
-24.5332 -49.1191 -2.63107
-23.9807 20.2737 -1.42442
-33.6948 -19.0131 -1.301
-16.6093 -41.109 -1.47794
-22.4263 -51.8647 -1.63378
-19.5937 -52.8529 -1.63391
15.8612 13.8386 -0.407882
11.8145 11.4946 -0.310643
25.1139 30.6653 -0.678984
13.4814 -11.0933 -0.321858
-20.0963 -44.1338 -0.79451
-19.0852 5.53171 -0.105092
-30.8502 -59.2138 -0.355009
31.0168 -19.5657 -0.242843
19.0595 -13.2443 -0.0245773
15.0707 7.79846 0.0335466
-50.5369 27.6704 0.361129
-30.5842 -12.8309 0.231184
6.66362 -12.4498 0.161504
11.5668 -10.1075 0.168008
-11.9527 -18.4601 0.291743
26.6822 -5.17869 0.770593
23.8532 48.8734 1.70456
-7.76706 -9.16437 0.415461
-29.6791 -14.1491 1.23825
17.1351 30.9196 1.52631
-10.5572 -16.4901 0.827805
15.3549 20.3773 1.16777
20.4234 39.9162 2.02596
17.9368 34.3903 1.81775
6.71347 -12.7117 0.678055
-6.89751 -8.38279 0.557733
16.3602 27.0595 1.69068
6.48542 -14.1261 0.805421
-6.70235 -4.52487 0.478243
-11.4822 -8.7654 0.855019
-7.44294 -10.2768 0.844477
11.1687 9.25295 1.03193
6.41065 -13.2981 1.03659
-7.11431 -6.30358 0.677138
7.19299 -10.9966 0.935847
13.423 20.9484 1.90683
-14.7052 8.21933 1.29421
11.103 -4.96627 0.924721
9.58792 -8.99846 1.04963
10.6475 12.8161 1.50237
6.55339 -6.23536 0.837842
11.2122 9.2666 1.36667
6.66303 13.8653 1.4673
4.7497 13.1431 1.36582
9.97115 12.519 1.61008
7.79234 10.6669 1.37755
6.80758 13.1933 1.58119
8.28584 -6.68774 1.11929
10.309 9.74955 1.5163
7.27848 10.9813 1.41847
8.94842 9.5088 1.47664
4.76499 -5.88273 0.852573
10.0198 5.52599 1.30695
7.19455 11.4271 1.57463
6.06946 10.9024 1.4787
-6.98824 -2.08591 0.846509
8.6043 8.74341 1.45457
-7.15108 -0.813116 0.860926
-6.84156 -3.94374 0.938623
4.57933 12.6482 1.63831
-6.99249 -2.31956 0.887513
-7.41204 -0.980894 0.919477
-9.08682 1.32909 1.14743
8.45879 7.72242 1.45467
4.86241 -5.28898 0.938291
7.88129 8.32167 1.50807
5.74725 -5.61951 1.03942
-7.22005 -4.48262 1.1469
7.30586 -3.89261 1.14829
7.50817 -3.56035 1.15887
7.51083 -3.28944 1.14516
8.22365 4.183 1.31852
7.46576 -3.72756 1.1918
8.42389 4.62809 1.37612
7.75293 -3.03799 1.20804
7.97169 -1.93159 1.17961
5.79012 7.4853 1.42773
5.23288 -5.63988 1.17821
-7.10275 -1.81914 1.14792
-7.14439 -1.32257 1.15512
6.17707 4.49272 1.26861
5.36465 6.44622 1.38921
-6.38337 -2.30447 1.13248
6.88205 4.22902 1.37446
-7.2914 -0.951406 1.24653
2.9961 -6.19053 1.15748
-6.92795 -1.75852 1.2559
4.0109 -5.12702 1.13254
-6.73806 -2.57098 1.27541
4.72076 -4.49207 1.15475
3.55954 -5.24732 1.16396
5.07231 5.61385 1.38278
-7.20807 -1.15111 1.3318
3.85771 -5.23951 1.21177
-7.01566 -0.804869 1.3391
6.37395 2.85162 1.34361
3.70096 -4.58223 1.1382
-2.24468 -5.36384 1.16808
4.97057 -6.47408 1.60768
3.81954 -4.43035 1.15767
4.16913 -4.33868 1.23234
-6.37076 1.46963 1.35579
-2.84699 4.76485 1.16229
-1.34052 -4.98129 1.1434
4.04526 -3.76656 1.22435
4.47169 -2.7628 1.21612
-4.41626 3.88688 1.36653
4.81118 -1.94355 1.24888
-2.69538 4.63115 1.26176
4.34967 -2.68347 1.2332
-1.01673 -4.21453 1.16655
-1.42785 -4.00768 1.18034
-2.14807 -3.81418 1.21571
4.02077 2.56975 1.34001
1.83948 -3.17402 1.21673
-2.0457 -2.43304 1.273
2.57528 -1.8152 1.32066
2.47164 -1.91477 1.32123
-2.17025 -1.77939 1.21305
2.35911 -1.2993 1.19516
-2.00602 -1.49031 1.20288
7.80043 -8.3492 -10.065
8.20758 -8.23274 -9.61142
6.78608 -11.8508 -11.1542
8.0592 -8.41474 -9.18841
8.10781 -8.98283 -9.15068
6.29571 -13.9867 -11.5367
9.10931 -8.94577 -9.36416
7.31577 -9.52161 -8.80464
7.42638 -10.9303 -9.39353
8.2277 -8.96065 -8.24903
8.99506 -9.00855 -8.44673
6.4222 -12.5832 -9.20144
5.25493 -16.1349 -10.996
7.3235 -10.6704 -8.33332
10.733 -9.75456 -9.30795
7.95075 -8.40782 -7.0588
0.102223 15.587 -9.39019
12.3106 -10.3999 -9.71803
8.3366 -9.21726 -7.42746
-0.330775 13.183 -7.67733
7.48928 -10.947 -7.30521
7.89139 -9.07598 -6.64582
5.89612 -12.7699 -7.66487
15.2618 10.3568 -9.96692
13.8998 -11.0671 -9.59504
14.3699 7.97247 -8.62975
0.287167 14.704 -7.71741
5.78992 -10.0956 -6.08864
10.7236 -9.72921 -7.29906
12.9388 -10.7984 -8.22164
15.6794 -11.8292 -9.55645
10.1276 -2.5477 -4.76165
16.3816 7.52077 -7.9805
9.68398 -3.48115 -4.56987
14.8942 8.08486 -7.39787
20.5758 21.058 -12.3813
1.25572 -16.7565 -7.06373
14.3819 -11.3746 -7.76048
15.8855 7.5478 -7.3751
9.75241 -3.29243 -4.28546
14.4023 8.02117 -6.62315
15.7829 8.10554 -7.06753
17.4933 16.3146 -9.54144
-9.33328 -1.35252 -3.71411
0.614236 -24.7399 -9.65553
0.869059 17.075 -6.65014
16.3117 -12.2482 -7.81312
15.3358 11.7818 -7.0793
10.6186 -9.59015 -5.18222
-0.363261 -22.845 -8.11235
-0.836438 -25.0787 -8.72984
-3.96666 13.3324 -4.80662
-13.2295 17.3111 -7.51135
1.40114 17.918 -5.95869
-5.0112 13.8011 -4.82811
7.47397 -8.5239 -3.71964
-18.2257 19.0286 -8.29703
-2.67765 -25.0582 -7.98925
-10.7052 16.4327 -6.14699
-4.07723 13.7475 -4.3755
3.87554 -12.7532 -4.0278
-5.30003 14.578 -4.49635
3.62204 -10.567 -3.23279
-3.62939 -25.8836 -7.06162
-22.4957 18.8209 -7.80381
3.25962 -10.516 -2.8962
5.11116 -9.81779 -2.86301
-25.8038 20.1469 -8.28378
-28.7021 20.9631 -9.02505
-29.4387 -41.5819 -12.3217
-9.21795 15.5591 -4.22153
-8.14114 -38.8691 -9.46968
-33.3291 -21.7931 -8.8864
-20.3707 19.3156 -6.15077
-13.5302 -38.4029 -8.89307
10.4736 -9.38653 -3.10116
-24.6601 -63.729 -14.2566
45.1092 -11.0656 -9.62729
-26.9361 19.9285 -6.46829
14.9946 8.16008 -3.22162
4.8058 -7.18225 -1.61346
-4.73576 12.9747 -2.51582
-30.7676 -23.0904 -6.2709
6.89049 -13.0424 -2.28786
-20.5848 18.3983 -4.00276
-30.056 21.4189 -5.22905
-19.0037 -46.7417 -7.05274
49.3873 -10.7193 -7.08511
-30.9609 -59.5851 -8.52021
-29.0976 21.7704 -4.39299
-39.5566 -77.7836 -9.41629
-33.2831 -21.6635 -4.14373
15.0188 8.19594 -1.70594
-21.0229 -56.8043 -5.38232
-22.3826 19.5849 -2.38071
-29.2754 22.0142 -2.6237
45.1351 -11.0746 -3.43326
-21.0077 -47.7036 -3.63608
8.16656 -11.5156 -0.925907
7.29375 -9.18295 -0.7633
17.3113 -12.6651 -1.40356
15.2014 8.26587 -1.02549
30.567 -19.7012 -1.99218
15.3026 7.85991 -0.601312
-21.3792 -47.6481 -1.20365
-16.7578 -45.6718 -1.10713
-22.0301 19.5734 -0.521958
8.97085 -12.7477 -0.329994
-34.7412 -20.5494 -0.331818
-36.765 -24.2409 -0.246923
9.69745 -9.11879 -0.108615
20.2764 -13.9194 -0.188978
15.9292 8.18407 0.135989
-30.2239 21.3807 0.356989
25.8232 -5.07328 0.896235
-6.3211 13.97 0.606598
16.5478 10.4814 0.890456
11.1274 13.272 0.739695
14.627 19.4195 1.10845
6.86556 -13.0064 0.662412
7.58905 -10.9132 0.57625
6.38042 -10.4863 0.599731
16.7851 27.1024 1.67734
-7.23423 -7.95708 0.544841
-6.59796 -7.95514 0.532728
10.457 -9.55586 0.769733
9.46973 18.8887 1.4119
-7.23604 -10.1217 0.891689
10.7062 -4.82644 0.840479
-14.091 7.764 1.24955
6.78266 -11.8752 1.07207
-6.17 -4.23983 0.672866
-7.36249 -7.80641 0.921915
6.6473 13.7718 1.3914
9.80838 9.27688 1.28433
7.31593 11.1386 1.39081
7.60195 13.0764 1.55858
8.15721 -6.57547 1.10941
-8.94985 1.35395 1.10146
7.04045 -4.53868 0.998194
7.47387 11.9825 1.73032
5.54854 -5.51742 0.987802
-7.33236 -0.911317 0.935615
7.2502 5.70965 1.23439
4.99031 -5.53076 0.992136
9.33784 -3.14498 1.3181
-6.90067 -4.2656 1.11707
7.16451 -4.35781 1.14326
7.68689 -3.57361 1.16313
-6.94708 -1.71905 1.02769
8.86919 -2.09777 1.27551
7.68122 4.99171 1.30853
-6.39853 -2.14482 0.992416
5.22206 -5.50552 1.15929
6.02844 5.16569 1.27071
7.94814 -2.17692 1.2917
3.86927 -6.20793 1.18251
4.7103 7.20819 1.42957
-7.3241 -0.917862 1.21458
-6.33701 -2.30773 1.12417
-6.48992 -2.70146 1.1856
6.9697 4.29362 1.39796
4.2138 -4.6478 1.11577
-7.15722 -1.13931 1.34004
3.58991 -5.29738 1.1946
4.1603 -5.62347 1.34151
3.73311 -4.33427 1.16409
3.92678 -3.61183 1.17022
4.4838 3.79662 1.36717
3.65122 -2.86265 1.20092
-2.19906 -3.87196 1.20916
4.06507 2.55545 1.36057
-2.37673 -2.98199 1.1761
-2.26656 -2.531 1.10818
17.7827 -12.9823 -10.0721
12.2401 -10.2059 -7.04565
0.530215 -21.746 -7.65596
23.0142 29.0459 -12.4412
-32.4991 -24.6382 -8.62707
45.7586 -11.2619 -7.54902
