ply
format ascii 1.0 
element vertex 1872
comment /media/mkaihara/Seagate Backup Plus Drive/model_iterations/model_153.ply
property float32 x 
property float32 y 
property float32 z 
end_header 
14.7606 7.71205 -1.67278
-12.8818 17.2272 -2.11437
-21.1041 -53.5075 -5.57371
-34.1268 -68.9397 -7.36465
-23.8193 20.8363 -2.99017
-31.3752 -25.7029 -3.85553
-31.3568 -26.0466 -3.8852
-22.5448 -58.9926 -5.9549
-14.322 18.3266 -2.17765
-31.6323 -24.7476 -3.7483
-16.1566 -44.0065 -4.36714
-14.3562 -44.6208 -4.37229
9.77166 -9.05715 -1.23833
-34.64 -67.4766 -6.98817
8.52635 -8.62319 -1.10131
16.3666 -12.1946 -1.8678
-15.2372 18.6915 -2.16387
-36.3296 -22.5963 -3.87171
-33.7883 23.8558 -3.64309
-31.4312 -25.3577 -3.56898
13.9434 -11.0899 -1.58197
-32.5268 -19.8213 -3.25004
10.9884 -9.64326 -1.24518
-27.15 22.0226 -2.93645
-11.6344 -36.2108 -3.21433
9.35313 -8.96811 -1.08821
-34.5244 23.7366 -3.48118
8.64816 -8.64974 -1.0049
16.6268 -12.126 -1.68155
-17.1965 -44.6847 -3.84823
-22.1043 -50.564 -4.32005
-15.6549 -38.6475 -3.30539
-13.6449 -38.2845 -3.22933
9.15784 -8.89961 -1.00355
11.2209 -9.7271 -1.16453
14.7506 -11.5375 -1.48307
-30.5146 23.2697 -2.9863
-29.5389 -13.7881 -2.53248
11.7856 -9.98447 -1.19759
-23.9522 -53.3442 -4.47914
12.6916 -10.5344 -1.24996
-43.0882 -81.7462 -6.68838
9.89811 -9.08432 -0.973939
10.8451 -9.68051 -1.01351
-33.6452 -20.8868 -2.73965
11.8786 -9.98333 -1.0747
14.5992 -11.4947 -1.29186
-15.9272 -40.2453 -2.94597
-15.5448 -41.1231 -3.0141
18.3995 -13.2972 -1.50761
-23.7147 20.7635 -2.09195
-25.8006 -59.5169 -4.29021
12.7866 -10.5184 -1.10721
-15.0652 -41.7956 -2.88768
15.1547 -11.4424 -1.23436
-33.8149 -68.4641 -4.79614
-15.5182 -48.0997 -3.14108
-33.4961 23.6626 -2.50975
-34.2544 -67.7395 -4.62101
-17.4607 -42.5327 -2.80389
30.4574 -20.1932 -2.22546
41.3989 -10.7958 -2.59801
36.0225 -8.68494 -2.24557
-15.5717 -41.8067 -2.69589
-27.4863 22.3075 -2.0068
-29.2668 -14.4088 -1.88507
-16.2962 -42.4539 -2.53694
16.7504 -12.4986 -1.17123
-27.4189 -16.4998 -1.7227
41.9723 -9.34923 -2.21202
-9.44042 -12.6139 -0.79988
-15.8757 -42.2502 -2.2487
5.66814 -12.3707 -0.676353
-14.4463 18.3134 -1.13747
-15.6817 -49.2894 -2.54091
14.7756 7.7517 -0.803547
-16.8137 -43.0973 -2.19922
-15.1285 -49.2026 -2.42953
18.5429 -13.1562 -1.09009
-17.8722 -51.83 -2.55812
36.3023 -8.91602 -1.75206
-29.167 -14.9145 -1.46579
-25.3468 -58.0793 -2.81103
-17.0117 -41.8567 -2.01188
9.61007 -9.06844 -0.589275
12.5213 -10.2771 -0.727291
43.5609 -9.96717 -1.98784
-14.5162 -44.1552 -1.979
-33.4187 23.6241 -1.70383
-55.0557 29.9004 -2.49818
-34.4881 23.7342 -1.53552
-19.5545 -51.1368 -2.05559
-35.08 -22.0905 -1.4819
9.69692 -9.02426 -0.487169
6.57074 -10.7745 -0.438065
-13.4563 -40.1146 -1.40119
7.40394 -12.9958 -0.511063
18.4395 -13.0602 -0.763558
-27.738 -60.7506 -2.19986
-13.7328 -38.96 -1.33905
20.7418 23.9224 -1.01598
-23.5359 20.8945 -0.990727
-21.6626 -55.4679 -1.84743
20.8122 -14.1925 -0.766158
-27.8948 -14.355 -0.950904
-13.4568 -43.0668 -1.34215
-24.5169 20.8318 -0.923529
-24.6302 -56.6837 -1.75886
-18.1964 -49.2481 -1.51525
-34.9281 -21.2818 -1.13129
-9.83706 -12.9062 -0.463535
-23.7997 -56.1261 -1.72159
17.8652 -13.3092 -0.567386
29.3182 48.9258 -1.47638
-30.6756 23.4049 -0.991319
-31.8578 23.3014 -0.975444
-27.4963 -13.2118 -0.747491
9.5188 -8.95756 -0.31648
-21.2533 -34.2327 -0.939946
-40.9091 14.1903 -0.945999
21.0105 -14.0583 -0.537078
18.2688 -13.1708 -0.422809
12.7305 -10.4585 -0.274644
-33.5928 10.6235 -0.581746
-28.5776 -13.6086 -0.501006
-37.6073 -21.4169 -0.657429
-18.697 -45.8342 -0.766544
-8.06996 16.9712 -0.255128
-33.0082 -24.6581 -0.571356
-34.3792 -23.4366 -0.532574
17.1473 -12.7935 -0.259778
18.0593 -13.0025 -0.282414
28.551 -17.6053 -0.448037
-22.2953 -57.1027 -0.744615
-30.8644 23.5311 -0.41318
-28.8766 -61.6163 -0.725491
-19.174 -43.978 -0.514255
-54.7206 29.9884 -0.518021
-34.9822 -61.71 -0.654552
-20.8338 -54.6389 -0.556402
36.9825 -8.93446 -0.350033
-14.5597 18.4799 -0.16481
-37.3618 -83.2012 -0.625653
-18.4737 -44.8072 -0.330783
9.52593 -8.96356 -0.0408153
14.6742 7.72495 -0.0279834
-29.7172 -13.2569 -0.0587538
-11.7688 -17.135 0.0251583
-12.996 -19.561 0.0445002
-19.2387 -44.1619 0.198023
9.39323 -8.94307 0.0590349
-33.4465 23.67 0.213848
-22.6966 -57.2988 0.297237
-30.5351 -14.1719 0.202248
16.6831 -12.1725 0.115271
-13.2549 -20.3231 0.158074
14.5918 -11.3665 0.145398
-54.3398 19.469 0.51197
7.03191 -12.0822 0.117249
15.8559 -11.7493 0.167358
-37.0045 -22.3925 0.453711
37.656 -7.73952 0.4
-35.8195 -22.4472 0.481484
-12.8848 -35.5871 0.440891
-13.3696 -35.9519 0.463965
-11.4676 -33.0213 0.424585
-9.85029 -30.4771 0.386929
24.6856 49.9839 0.727353
9.53767 -8.97093 0.169197
-12.9286 -20.0339 0.324375
-11.1646 -33.891 0.487955
8.5278 -8.47164 0.182165
6.23307 -12.7516 0.206613
7.10335 -10.9458 0.199096
9.29505 -9.01083 0.186893
7.98903 -9.06485 0.193164
9.6722 -8.95575 0.217048
37.1451 -7.95819 0.623021
-24.3806 20.9077 0.57624
-33.7007 -22.6739 0.698838
-35.0607 -25.7238 0.761417
12.8167 -10.5288 0.271647
13.1239 -10.5853 0.315843
-9.96339 -12.6326 0.303667
6.78121 -11.1136 0.253786
7.94398 -9.33619 0.240969
25.1848 51.8173 1.15585
6.93022 -10.893 0.259481
9.13105 -8.63959 0.266992
11.4484 -9.84011 0.33071
17.1054 -7.64028 0.377024
7.16316 -10.8681 0.294524
-12.9348 -19.8564 0.565823
7.60521 -9.25915 0.272872
7.7876 -9.31307 0.281776
-26.2161 22.0341 0.890588
-29.2513 -9.38038 0.771083
9.56582 -8.9004 0.336053
17.3081 -12.6438 0.540225
18.1261 -13.0518 0.555332
-23.4636 20.5427 0.813478
-28.367 22.4187 0.944949
-29.2628 -8.78277 0.800097
-33.6217 -17.9272 1.03484
-13.5077 -20.3972 0.64991
14.6255 -11.3639 0.494071
22.5047 -3.27436 0.639914
-12.3252 -19.2184 0.660203
24.6915 -4.67751 0.731353
15.944 24.7431 0.882808
-28.4227 -20.9386 1.04448
7.17314 -11.2361 0.400204
6.91907 -10.6252 0.386127
14.3732 23.4141 0.844075
-7.64244 -8.83099 0.357141
12.9238 -10.5749 0.509833
-7.34001 -9.53986 0.368656
-28.8819 -8.15211 0.998975
-12.0023 -17.5448 0.711594
7.82646 -9.29624 0.402049
15.9479 10.8959 0.691999
10.7842 -9.39022 0.519408
11.8029 -9.97219 0.562955
21.7518 43.8011 1.83755
-7.46656 -8.15174 0.413234
9.59261 -8.90469 0.488594
22.5716 -3.16903 0.87498
25.2392 52.1734 2.24513
-7.47077 -9.91601 0.485595
10.36 -9.44872 0.549992
12.6236 -10.4258 0.661426
21.3498 -2.61661 0.876903
-29.5392 -17.9208 1.4127
8.68992 -8.65082 0.506737
-6.93958 -8.48528 0.471218
9.38023 -8.87338 0.539775
12.4795 14.3258 0.839422
-29.2286 -8.5781 1.3389
14.4306 18.7959 1.0654
14.607 25.1501 1.29647
20.6853 40.6759 2.01893
6.10376 -13.5992 0.664723
10.7682 -9.44694 0.647813
18.321 -1.62592 0.841478
18.6813 35.5698 1.88502
14.5397 25.6178 1.38166
-11.2506 2.79055 0.55868
-7.26524 -9.57648 0.579686
9.11264 -8.9316 0.604305
11.319 -8.68407 0.66806
19.9157 -2.28222 0.965645
11.4808 11.7004 0.814342
15.3374 36.8848 1.96438
7.71414 -9.40179 0.598597
10.117 -9.21422 0.677623
14.185 24.0536 1.39877
19.2707 37.3693 2.13479
20.7904 -2.58989 1.06532
-7.42512 -8.53051 0.58679
9.32843 -8.88168 0.670689
16.281 23.8749 1.51852
15.9717 28.9548 1.72641
12.8956 -10.6293 0.887906
10.4104 12.1697 0.856818
13.9266 18.9041 1.26169
10.9957 -9.53438 0.78694
14.6984 19.1506 1.33171
-26.8401 20.5745 1.84946
-6.98495 -8.19484 0.595762
10.1084 12.2209 0.88845
-7.28432 -9.40359 0.66623
9.84758 12.2674 0.912602
-28.3136 19.9337 1.9676
6.04482 -12.7662 0.8088
11.0321 11.9259 0.93402
-6.89595 -6.80578 0.562044
11.1216 11.8594 0.957583
-6.82569 -8.43444 0.649449
6.19139 -12.4455 0.812304
14.3384 19.0774 1.43532
13.7609 22.4989 1.57362
12.8935 29.7975 1.94887
-6.19381 6.59697 0.556271
-8.19189 -7.76214 0.682725
-7.13554 -8.18579 0.666993
5.66769 -12.326 0.820473
-7.49905 -6.90428 0.634274
6.95256 -11.0773 0.808741
6.93974 -10.4881 0.784971
11.2556 -9.71589 0.918303
12.0329 -10.066 0.97218
16.0516 7.1089 1.11869
14.5849 18.8937 1.51038
-7.25274 -6.32082 0.624144
10.1962 -9.31234 0.891176
-7.39488 -6.27355 0.63629
11.3212 11.9462 1.12162
9.27057 20.8698 1.55509
-7.29711 -9.68619 0.810255
11.4735 12.444 1.16133
-6.96751 -4.46511 0.569448
-6.77005 -8.22251 0.72644
-6.71053 -4.44089 0.55527
9.21912 -8.81404 0.88795
9.94386 -7.80161 0.890328
12.4887 15.7402 1.45297
9.75645 -8.23884 0.933776
11.2401 16.8066 1.52015
11.1567 17.7869 1.56858
9.3738 17.8411 1.51987
8.78112 18.977 1.57272
7.08823 21.1255 1.67507
10.5315 18.1779 1.60058
9.96245 -7.55859 0.956173
-7.04498 -7.20645 0.772366
-17.314 -6.27997 1.44042
9.42565 -7.64138 0.951205
9.10964 18.1945 1.60599
-6.38997 -4.26671 0.609397
-6.8485 -8.24253 0.849638
4.83017 -5.72784 0.595717
8.77857 19.3131 1.68264
7.55229 18.4652 1.60401
5.02261 -5.78872 0.617484
12.6187 11.3865 1.37736
11.6268 11.6789 1.34953
6.69613 -9.34142 0.934313
12.0799 11.554 1.37416
6.47058 18.9946 1.64237
-6.3661 -4.39467 0.630686
-7.18672 -9.51164 0.978515
11.3948 11.9378 1.36556
10.3649 9.0674 1.17273
-5.06242 -11.55 1.06516
6.11449 -6.03472 0.749906
9.17569 -7.14814 1.00039
-6.80992 -6.7074 0.812238
10.2881 12.1923 1.39272
8.75879 -7.29829 0.991068
10.6838 12.0435 1.40906
-7.32968 -7.78574 0.937571
8.1577 -7.2624 0.969747
10.0652 12.3026 1.42905
-7.09026 -7.76228 0.932271
-6.95799 -8.36439 0.976548
10.4549 12.153 1.45578
10.3433 13.3422 1.52956
-7.13781 -8.35272 1.00094
11.0872 10.7093 1.41794
-6.32392 -4.23752 0.700246
-6.88167 -8.61908 1.00919
-6.33794 -4.40102 0.71152
10.9785 8.47238 1.30142
10.532 9.23285 1.30601
6.34606 15.0747 1.53823
10.3796 11.1664 1.44268
-11.2968 2.89482 1.10251
6.14604 -5.95416 0.815816
7.97738 -6.61328 0.995291
10.6324 9.10484 1.35898
9.39374 12.3602 1.50325
9.57806 12.2916 1.53528
7.5529 12.0791 1.41514
7.78463 13.0134 1.50942
11.123 7.98743 1.39567
7.02516 12.5009 1.44715
8.94576 11.2108 1.4594
6.87421 13.3082 1.53287
5.75002 13.6627 1.52162
9.09124 10.3644 1.42495
8.90681 12.1341 1.56392
11.289 7.59127 1.41922
9.15051 9.89589 1.40335
4.96886 -5.81441 0.821095
-6.85895 -4.66497 0.875281
5.46201 13.6077 1.55617
-7.07318 -4.51569 0.89523
8.82179 10.5703 1.47827
-6.78187 -6.79159 1.02685
5.9003 -5.82379 0.895517
9.60095 8.45304 1.37887
8.86946 9.2638 1.37946
9.15325 10.2036 1.48622
4.67522 13.5492 1.54666
4.22699 -8.03903 0.983919
6.37838 10.6709 1.36799
-6.81399 -3.93218 0.866287
6.24985 11.7184 1.47346
-6.90836 -3.87045 0.877596
9.63321 7.14771 1.34146
6.57536 11.2218 1.44849
9.72878 6.97538 1.34489
5.34767 11.3998 1.42364
5.34791 11.8911 1.47251
4.61644 12.0132 1.45597
9.76098 6.63428 1.34511
-6.90545 -4.57266 0.948844
7.38777 -6.21414 1.1004
-7.35002 -0.787517 0.848094
-6.28614 -5.40026 0.954722
5.24495 -5.56357 0.882282
8.80071 7.82396 1.37194
4.41329 -7.17536 0.975898
10.347 5.12242 1.35212
8.88475 7.72921 1.38434
5.19652 -5.60734 0.903206
8.53 7.85172 1.37568
8.81695 8.96969 1.47156
-7.06368 -5.66382 1.07158
10.0799 4.7199 1.32615
-6.93225 -3.85936 0.956361
9.07892 6.10317 1.32685
5.12973 11.244 1.49801
-6.90673 -3.07158 0.918866
-6.89097 -3.25791 0.92217
4.87793 -5.94888 0.93899
5.9651 -6.12002 1.04056
9.31381 5.58653 1.34262
8.39795 7.16961 1.36527
-6.96444 -4.31926 1.00988
-6.89564 -4.54413 1.01817
8.18408 8.50769 1.4646
4.95322 11.1392 1.51356
-6.56373 -5.62935 1.07643
3.70527 -7.56726 1.05005
8.43425 7.67997 1.42734
6.06983 -5.60995 1.03627
9.10611 6.0209 1.38344
-6.14573 -5.42296 1.03455
8.4892 6.56726 1.36876
8.02442 7.4503 1.39291
-7.11652 -1.78681 0.939003
-7.02811 -2.31082 0.94534
-6.45808 -5.32916 1.06861
8.77372 5.62489 1.3361
8.08617 7.97753 1.46401
-7.2808 -1.25621 0.947956
-6.91161 -4.12716 1.04115
7.38212 6.17959 1.2469
8.01846 6.9887 1.37926
7.90085 8.05585 1.46216
-6.92393 -2.83177 0.97437
-6.92518 -2.97192 0.974738
4.48913 9.94092 1.43325
8.95031 4.08923 1.29525
-7.26408 -1.60978 0.978328
6.82879 -4.25244 1.06915
4.92557 -5.94043 1.02311
-7.35065 -1.11981 0.995855
-7.02855 -2.20383 0.98585
-7.06581 -2.27326 0.992146
-6.00387 -4.4048 0.995545
5.18245 -6.55727 1.11392
6.89921 -4.16931 1.08525
8.01183 7.11544 1.45162
-7.16681 -1.72194 0.991469
-7.09744 -1.95979 0.990848
8.74354 4.82714 1.35651
8.27824 5.83525 1.37706
-6.9346 -3.62615 1.06678
8.82034 4.13961 1.33645
3.28732 10.331 1.48377
-7.32984 -1.20273 1.01738
-6.01919 -4.44819 1.02976
-5.99966 -4.54715 1.031
7.1357 -3.92741 1.1195
8.01566 6.44063 1.4221
5.2966 8.9521 1.44022
-6.39308 -4.32882 1.05886
4.93121 -5.52391 1.02865
7.17316 -3.82326 1.13127
7.54514 -3.67927 1.16151
3.56322 9.8845 1.4627
3.3763 10.1585 1.49202
-7.38676 -1.08469 1.04291
-7.08815 -2.00789 1.02719
4.97079 -5.28603 1.01435
7.23454 -3.73133 1.14359
7.35024 -3.66587 1.16496
7.85642 -3.34967 1.21416
-7.1697 -1.87863 1.05465
-7.02152 -2.9515 1.10429
-6.01698 -4.38004 1.0708
7.89073 -2.7772 1.22392
8.18963 4.59655 1.37596
4.94115 8.46445 1.43632
8.32669 4.48395 1.39773
7.81647 -2.33659 1.20261
7.10385 5.65501 1.35969
2.9156 9.3055 1.45756
-7.10809 -2.02355 1.10823
7.47253 -3.105 1.21989
8.18665 4.52437 1.41784
5.73986 7.38176 1.41981
5.24623 7.56843 1.40314
5.0806 7.87135 1.42291
5.03333 7.97724 1.42744
7.32371 -3.16545 1.2186
7.66725 -2.75178 1.2405
-6.7687 -1.68592 1.0513
7.81839 -2.253 1.24772
7.19518 5.39627 1.38103
-7.11772 -1.95632 1.1461
-6.93265 -2.79103 1.16212
6.77684 5.49679 1.36867
-7.3724 -1.09827 1.1649
-7.15887 -1.82787 1.15778
-7.06031 -2.07155 1.15349
-7.13535 -1.87627 1.15842
-6.90761 -2.9396 1.17906
4.77029 7.39645 1.39958
3.4474 -6.03385 1.10962
-7.29197 -1.30231 1.18729
3.52951 -5.70996 1.08136
3.56649 -5.61544 1.07077
7.0452 4.74891 1.38448
4.62522 7.32025 1.4091
-7.08517 -2.02753 1.20167
-7.10741 -1.95087 1.21006
6.94083 4.80959 1.39654
3.78229 7.85722 1.44345
6.05017 -3.31761 1.14939
6.60993 4.85579 1.3675
4.62877 7.11421 1.41563
3.83772 -5.30234 1.10006
7.08275 4.41046 1.40489
7.4573 2.85151 1.34927
6.29596 5.26313 1.39078
-7.29563 -1.25858 1.26144
6.73375 4.07118 1.35136
-6.46095 -2.77631 1.20048
5.5083 -3.62889 1.13306
5.6891 -3.51754 1.14835
2.72573 7.76726 1.42271
-7.39019 -1.04202 1.29462
5.33297 -3.78282 1.1397
-6.32074 -2.26319 1.16481
-6.28084 -2.42039 1.17921
4.28216 -4.66576 1.10738
4.49477 -4.47791 1.11289
4.59225 -4.44955 1.12173
-6.81422 -1.73593 1.23939
4.3066 6.46098 1.38496
-7.17614 -0.930421 1.29421
-6.15309 -2.26104 1.1683
6.62279 3.68266 1.35839
6.08197 4.3489 1.35615
3.61049 -5.33005 1.17069
5.12538 5.66051 1.39663
2.49216 7.13083 1.41849
6.4716 3.04582 1.35234
-1.70512 -5.77859 1.14073
6.42219 -1.38506 1.24649
6.26158 2.77275 1.31842
6.20824 2.3776 1.32631
-4.4765 3.96157 1.40661
4.31492 3.52598 1.33267
4.20155 3.2847 1.32013
4.66478 -1.67759 1.24466
4.8177 -1.38065 1.25362
-2.16282 4.84799 1.32779
3.72942 -2.95485 1.22305
3.67544 -2.55112 1.19424
3.40953 -2.96419 1.22669
3.99548 2.56371 1.32646
-2.59218 -3.5313 1.25041
-2.3234 -3.56678 1.21554
3.7478 2.05386 1.2991
3.72474 1.97648 1.29862
-2.85731 3.50457 1.39626
-2.29365 -2.41663 1.18671
1.95984 -2.78711 1.21521
-2.13174 2.77924 1.33187
-2.03619 2.76717 1.33802
2.25453 -1.87266 1.22703
2.38348 -1.50021 1.22372
-2.02025 1.88196 1.30072
-2.06203 -1.44149 1.22801
1.45333 -2.07491 1.24816
-1.99023 -1.0867 1.21425
-1.92309 -0.707061 1.22007
-1.92487 -0.70287 1.24568
-1.95451 -0.344109 1.22942
-1.89123 -0.564232 1.23011
-1.89088 -0.530471 1.23523
8.20004 -8.67847 -7.4476
12.0647 -10.2358 -8.75653
-8.90387 15.8974 -7.0724
20.2004 24.5972 -11.4314
-8.83098 -2.52904 -2.5885
-35.1002 -23.4471 -7.79715
-34.6777 -22.6783 -6.11331
-34.4095 -23.3841 -6.17788
-31.6792 -20.317 -2.82999
9.2487 -8.80913 -0.390381
-7.9022 17.0332 -0.463209
-29.8253 -11.5414 0.737026
-6.93928 -8.29361 0.462009
16.3358 23.4574 1.55329
11.2149 15.7722 1.60077
-6.70958 -6.68255 0.885685
4.14972 12.0406 1.46734
8.65328 9.01359 1.46151
7.96081 -8.75147 -10.3649
8.81792 -8.52621 -10.4809
6.94699 -11.9211 -11.4988
6.86297 -11.3353 -10.8817
8.14053 -8.25278 -9.51906
7.01291 -12.0146 -11.3129
7.05622 -10.9583 -10.4425
7.99036 -8.36548 -9.19059
6.71833 -11.2701 -10.2758
6.43661 -11.6825 -10.2006
7.74634 -8.83825 -8.9598
6.19675 -14.2982 -11.7934
8.28539 -8.68727 -9.08723
6.29156 -11.8945 -10.1632
6.13994 -12.0744 -10.1016
7.4797 -9.43104 -8.98784
7.89821 -9.04344 -8.91455
10.4404 -9.42558 -10.4617
6.11372 -14.1012 -11.3609
6.09668 -13.6599 -10.9986
6.12356 -12.5624 -10.2797
9.17734 -8.80756 -9.33148
9.26494 -9.05374 -9.44849
5.85761 -12.4911 -10.0229
9.34075 -8.97069 -9.24297
6.8502 -11.1081 -9.26256
5.60895 -12.9563 -9.99322
9.66833 -9.05912 -9.39013
7.59765 -9.33048 -8.46028
9.9721 -9.16375 -9.51499
10.8889 -9.46896 -10.1259
11.4067 -9.66991 -10.0433
8.37136 -8.59448 -7.94349
7.41953 -9.28488 -7.85334
8.15391 -8.70409 -7.88366
7.61603 -9.33748 -7.88371
7.82456 -9.38751 -7.8329
8.30705 -8.52163 -7.60789
0.362894 15.8814 -10.1348
7.51579 -9.30962 -7.61447
10.8796 -9.58 -9.21741
7.21258 -10.6827 -8.15847
8.14231 -8.48409 -7.41615
4.60934 -15.3974 -10.1088
8.70033 -8.68771 -7.60738
7.90914 -9.0187 -7.39947
4.04536 -18.0116 -11.3718
8.18495 -8.61424 -7.26466
4.08508 -17.3089 -10.8522
0.14863 14.8884 -9.05863
6.64309 -11.2439 -7.95175
7.73099 -9.25442 -7.317
10.0969 -9.28613 -8.32423
6.80925 -11.2333 -7.88644
8.04714 -9.18941 -7.33246
11.2331 -9.66618 -8.86079
5.39354 -13.8405 -8.81047
7.72279 -9.25182 -7.14732
9.33126 -9.01463 -7.68835
6.89032 -11.0967 -7.7313
7.97044 -9.11341 -7.10443
9.72925 -9.16551 -7.7902
14.7713 7.3808 -9.58863
8.65031 -8.81385 -7.1363
6.92123 -10.9467 -7.44377
2.63738 -11.2031 -6.61967
7.84703 -9.057 -6.86362
9.58161 -9.11789 -7.51372
10.763 -9.46925 -8.08741
3.2806 -20.6156 -11.7396
6.79053 -10.9659 -7.2313
10.0794 -9.26685 -7.66811
12.292 -10.3142 -8.99906
9.22021 -8.98799 -7.19538
4.60852 -14.2731 -8.36243
7.98913 -9.19955 -6.76734
14.6929 7.51154 -9.0581
9.67354 -9.08472 -7.28861
0.839373 17.4572 -9.54298
2.74329 -19.8797 -10.9427
11.0965 -9.61602 -7.97278
4.2243 -14.3938 -8.12091
14.6068 7.63839 -8.87725
14.9809 10.3427 -9.7725
13.9465 7.69372 -8.50926
10.9168 -9.58829 -7.72692
13.2071 -10.7553 -9.06106
3.04582 -19.3544 -10.2999
11.3184 -9.79282 -7.61595
2.16926 -20.4029 -10.3561
10.2297 -9.31352 -6.95701
14.2043 -11.2352 -9.09366
13.7402 -11.1137 -8.8477
10.9706 -9.62251 -7.27064
7.49348 -9.31921 -5.9223
3.56071 -8.46272 -4.52489
-8.72918 -1.91661 -4.39428
2.22586 -20.1988 -9.96683
4.52883 -9.29335 -5.05612
0.40614 13.6495 -6.68376
7.59239 -9.25146 -5.84039
-8.59592 16.408 -8.97286
-9.2329 -2.44083 -4.60182
14.9154 -11.5183 -9.05693
19.2489 5.50744 -9.57381
-10.355 -2.56374 -5.04591
1.90978 -20.5766 -9.8265
17.0489 16.0205 -11.0782
7.56292 -11.1815 -6.37007
19.8932 5.36945 -9.70264
13.9638 -11.0557 -8.28299
2.92283 -17.3021 -8.15986
19.2256 5.68833 -9.26146
17.7278 -12.9197 -10.1335
9.8375 -2.48477 -4.68784
20.1456 5.10607 -9.58783
17.1713 16.1464 -10.8591
1.81146 -20.2587 -9.30858
9.64547 -9.01954 -6.04724
-9.2433 -1.67775 -4.28463
9.42764 -3.45926 -4.57355
6.69436 -11.2857 -5.96899
9.88455 -2.61081 -4.63697
19.1187 5.8298 -8.99759
17.5422 17.3991 -11.1049
9.34421 -3.07804 -4.42812
15.3403 -11.8043 -8.68712
7.01644 -11.5285 -6.03704
7.13255 -10.8886 -5.80245
9.53326 -3.39543 -4.50953
-10.1359 16.6158 -8.66665
17.5372 -12.7991 -9.64862
19.4029 5.58939 -8.94884
16.0044 7.25917 -7.78095
17.6457 17.8222 -11.0895
16.328 -12.1436 -8.96929
-11.4242 17.3742 -9.14141
-6.64628 15.1928 -7.27243
-5.26492 4.93866 -3.146
19.9943 5.42873 -9.00639
9.53223 -3.39572 -4.36685
18.0301 18.2734 -11.0313
15.7298 -12.1051 -8.5416
14.7749 7.38715 -7.0488
3.83323 -9.28948 -4.26987
-11.3432 17.2541 -8.74322
6.92524 -10.8769 -5.43758
-13.677 3.35191 -5.93331
0.743411 -22.4528 -9.46691
15.7206 -11.9034 -8.24712
-5.19738 5.72376 -3.23552
0.99971 -22.3193 -9.36527
1.23129 -20.8033 -8.73062
14.0889 7.55605 -6.68574
18.3494 19.1214 -11.0706
3.77825 -8.94445 -4.04931
14.6865 7.68507 -6.89861
17.7287 18.9335 -10.7619
-9.5487 -1.09591 -3.96778
4.00445 -8.49672 -3.84851
13.9559 7.70581 -6.54332
6.82472 -10.9565 -5.27776
-13.713 2.5617 -5.70715
-8.08845 15.6724 -7.16859
19.0287 20.6757 -11.3815
14.9869 7.20105 -6.6983
-5.3455 14.6036 -6.23647
13.8811 -10.9743 -6.93138
1.52679 19.1415 -7.45619
-8.89135 16.0607 -7.13543
18.8676 5.75391 -7.6421
-1.76366 13.3814 -5.22842
5.28596 -9.37698 -4.15144
-2.40211 13.6131 -5.31014
19.3376 22.3687 -11.3354
4.65508 -8.50571 -3.68246
19.2897 5.53378 -7.63557
0.880144 -26.7167 -10.1579
14.8222 -11.4221 -7.04286
19.843 5.37581 -7.69371
9.41858 -3.43149 -3.7476
0.535193 -22.8518 -8.51743
3.24051 -10.7688 -4.20181
19.9222 23.1766 -11.3473
0.910714 -8.73303 -3.25604
13.9563 -11.0528 -6.56515
20.2468 5.14952 -7.6807
17.6946 17.4837 -9.08854
-13.1207 2.29865 -4.84313
20.5508 24.5399 -11.6066
2.28162 -13.2312 -4.83754
12.9735 -10.4916 -6.00438
0.796364 15.3892 -5.51261
-8.22355 -2.80632 -3.10812
0.410501 -21.9867 -7.86029
-4.27936 14.051 -5.22601
0.639177 -22.0321 -7.83243
15.7613 -11.904 -7.00128
-16.0455 18.5506 -8.64542
5.91582 -11.315 -4.48975
-11.2337 16.9538 -7.10501
14.1914 -11.2471 -6.3322
20.2015 5.32024 -7.29104
0.658852 -23.1708 -8.00489
-5.09978 14.8097 -5.36832
3.63576 -8.44022 -3.16354
4.86959 -9.02049 -3.51293
-14.7965 18.3709 -8.0757
2.27302 -10.8785 -3.80875
-9.0576 16.4329 -6.39783
3.01586 -13.6476 -4.76598
-15.2816 18.7573 -8.20353
20.0205 5.44328 -6.97291
21.6927 26.8342 -11.5298
35.5722 -20.0809 -13.6524
-5.40133 14.3304 -5.08801
1.90343 20.5931 -6.86033
1.26752 -10.2518 -3.41555
-5.34644 14.7261 -5.09007
-12.8394 17.5782 -7.06304
18.4269 -13.1308 -7.34864
3.55849 -8.66986 -3.00477
6.20576 -10.0904 -3.79665
2.31279 -11.0067 -3.57924
-4.64864 -34.9014 -11.1893
-1.15307 -24.1235 -7.6866
14.9101 10.2686 -5.71244
-13.4775 17.9351 -7.09263
-18.3766 19.8214 -8.49813
6.94018 -11.0607 -4.03738
1.38873 -21.9864 -6.81484
-2.61539 -27.8368 -8.58094
7.06562 32.6155 -10.1805
0.771246 14.9766 -4.55402
-11.362 17.1443 -6.20061
-2.74842 -26.9708 -8.16289
-14.6417 18.3074 -6.99601
-5.397 -35.3735 -10.653
0.842713 -25.2671 -7.55849
-5.499 15.1289 -4.79002
2.06708 20.5341 -6.07877
-21.7362 20.2676 -8.76932
18.0957 5.7584 -5.58903
-4.37352 14.6963 -4.50994
-8.08583 15.689 -5.17987
4.24949 -9.12994 -2.96003
4.62528 -11.5902 -3.64923
-12.6949 2.23639 -3.70491
-34.0089 -48.173 -16.9661
-15.5123 18.662 -6.9774
6.9351 -11.0457 -3.75523
2.56185 -9.53956 -2.80666
12.8776 -10.4236 -4.7152
-8.47482 -2.46642 -2.50283
20.7418 26.7489 -9.58788
-8.60325 -2.26748 -2.51417
-2.6043 -26.5606 -7.48788
-13.1048 2.00816 -3.69217
4.37614 -11.2998 -3.36366
-9.50219 16.3427 -5.19149
-13.3282 17.7763 -6.10386
-5.50296 14.6906 -4.28939
-8.74959 -42.4796 -11.8645
-21.9378 20.4723 -8.06775
-9.93139 16.4696 -5.15549
-27.3095 20.9788 -9.16241
11.3486 11.4218 -4.2474
4.31503 -11.265 -3.1961
46.3515 -13.4744 -12.7884
-8.46291 -39.9305 -10.7262
4.08277 -8.64311 -2.51711
11.129 -9.89882 -3.89666
-14.7559 18.4762 -6.14964
6.52081 -10.3992 -3.17728
3.17384 -9.63379 -2.62237
-31.0331 -45.4509 -14.2096
-4.47169 -29.3236 -7.67267
3.53377 -10.3513 -2.82063
4.06136 -9.37159 -2.62541
15.5168 -11.6675 -4.95399
-7.31087 15.5772 -4.35704
-32.4625 -43.2926 -13.7203
4.30046 -11.1155 -3.01682
4.24996 -7.69497 -2.23733
6.51713 -10.6307 -3.11007
44.097 -13.3322 -11.4869
-28.9151 21.8154 -8.95587
-11.7707 17.294 -5.15844
-28.337 -41.3368 -12.3213
-10.2054 -40.1637 -10.2198
-25.0178 21.0131 -8.02976
4.34059 -10.31 -2.74869
-12.315 17.6406 -5.21757
-8.00897 15.6064 -4.22938
10.2412 -9.2377 -3.30258
39.7112 -13.1911 -10.0142
15.0238 7.51348 -3.99836
-6.5005 -37.2181 -8.99809
3.96028 -9.07544 -2.3464
46.2286 -12.3727 -11.3589
-12.6018 -46.3944 -11.3864
3.84365 -11.0244 -2.75207
4.8997 -8.67786 -2.34455
-13.0459 17.7789 -5.13315
10.9673 -9.61125 -3.33325
-6.34363 -32.1627 -7.47859
-27.7542 21.4361 -7.95008
40.9238 -8.94966 -9.50712
-31.204 22.6558 -8.64625
-36.0863 -23.6482 -9.66666
40.1342 -12.4068 -9.43277
5.44227 -9.45296 -2.43552
-12.484 2.84859 -2.8097
40.0054 -11.7234 -9.21146
41.9375 -11.966 -9.5956
-5.49913 14.431 -3.37818
13.3248 -10.7223 -3.765
37.5445 -12.0656 -8.67026
-23.892 20.8233 -6.87532
-31.3284 -77.2349 -18.0819
4.29924 -9.67668 -2.29644
4.52923 -9.16027 -2.20742
-14.8847 18.5451 -5.07932
-31.6592 22.9967 -8.35604
-32.5646 23.1099 -8.5366
-30.006 -79.6075 -18.2319
-10.9165 17.0586 -4.29551
-8.69659 -36.9121 -8.0625
3.18288 -9.66297 -2.16968
3.95552 -9.8029 -2.25415
45.0395 -10.4423 -9.87014
14.8572 7.44171 -3.52222
-15.4745 19.0496 -5.1972
5.15308 -9.03575 -2.18555
25.9711 37.5752 -9.54266
14.8945 7.79499 -3.48963
-30.6622 -23.6805 -8.03634
-11.6881 17.2215 -4.23056
-15.9437 18.851 -5.02715
-36.0381 24.1914 -8.82047
43.7206 -9.53626 -9.12607
-13.7605 -44.2759 -9.42122
4.12535 -9.7097 -2.14664
11.556 -9.60619 -3.05774
-12.2461 17.5744 -4.27693
-20.9117 -60.0145 -12.6989
-13.4008 -41.6263 -8.6562
4.05936 -9.89611 -2.11803
-34.7253 -23.7448 -8.29235
-27.3054 21.4304 -6.83217
-33.7364 -24.1321 -8.08504
-7.04273 15.5643 -3.31729
-27.9219 -65.6057 -13.8469
-34.1398 -22.7279 -7.90297
3.42787 -9.34067 -1.9215
45.1226 -10.4546 -8.89488
-13.0076 17.7599 -4.20925
3.97981 -9.32308 -1.93471
-37.0951 -22.5325 -8.21546
-21.7784 -35.3782 -7.90002
-16.1906 -46.715 -9.35311
37.3756 -12.3293 -7.44077
-36.8293 24.7356 -8.30323
-34.2887 -23.6805 -7.82776
-33.223 -24.3073 -7.72694
-22.2413 -55.0994 -11.1784
-17.5302 -47.6156 -9.41024
3.81423 -9.19269 -1.83846
41.9215 -11.2985 -8.06325
5.74249 -9.68732 -2.06411
-25.6449 -58.1499 -11.6336
-21.2781 -52.8122 -10.2965
-14.8556 18.5181 -4.21034
-31.6503 -25.5267 -7.22723
-20.6499 -27.5165 -6.15163
-40.3641 25.4702 -8.42142
-27.3177 21.4496 -6.0457
-34.8798 23.868 -7.33863
3.89901 -10.0232 -1.86511
4.76318 -8.59689 -1.70813
13.9198 7.47527 -2.72455
13.9898 8.02792 -2.76192
-31.5096 22.9133 -6.6794
41.6062 -11.7712 -7.36215
41.4147 -10.726 -7.28341
-31.8073 -25.2609 -6.88991
-21.4887 20.4653 -4.98366
-21.2515 -52.8221 -9.61873
14.7693 7.40235 -2.77019
-32.4019 22.9386 -6.63179
-24.6341 -58.7307 -10.5221
42.8915 -11.5545 -7.22081
-10.5617 16.7678 -3.19875
-21.5618 -53.4909 -9.19674
-35.5222 -24.5212 -6.80128
-23.2271 20.407 -4.84183
-24.6662 21.0566 -5.02681
-41.08 24.8725 -7.44179
-11.4463 17.1319 -3.18152
3.4636 -9.50574 -1.56487
3.85727 -10.2003 -1.6888
-7.78882 15.7985 -2.69151
-31.7499 23.1084 -6.00306
-32.3155 -24.9596 -6.20869
-28.4293 -26.5924 -5.89696
41.5968 -10.8138 -6.5336
44.174 -9.62389 -6.88842
-6.68666 14.8947 -2.44403
9.80924 -5.14177 -1.64378
-34.0833 -24.5827 -6.25776
10.1589 -9.13397 -2.03612
44.3085 -10.2502 -6.7546
-37.3274 -24.8483 -6.59911
-32.0775 -26.4588 -6.08233
-13.1475 -43.5609 -6.69376
16.8107 -12.1625 -3.0398
-25.9059 21.329 -4.87691
-25.798 -57.8026 -9.12005
-7.78338 15.5901 -2.49262
-12.9601 17.6706 -3.12498
6.01046 -11.4831 -1.85238
-13.6786 18.2829 -3.20802
-35.4969 23.9788 -6.02262
6.73448 -11.0005 -1.80305
37.0959 -12.2423 -5.49491
-31.694 -25.3964 -5.66787
-33.7582 24.2602 -5.75909
-21.4207 -51.6269 -7.71899
44.4554 -9.9451 -6.28222
-7.02814 15.5441 -2.3323
-23.8058 -62.129 -9.03697
7.73013 -9.35488 -1.62877
-14.2778 18.2306 -3.12212
13.1526 -10.4902 -2.27669
-22.6631 20.6148 -4.11992
41.5165 -10.734 -5.69363
44.1876 -9.67883 -5.988
-23.0457 20.2803 -4.01447
-33.2597 -24.8877 -5.42558
-15.1867 18.5968 -3.10492
-34.784 23.2164 -5.42943
-38.9678 -16.4537 -5.46118
6.99307 -10.4001 -1.60825
10.707 8.76595 -1.77623
-34.3905 -23.6997 -5.34455
-32.1325 23.4574 -5.03261
-36.1992 -22.5887 -5.3479
41.3888 -10.7038 -5.35061
6.77325 -10.3329 -1.54406
-7.82397 15.65 -2.16729
-25.5242 21.4321 -4.08128
-34.1522 24.0694 -5.15397
6.26758 -12.0206 -1.65184
44.1417 -9.41748 -5.52899
14.9076 7.81019 -2.02299
-18.5844 -45.0101 -5.87119
7.06242 -10.4963 -1.5235
-20.7619 9.20135 -2.6878
-14.8674 -44.9726 -5.56868
-32.4014 -24.981 -4.78373
-31.8798 -25.4957 -4.77662
41.4657 -11.1074 -5.04602
11.1877 -9.63463 -1.71078
-30.5295 23.1488 -4.40803
6.61912 -10.785 -1.44893
7.46949 -9.19636 -1.35539
11.537 -9.68498 -1.71113
9.4292 -4.59998 -1.18805
14.8869 7.64994 -1.88592
-10.5604 16.8122 -2.2412
-32.9084 24.0463 -4.566
38.3619 -12.6282 -4.5298
9.32753 -8.99487 -1.43378
-11.286 16.9267 -2.21206
6.75936 -12.7259 -1.56125
44.2798 -9.62352 -4.91301
10.7038 8.79585 -1.4926
16.6654 -12.3795 -2.22856
41.6557 -10.8036 -4.61183
9.58817 -8.94985 -1.38978
8.35722 -8.44212 -1.24459
-31.4294 -25.1509 -4.19136
-31.5861 -63.3554 -7.38455
14.8844 7.46471 -1.70089
-32.3381 -24.9348 -4.18955
-13.1101 17.8718 -2.25095
-13.0212 17.4452 -2.16411
10.1729 -9.05713 -1.33452
-21.787 -55.3304 -5.82935
6.28589 -12.0377 -1.31471
16.5371 -12.0988 -1.97001
41.5455 -11.1638 -4.12428
-32.1835 -65.055 -6.8992
-21.8072 -57.2284 -5.81567
-23.7705 20.7917 -2.95232
44.9567 -10.001 -4.30238
9.68503 -8.95791 -1.22144
39.1702 -12.9212 -3.84421
-15.3136 18.7719 -2.19413
-30.0704 -13.71 -3.01228
-33.8705 -66.0278 -6.83977
15.762 -11.7977 -1.79139
8.61168 -8.70238 -1.10882
12.8296 -10.5902 -1.44893
44.5489 -10.3255 -3.91808
9.37213 -8.99939 -1.09241
10.9098 -9.60743 -1.22214
-34.9206 23.9815 -3.52503
16.7354 -12.2041 -1.71596
-17.5492 -45.666 -3.91829
14.6008 -11.4168 -1.47832
-12.0406 -33.7079 -2.8251
-30.4608 23.1609 -2.95913
-33.8301 23.9122 -3.19799
-23.6508 -54.0244 -4.55282
-52.5758 28.6139 -4.53232
-21.8057 20.5224 -2.17819
-34.0613 24.0925 -3.0234
16.2753 -12.1608 -1.48663
41.568 -11.1235 -3.13562
-41.5233 -78.5657 -6.413
13.9007 -10.9982 -1.26886
-16.0864 -42.6729 -3.14756
10.7252 -9.57828 -0.985417
-23.7955 20.8351 -2.13596
12.8079 -10.5684 -1.11185
17.8282 -12.9307 -1.46869
15.9413 -12.0576 -1.32041
-15.1696 -42.059 -2.89224
43.2824 -11.2567 -2.79611
-33.4318 -67.7382 -4.60981
35.4334 -8.59611 -2.23815
42.4841 -9.72385 -2.67623
6.01266 -12.997 -0.856256
30.5064 -20.1859 -2.18973
-10.0462 16.7707 -1.14947
-16.0732 -41.928 -2.55696
16.503 -12.3334 -1.15716
-9.7407 -12.6273 -0.873922
14.8738 7.63078 -0.903575
13.8288 -10.9469 -0.944746
-13.0317 17.6599 -1.1464
-17.0001 -42.136 -2.41322
14.7682 7.76555 -0.817502
-16.8388 -43.0421 -2.268
-14.4234 18.2814 -1.11354
9.53445 -8.99349 -0.601331
-25.0293 -57.4141 -2.83449
12.3936 -10.1885 -0.744055
-16.6126 -46.3092 -2.18461
-17.7866 -43.8225 -2.0251
6.81661 -12.5868 -0.635335
-14.4301 -43.9871 -1.97226
-54.0528 29.3957 -2.49181
18.204 -13.0782 -0.910079
16.6909 -12.4062 -0.810292
-44.0049 -85.4095 -3.62544
-18.952 -49.6985 -1.9594
-34.3613 23.6093 -1.52424
42.0425 -10.8328 -1.56394
-36.2545 -72.1165 -2.70122
-26.9964 -59.1626 -2.19013
19.8425 22.9489 -1.00657
-21.8495 20.475 -0.975228
8.05994 -14.2251 -0.54944
9.3915 -8.96561 -0.421045
11.2527 -9.90633 -0.487536
18.4566 -13.0501 -0.743281
34.4263 -12.9844 -1.2216
21.5675 26.1073 -1.08499
-27.6989 -13.8936 -0.971128
-23.34 20.7842 -0.952
-32.3608 22.9194 -1.23698
-26.104 -60.014 -2.02762
-14.2454 -40.2996 -1.31702
-22.4624 -57.2982 -1.8641
-17.2396 -46.723 -1.42737
-34.5541 -20.9509 -1.07617
11.4015 -9.6723 -0.400741
16.2348 -12.0751 -0.533706
-42.0424 26.0086 -1.30296
-30.9294 23.5342 -0.960857
-31.4514 23.0499 -0.92117
9.53695 -8.97791 -0.303582
-42.1137 14.5554 -0.984068
-32.5302 -54.472 -1.42961
21.0907 -14.1055 -0.558159
30.1256 -18.2671 -0.795822
14.1584 3.9128 -0.299493
26.5101 46.3251 -0.979713
23.354 -10.8725 -0.454054
46.4406 -10.6937 -0.887067
-31.0982 -22.3483 -0.698264
-30.1205 -29.5844 -0.669606
-19.6722 -48.2706 -0.868794
12.6602 -10.4109 -0.269912
18.3843 -13.2843 -0.347002
-29.6231 -13.1668 -0.425354
-33.3782 -24.9794 -0.580053
-35.0493 -70.6568 -1.06603
-28.9524 -61.6198 -0.933956
-34.4885 -23.5538 -0.545215
-30.9507 23.5467 -0.457046
16.8841 -12.6086 -0.250539
28.9746 -17.9657 -0.401783
-31.4045 23.0552 -0.432948
-19.7146 -45.2142 -0.528528
-12.3748 -37.2464 -0.395949
-34.7426 -61.2155 -0.649496
-14.5991 18.5185 -0.180454
-27.0094 -13.6173 -0.244026
-15.3012 18.6519 -0.164428
-22.9833 20.5262 -0.157856
-21.3926 20.0654 -0.132733
-10.6277 -13.6629 -0.0607937
14.6367 7.68901 -0.0197503
11.0627 -9.72769 -0.0079224
-35.0188 -19.1806 0.0610818
-11.6564 -34.643 0.11822
16.8455 -12.2388 0.0901012
-19.4176 -44.5791 0.215166
18.6439 -13.136 0.120831
7.13955 -12.2726 0.103479
25.7832 -10.5782 0.171104
-56.7254 20.2548 0.575674
16.1461 -11.9658 0.191634
37.0189 -7.5578 0.356183
-29.408 -8.29242 0.357778
-36.887 -22.2643 0.475278
-11.6244 -33.3054 0.377581
-13.065 -36.2035 0.457356
-10.5509 -32.431 0.408406
6.2927 -12.8623 0.182688
7.18414 -11.0676 0.173381
-28.7626 22.5777 0.560968
11.2662 -9.83922 0.224732
-24.5896 21.0283 0.535044
10.8565 -9.69355 0.22829
12.9081 -10.6263 0.26324
35.9889 -7.70204 0.611999
-35.1295 -23.5362 0.769169
-31.8916 22.8026 0.770986
6.10646 -12.7583 0.274381
6.99376 -11.0061 0.251129
8.00128 -9.38892 0.240793
26.325 54.13 1.31023
7.70514 -9.41453 0.274951
10.0933 -9.14186 0.328419
-29.142 -9.3447 0.737525
-23.7613 20.74 0.854443
-28.1461 22.193 0.963182
-29.2715 -8.78924 0.805736
9.16053 -8.86716 0.344297
9.59256 -8.91554 0.356867
-26.1081 22.004 0.928886
25.1745 -5.09281 0.714938
12.9178 -10.5971 0.497567
14.5364 23.6807 0.857733
6.15432 -12.696 0.443929
7.42373 -11.5723 0.431366
-28.7862 -8.11866 0.981727
-12.7472 -19.5175 0.767772
-28.4638 -8.89635 1.03144
15.9727 10.9325 0.699738
-30.2427 -18.7403 1.24366
15.4264 26.7968 1.10394
-30.8585 -16.8324 1.30273
23.3624 -4.21864 0.857572
-28.2163 -20.0679 1.28301
-7.31843 -7.97961 0.408737
9.02275 -8.79847 0.468359
12.2985 13.4533 0.703076
24.9286 51.4254 2.16511
23.8219 50.7191 2.1108
-11.616 -9.19461 0.584295
8.69695 -8.64275 0.484935
-26.1877 21.5723 1.37866
21.6862 -2.93902 0.886505
-29.1862 -17.7278 1.39902
9.38279 -8.89667 0.530044
12.3152 14.1835 0.808405
6.54131 -12.3878 0.594831
14.6336 19.014 1.05513
20.3367 28.0903 1.51922
-9.55908 -13.899 0.741368
-10.061 -15.735 0.828897
7.56636 -10.9051 0.584699
8.59839 -8.68753 0.552273
24.0001 -3.67657 1.09612
6.71402 -11.0376 0.594359
-8.30389 -8.17201 0.548444
20.573 41.5081 2.2169
-28.9442 -17.8887 1.60846
-9.83406 -13.7941 0.806229
9.62691 -8.93203 0.618419
14.8132 41.1645 2.11816
-30.6455 -13.5738 1.60001
-6.78376 -8.27041 0.526464
14.0825 32.7492 1.81937
-30.1154 -11.7933 1.62337
-7.61556 -7.00277 0.523137
-6.71872 -7.61639 0.513928
15.7215 28.4794 1.68947
10.4303 12.1964 0.867481
13.9925 19.0414 1.26899
9.31315 -8.89502 0.689919
14.5755 18.9647 1.32093
14.9717 23.1236 1.51712
-28.0472 19.7481 1.88152
-6.99554 -8.22127 0.598755
-26.9717 20.6953 1.89151
6.05625 -12.7873 0.791633
-7.13274 -9.19222 0.6636
9.84103 12.292 0.926234
14.5765 24.5595 1.66875
6.42213 -12.8983 0.829215
13.557 22.1177 1.53255
-8.29059 -8.14934 0.700591
11.4133 11.4921 0.966031
14.4233 19.1831 1.44219
-7.42969 -10.0577 0.777718
6.97756 -11.1192 0.799949
11.2096 -9.66887 0.897321
5.84201 -10.7093 0.756967
-7.21544 -6.66932 0.614183
14.2148 20.1646 1.56123
16.0126 7.1078 1.13757
-7.05549 -6.16445 0.614999
6.42155 -13.3599 0.987871
9.1777 20.7307 1.52951
10.2919 12.4049 1.10205
13.3255 17.9182 1.55762
12.1524 20.1485 1.62829
11.2175 11.8496 1.14542
6.57377 -9.8037 0.835844
11.3668 11.6293 1.17696
9.7714 -6.89763 0.850963
12.2194 11.8294 1.2492
9.8854 -8.34806 0.947772
-6.21696 6.73807 0.685169
10.3351 9.10035 1.03454
11.7142 17.5146 1.58551
11.2652 17.9476 1.59676
-6.96764 -7.72324 0.806747
10.6437 18.3707 1.6291
9.47395 -8.91968 1.00551
-6.42883 -4.30778 0.610628
8.99606 18.0233 1.60974
10.0427 -6.87208 0.974271
12.3161 11.4269 1.35821
9.5424 18.5274 1.67815
-7.29584 -9.67734 0.987241
6.69347 -9.34623 0.935403
12.1037 11.5788 1.37257
12.0064 11.8079 1.39847
11.289 11.7996 1.35202
-5.07792 -11.5897 1.06431
10.1792 12.7355 1.38732
-6.97913 -6.09867 0.798552
-6.83596 -6.71453 0.80959
-5.23896 -11.4903 1.07385
-7.32558 -7.77341 0.920001
9.25106 -7.22976 1.01433
-7.14569 -8.08615 0.944517
-7.04008 -7.71581 0.91876
9.26731 12.3699 1.37038
-6.97719 -8.40236 0.975873
10.7125 8.98849 1.27451
10.3212 13.2931 1.52058
10.4225 9.15357 1.26986
7.59562 13.7877 1.44789
-6.51993 -8.16311 0.957372
-6.93022 -9.05408 1.05249
11.0765 10.6829 1.41996
11.1419 9.09057 1.34567
10.7495 10.6848 1.42081
6.36467 14.7078 1.50585
-11.5014 2.94651 1.11407
-6.37364 -4.17899 0.714336
-6.82374 -6.31059 0.862148
9.30167 13.118 1.55132
-6.08576 6.61295 0.885798
7.93887 -6.59128 1.00556
7.81506 13.0308 1.5093
-7.09178 -7.64252 1.05053
9.1948 11.497 1.4849
6.90686 12.2633 1.42836
6.95699 12.8167 1.48663
9.44214 9.00561 1.35039
5.75732 13.7246 1.54248
9.02234 12.271 1.58793
-6.11789 -4.46457 0.79417
5.85779 13.4599 1.54611
6.11686 13.3985 1.54835
-6.98583 -4.43755 0.88554
8.68332 8.93147 1.32804
9.03909 10.0697 1.47166
7.23974 10.8706 1.41939
5.74508 11.3156 1.37964
-6.31664 -7.43094 1.06621
10.1897 6.40393 1.33159
8.91225 8.06631 1.32508
7.21714 11.5362 1.50252
6.75589 11.4823 1.47285
5.27693 11.7177 1.42966
4.79147 11.9098 1.43607
4.61296 13.4151 1.56041
9.78809 6.99851 1.34359
8.67153 9.21771 1.41417
5.30467 11.3502 1.41073
-6.85983 -6.74156 1.07075
6.78441 10.5894 1.41666
4.23758 12.9264 1.53716
9.72302 -3.18612 1.14076
-6.11548 -5.4241 0.946686
7.27343 -6.10667 1.07798
10.3407 5.67372 1.3528
-7.39983 -0.98826 0.855963
-6.26933 -5.3664 0.950197
5.24121 -5.54939 0.879352
4.99182 11.4496 1.45078
-6.8976 -4.56888 0.959085
4.44654 -7.25043 0.983564
10.3371 5.11369 1.35335
8.80719 7.81678 1.38237
-6.01178 -4.37533 0.866885
-6.49895 -5.28419 0.989823
4.08456 -7.85156 1.05251
4.96083 -5.84338 0.919545
10.1008 4.72301 1.33668
8.44153 8.19695 1.42518
5.19859 11.3253 1.52097
8.97847 6.21984 1.33731
7.93776 8.26091 1.4351
-6.50373 -5.75914 1.08172
3.70147 -7.56261 1.05451
8.60933 6.63811 1.36704
-6.48109 -5.35542 1.06438
9.02538 5.96979 1.38152
8.11755 7.08305 1.3745
8.04602 7.44443 1.39959
5.76862 -5.3377 1.00894
-6.98731 -4.45295 1.06393
8.03017 7.92845 1.46365
-7.37593 -1.045 0.96306
-6.93776 -2.83239 0.979092
8.92434 4.07761 1.28493
8.33886 6.57867 1.39431
4.99239 -6.02076 1.02801
4.91044 -6.1849 1.04566
6.85799 -4.27506 1.07563
-7.14997 -1.72226 0.986453
-7.02507 -2.2249 0.985686
-6.03569 -4.42995 1.0013
8.07387 6.60831 1.4144
8.55985 4.41377 1.31304
8.57646 5.13413 1.36527
7.96438 7.08118 1.45053
-6.82229 -3.74114 1.05692
8.81113 4.13591 1.33231
8.20873 5.7937 1.37587
-6.40999 -4.33723 1.05944
-5.9675 -4.53274 1.02381
5.30032 8.93163 1.43437
3.58657 9.92161 1.46473
-7.3861 -1.09568 1.03462
-6.91846 -3.9352 1.10501
4.94417 -5.53824 1.02594
5.22276 -5.39258 1.04183
7.44924 -3.53022 1.15273
3.33198 9.99204 1.47546
8.35329 4.57174 1.34701
7.3613 -3.67128 1.16685
7.57201 -3.3283 1.17913
7.74576 -3.29882 1.19452
8.89558 2.80096 1.34231
4.82929 -5.63015 1.06611
7.34017 -2.8478 1.14616
-6.97282 -3.30697 1.12534
7.901 -2.77359 1.22079
8.64141 -1.81518 1.29605
4.95669 8.4863 1.45048
2.90767 9.2931 1.44813
7.71565 -1.88389 1.17045
7.18302 5.72045 1.36809
3.4054 9.42033 1.48028
3.1371 9.6435 1.50246
-7.38851 -1.04595 1.10703
-7.08985 -2.02747 1.09951
6.8996 6.24575 1.40502
-6.27402 -2.27564 1.00209
-7.2571 -1.37852 1.11567
7.89417 4.79028 1.4067
5.66283 7.29678 1.40129
5.24681 7.56505 1.40101
5.00944 7.93846 1.41899
6.74943 -3.22086 1.1309
7.23349 -3.11918 1.20625
7.6208 -2.74996 1.23451
-7.3351 -0.73479 1.1264
-7.11269 -1.95873 1.13923
6.77888 -3.08819 1.1519
3.75045 -5.7875 1.06631
-7.06808 -2.08042 1.15567
-7.36398 -1.09555 1.16965
7.32064 4.7483 1.37807
-7.215 -1.4468 1.17137
-7.28857 -1.30414 1.18864
-7.11277 -2.02338 1.20315
7.03119 4.73715 1.38387
-7.11654 -1.94966 1.2127
6.97066 4.83799 1.4093
6.57887 4.82543 1.36145
5.17052 6.20008 1.34474
4.63356 7.11117 1.41728
3.78158 7.84852 1.44778
-7.26603 -1.3767 1.23516
2.79489 -5.7819 1.08244
7.10484 4.40555 1.40824
6.47559 5.20771 1.40178
3.8747 -5.36668 1.11589
3.93811 -5.02281 1.08034
-7.28946 -1.25538 1.25542
-6.61023 -2.62999 1.20758
7.38602 2.83607 1.34183
6.99662 3.87267 1.36268
-6.4253 -2.75774 1.19016
6.74148 4.07857 1.35254
5.6787 -3.51729 1.1496
-7.41426 -1.04215 1.29545
-6.36791 -2.2844 1.16367
5.53213 -3.64582 1.14192
5.31661 -3.77235 1.14254
3.5619 7.09224 1.39572
-6.81334 -1.73871 1.23553
4.48046 -4.46786 1.11341
-7.1088 -0.916768 1.27753
4.72488 -4.45743 1.14938
4.29486 6.44204 1.38133
6.55736 3.45868 1.33872
6.59557 3.66576 1.35546
-6.45359 -1.5034 1.19245
3.6106 -5.32884 1.17079
5.04537 5.57702 1.37685
-6.16526 -2.18687 1.1995
3.4156 -5.16222 1.151
3.35625 6.70797 1.40291
-1.69585 -5.77602 1.14377
6.42033 2.72154 1.32693
-2.14147 -5.72319 1.17503
6.28505 2.78532 1.32337
-2.78621 -5.37423 1.18658
-3.55259 5.39557 1.40107
4.45063 3.87585 1.3467
4.15296 -2.88 1.17738
4.6286 -2.18625 1.23672
4.18344 3.27903 1.31641
3.7105 -2.93265 1.22466
4.00613 2.56667 1.32893
-1.44084 -4.11183 1.22042
-2.31886 -3.57653 1.21187
3.84927 2.35769 1.30748
-2.87513 3.54417 1.3696
-2.4787 -2.9144 1.18904
-2.37614 -2.93543 1.19392
1.84715 -2.81775 1.1842
1.87008 -2.79574 1.2142
1.99605 -2.53124 1.2003
-2.0503 2.81767 1.32663
2.80485 -0.555883 1.25922
2.78378 -0.336924 1.24076
-2.08764 -1.61806 1.21275
-2.07554 -1.45038 1.23793
-1.86035 -1.79438 1.28293
-1.9933 -1.13076 1.20453
-1.98487 -1.06978 1.2314
-1.94484 -0.879931 1.23176
-1.92937 -0.708098 1.22219
-1.92826 -0.701212 1.24942
-1.90484 -0.469509 1.22243
-1.87035 -0.345564 1.21974
-1.85512 -0.401005 1.2264
2.37883 -19.7159 -10.021
-7.62633 -9.0039 0.466659
8.00283 -8.78308 -10.448
8.24955 -8.61481 -10.4856
8.20132 -8.2762 -9.86918
6.94548 -11.9369 -11.3909
8.49925 -8.95591 -9.72237
7.83649 -8.92176 -9.11971
5.84144 -12.7811 -10.7152
9.40582 -8.81432 -9.72313
6.13837 -14.0758 -11.5609
8.27124 -8.66242 -9.00532
8.00244 -9.1517 -9.09149
7.27891 -9.22946 -8.75794
5.90019 -14.131 -11.1737
7.70349 -9.28837 -8.70793
7.84081 -9.09991 -8.65315
7.11589 -10.5622 -9.06796
6.80722 -11.0529 -9.20303
10.0261 -9.16814 -9.54227
6.52718 -11.1552 -8.84871
8.01801 -8.61188 -7.83575
7.34625 -9.26304 -7.85701
8.49877 -8.66392 -8.06742
7.70408 -9.4532 -8.01211
6.47386 -12.7497 -9.33802
7.91714 -9.16238 -7.89815
4.9971 -16.0267 -10.7981
-0.470579 13.9476 -8.92315
7.71244 -9.22653 -7.71171
7.31904 -10.8403 -8.32873
8.36025 -8.5483 -7.61801
10.8424 -9.59176 -9.18264
8.96991 -8.79997 -7.88117
11.7235 -9.99733 -9.65666
8.05572 -8.51796 -7.21319
4.03937 -16.8418 -10.6153
4.24511 -15.3682 -9.79026
7.82799 -9.33945 -7.30344
3.95077 -15.6276 -9.61254
11.4399 -9.7939 -9.02021
6.84917 -11.0535 -7.72192
7.75792 -8.80373 -6.95147
5.47774 -13.9753 -8.86946
6.47501 -12.6816 -8.33379
8.34494 -8.5771 -6.97413
9.66214 -9.05724 -7.72265
2.78665 -11.781 -6.93995
5.46444 -13.8639 -8.43859
9.56892 -9.08096 -7.45785
6.60412 -11.0482 -7.24811
3.35255 -20.7422 -11.7756
8.8584 -8.91879 -7.04713
12.1443 -10.189 -8.88161
6.80957 -10.9841 -7.20032
4.67408 -14.5872 -8.46633
6.20819 -12.5957 -7.72574
0.898305 18.5397 -10.1022
14.5402 7.68279 -8.93307
4.19599 -14.22 -8.00824
14.651 -11.5939 -10.0723
14.8912 7.39946 -8.85513
13.9359 7.6779 -8.45195
4.758 -14.8288 -8.27559
12.0369 -10.1116 -8.27347
1.81513 -20.5302 -10.6034
11.3741 -9.8161 -7.69777
2.08258 -20.2496 -10.3299
0.00812195 14.2787 -7.16615
-7.37278 15.3309 -8.52864
10.5585 -9.56833 -7.16033
7.49647 -9.40292 -5.99185
-8.60071 16.31 -8.91474
11.5958 -9.73873 -7.33001
10.4598 -9.55341 -6.80284
14.7073 -11.2757 -8.93967
16.554 15.6801 -10.8292
7.46214 -11.0298 -6.34548
14.9243 7.37382 -7.80865
13.862 -10.977 -8.2649
-12.1023 17.3333 -9.68936
15.7492 -11.9338 -9.02827
9.75424 -2.44561 -4.61882
-9.13898 -1.66146 -4.22442
18.5268 17.8767 -11.613
3.90827 -9.08783 -4.49036
-10.3348 16.8867 -8.89435
-5.36962 4.46586 -3.1419
6.83822 -11.2586 -5.93089
9.40156 -9.06148 -5.75943
15.9191 7.26184 -7.71745
-6.70369 15.2315 -7.27172
1.49911 -18.7538 -8.13755
-11.3161 17.2211 -8.87571
9.5615 -3.36315 -4.34096
6.9977 -11.015 -5.51731
15.7354 -11.8953 -8.25805
14.5621 7.69748 -6.90698
18.5495 19.2976 -11.183
1.02153 -22.7087 -9.46332
-4.56838 13.9838 -6.06385
-9.96882 -1.11499 -4.15758
14.0047 7.73275 -6.5301
20.1919 21.9627 -12.1564
-13.1422 2.46294 -5.44752
15.0233 7.13781 -6.72512
-5.2725 14.4571 -6.19206
3.63303 -8.79581 -3.78824
13.8697 -10.9515 -6.90712
19.0776 21.3497 -11.1025
18.6841 5.76146 -7.58028
1.53524 19.1464 -7.4447
-8.83778 15.9285 -7.02595
11.3577 -10.0145 -5.82495
19.0037 22.0305 -11.2029
0.684541 15.3358 -5.87707
-1.66681 12.822 -4.97546
2.71239 -12.2427 -4.81137
-8.79633 -1.25632 -3.37772
0.704357 -23.7992 -8.9837
15.0937 -11.5671 -7.17268
9.47093 -3.45577 -3.80272
-7.91094 -3.51422 -3.17509
1.09741 -10.4776 -3.87441
7.00847 -11.2057 -4.83401
14.1093 7.87786 -5.83235
-8.31551 -2.85502 -3.16172
0.790489 15.2365 -5.43836
-3.99439 13.5189 -4.99022
5.72277 -10.9596 -4.35165
15.7374 -11.8935 -6.98767
18.9527 5.85349 -6.97729
2.09224 20.3899 -7.18375
21.3054 25.7548 -11.6115
-15.09 18.6292 -8.23241
2.96241 -13.3029 -4.69165
-9.00781 16.2758 -6.36072
18.3395 -12.9896 -7.70388
-5.09358 14.6432 -5.27513
1.36517 -22.3727 -7.42722
1.75105 19.4772 -6.45724
1.44861 -10.3254 -3.44594
38.5281 -19.6951 -14.2028
6.15496 -10.025 -3.76594
17.4414 -12.3153 -6.83957
2.10627 20.5192 -6.56162
-13.5406 18.0793 -7.12513
1.45934 -22.8997 -7.14891
-4.34961 14.9004 -4.82672
-11.1032 16.8257 -6.11302
-2.80369 -28.5067 -8.70019
3.05946 -9.45561 -3.02072
0.798513 -24.4998 -7.371
18.9652 -13.4615 -6.90235
17.4884 5.53257 -5.38117
-7.99278 15.4768 -5.07435
4.21817 -10.4682 -3.28058
3.61103 -10.5412 -3.17188
4.22849 -10.9131 -3.28602
-13.5051 18.0529 -6.2746
-9.41832 16.103 -5.07833
-13.3151 1.996 -3.692
-17.1802 19.74 -7.10875
26.008 -17.1218 -8.43897
-4.01479 -28.6157 -7.74739
3.77694 -9.13147 -2.64424
-9.93818 16.5232 -5.13554
46.4745 -13.5697 -12.8399
10.4925 -9.35833 -3.72213
-6.54102 15.1496 -4.31418
-14.6267 18.3398 -6.15867
-8.22305 -38.8948 -10.3526
4.94535 -9.54703 -2.78344
6.53777 -10.4636 -3.18361
-7.31837 15.536 -4.36883
-10.7045 16.6748 -5.06601
-10.1944 -40.3918 -10.3571
-9.33566 -40.2954 -10.0974
10.8956 -9.6049 -3.57208
-8.08294 15.6908 -4.28311
-11.8995 17.2974 -5.08522
14.5162 7.66783 -3.89554
4.03844 -9.23415 -2.38568
15.1167 7.48638 -3.9745
3.73954 -8.89173 -2.26784
-6.67848 -33.2649 -7.85475
5.60967 -9.8555 -2.62882
44.0479 -10.6594 -10.5346
-13.0002 17.7094 -5.05952
14.7713 7.56479 -3.7537
43.1172 -9.32725 -9.99449
-9.93761 16.5554 -4.32468
3.70393 -9.22677 -2.16351
42.2963 -10.8504 -9.53163
15.0278 7.45517 -3.59144
-10.8006 16.8612 -4.2916
-22.3926 -35.2028 -8.96196
4.80591 -9.72086 -2.33991
44.3293 -10.3794 -9.74227
-15.0186 18.6084 -5.0334
-32.7429 -24.1671 -8.62524
41.0605 -13.7388 -9.16144
14.7537 7.79603 -3.47918
-36.2378 24.5058 -8.94667
-8.61807 -35.2471 -7.34603
3.935 -11.4579 -2.43594
43.8716 -9.46543 -9.12966
11.7236 -9.70425 -3.05262
42.3171 -10.8936 -8.70879
-27.4538 20.7173 -6.82807
6.11985 -10.2433 -2.37616
45.1882 -10.567 -9.06511
-12.9954 17.7321 -4.25068
-27.34 21.4261 -6.75107
15.9078 12.0327 -3.81115
-7.00212 15.4167 -3.25327
-33.6674 -24.3519 -7.95262
-32.1489 -25.1748 -7.84656
-36.4674 24.3003 -8.25319
-34.1671 -22.5388 -7.73446
17.901 5.62795 -3.50184
-34.6895 -20.9307 -7.56573
-15.5835 -44.9271 -8.85675
3.75833 -9.78944 -1.97489
-25.7595 -64.1291 -12.8502
-17.3885 -46.8431 -9.1375
3.96488 -9.61038 -1.87558
13.0035 -10.161 -2.97666
44.6897 -9.94462 -8.22481
-14.986 18.5869 -4.26791
-27.4991 21.5679 -6.17119
14.9872 7.9334 -2.95276
-30.8066 -26.8457 -7.12169
42.1763 -10.8031 -7.47611
-8.07165 15.551 -2.97018
-9.93968 18.3072 -3.52141
43.9767 -10.3521 -7.64077
-31.358 22.8412 -6.53226
-30.7446 -23.6532 -6.48295
-21.1758 20.2476 -4.87558
-33.0232 23.3217 -6.74533
15.8207 -11.8044 -3.23541
-10.5089 16.685 -3.13881
-44.4469 26.1538 -8.18233
-32.1588 -24.1589 -6.43879
-34.0348 -23.4761 -6.51158
3.42411 -9.47035 -1.57523
-24.199 20.6719 -4.91602
16.7969 -11.8743 -3.18708
-11.3615 17.0048 -3.10861
45.3168 -10.6205 -7.06569
-23.8527 -55.2763 -9.09528
-30.0834 22.5618 -5.6233
-39.2725 24.4872 -6.86993
-32.1904 -24.9875 -6.07914
43.9854 -9.42576 -6.69906
-34.3366 -24.8326 -6.19126
-51.3545 28.6732 -8.45743
-36.1778 -24.1311 -6.25927
6.69159 -12.8416 -2.10341
-7.08826 15.6293 -2.38544
-13.3462 18.0167 -3.12087
-32.8602 23.6578 -5.66009
-25.7035 -57.2422 -8.65121
-16.8063 -49.1296 -7.1397
36.2336 -12.0499 -5.23787
-23.6072 20.7449 -4.18223
-32.8301 -24.586 -5.35449
-31.1639 -25.5659 -5.329
-34.4919 -23.7548 -5.36433
7.42294 -9.40202 -1.54929
42.2277 -10.8092 -5.59417
-34.2377 23.2979 -5.26539
-30.1813 -16.105 -4.36041
6.02974 -7.80889 -1.26038
44.1138 -10.3684 -5.74618
-31.7527 23.3363 -4.91752
14.4223 -11.2361 -2.24671
-30.6458 23.0815 -4.64137
-33.3161 23.5512 -4.9125
-10.5507 16.7809 -2.29127
-32.0306 -23.0368 -4.6416
12.9275 -10.4557 -1.9468
35.3595 -11.6843 -4.31
6.32062 -10.3074 -1.39013
11.1478 -9.66024 -1.66235
16.3356 -12.1626 -2.29563
