ply
format ascii 1.0 
element vertex 1872
comment /media/mkaihara/Seagate Backup Plus Drive/model_iterations/model_33.ply
property float32 x 
property float32 y 
property float32 z 
end_header 
-24.0491 -54.4879 -6.99925
11.3687 -9.77975 -1.75558
43.267 -11.5829 -5.2732
14.8509 -11.5311 -2.16075
15.0905 7.7569 -1.93001
-29.0108 22.0628 -4.15811
7.32274 -11.1198 -1.51059
-9.96204 15.9054 -2.10137
9.50653 -9.37219 -1.48587
12.879 -10.578 -1.85811
14.0991 -11.1283 -1.99765
9.50825 -9.16948 -1.46592
7.10449 -10.5208 -1.39038
45.8849 -10.0215 -5.11149
-10.6026 15.9268 -2.06285
-32.127 22.6545 -4.26969
11.8008 -9.91477 -1.66408
6.24558 -12.8431 -1.50175
7.6171 -11.6594 -1.44897
9.90389 -8.95623 -1.40472
-14.5107 -41.9318 -4.6534
16.7428 -12.3988 -2.18463
-28.5394 -57.3372 -6.64478
15.031 7.56893 -1.72091
-30.3068 -24.1532 -3.98124
13.9506 -11.038 -1.82285
-31.0457 -24.0146 -3.97175
15.0209 7.84823 -1.70365
-12.3304 16.4899 -2.02327
-19.1366 -48.5198 -5.05531
-30.3923 -61.3957 -6.55977
-22.7579 19.9082 -2.85711
-30.1599 -24.7072 -3.70655
-30.1309 -25.0281 -3.73366
-20.2015 -52.862 -5.33726
-13.6914 17.5199 -2.08133
-30.4379 -23.8131 -3.60713
-14.8893 -40.5554 -4.02559
-13.13 -40.8105 -4.00009
9.87582 -9.15377 -1.25116
-30.9931 -60.3731 -6.25328
8.60403 -8.70177 -1.11105
16.6741 -12.4238 -1.90203
-14.5665 17.869 -2.06834
-34.9239 -21.7218 -3.72234
-32.0768 22.6479 -3.45919
-30.2252 -24.3846 -3.43234
14.1674 -11.2681 -1.6067
-31.4158 -19.1441 -3.13941
11.122 -9.76053 -1.25987
-25.8824 20.9948 -2.79983
-10.8394 -33.7367 -2.99542
9.44915 -9.06025 -1.09904
-32.7726 22.5327 -3.3053
8.7287 -8.73035 -1.01397
16.9411 -12.3553 -1.71251
-15.8417 -41.1645 -3.54556
-20.2579 -46.341 -3.95953
-14.6226 -36.0993 -3.08781
-12.7025 -35.6408 -3.0068
9.24997 -8.98922 -1.01333
11.3607 -9.84838 -1.17859
15.0026 -11.7347 -1.50768
-29.0161 22.1274 -2.84035
-28.7078 -13.4001 -2.46168
11.9423 -10.1174 -1.21303
-21.8413 -48.6432 -4.08466
12.8765 -10.6881 -1.26762
-37.6891 -71.5034 -5.85021
10.005 -9.18252 -0.984115
10.9772 -9.7985 -1.02544
-32.4496 -20.1444 -2.6426
12.0378 -10.1172 -1.08862
14.8473 -11.6901 -1.31313
-14.8207 -37.4496 -2.74138
-14.4134 -38.1301 -2.79484
18.7928 -13.5814 -1.53891
-22.6592 19.8397 -1.99951
-23.2576 -53.6517 -3.86726
12.9736 -10.6723 -1.12286
-13.9242 -38.6303 -2.66903
15.4196 -11.6426 -1.25526
-30.1418 -61.0274 -4.27474
-14.0838 -43.6543 -2.85077
-31.8111 22.4727 -2.38461
-30.605 -60.5227 -4.12817
-16.191 -39.4396 -2.59982
31.6078 -20.956 -2.30769
43.0182 -11.2182 -2.69839
37.2207 -8.97396 -2.31935
-14.4128 -38.6956 -2.49514
-26.1883 21.2544 -1.91302
-28.4396 -14.0015 -1.83218
-15.079 -39.2833 -2.34717
17.079 -12.7439 -1.19344
-26.6445 -16.0336 -1.67431
43.6282 -9.71837 -2.29819
-9.30622 -12.4345 -0.788582
-14.6811 -39.071 -2.07901
5.77562 -12.6053 -0.688598
-13.8061 17.5022 -1.08753
-14.186 -44.5888 -2.29806
15.0408 7.89087 -0.818993
-15.5595 -39.8831 -2.03462
-13.6578 -44.4197 -2.19276
18.947 -13.4431 -1.11302
-16.1684 -46.8901 -2.31357
37.5295 -9.21762 -1.81038
-28.3398 -14.4914 -1.42454
-22.8839 -52.4358 -2.53687
-15.79 -38.8505 -1.86673
9.71388 -9.16655 -0.595353
12.7007 -10.4245 -0.737259
45.3603 -10.3792 -2.06878
-13.312 -40.4931 -1.81414
-31.7412 22.4387 -1.61978
-51.4059 27.9187 -2.33473
-32.7482 22.5372 -1.45966
-17.7796 -46.4955 -1.86791
-33.7737 -21.2678 -1.42682
9.80112 -9.12136 -0.492133
6.65551 -10.9136 -0.443377
-12.4468 -37.1052 -1.29512
7.54371 -13.2413 -0.520178
18.8371 -13.342 -0.779266
-24.9937 -54.7405 -1.98067
-12.7652 -36.2152 -1.24377
21.6874 25.0132 -1.06469
-22.4825 19.9597 -0.947678
-22.2709 -55.7962 -1.92175
-19.6115 -50.2181 -1.67107
21.3228 -14.5409 -0.784075
-27.1396 -13.9662 -0.925459
-12.3236 -39.44 -1.22797
-23.4243 19.9039 -0.883751
-22.2904 -51.2989 -1.59015
-16.5748 -44.8591 -1.37882
22.8357 -10.2766 -0.755474
-33.6536 -20.5051 -1.09011
-9.69334 -12.7176 -0.456766
-21.5517 -50.825 -1.55737
18.2451 -13.5923 -0.578726
32.2595 53.8357 -1.62935
-29.1629 22.2512 -0.944112
-30.288 22.1536 -0.929108
-26.7766 -12.8659 -0.728261
9.61792 -9.05089 -0.319535
-20.2003 -32.5366 -0.892515
-39.1535 13.5816 -0.907172
21.5243 -14.4022 -0.549384
-51.386 18.5335 -1.00962
18.662 -13.4545 -0.431215
12.9158 -10.6108 -0.27825
-6.97614 15.101 -0.291594
-32.415 10.2513 -0.562898
-27.8013 -13.2388 -0.487717
-36.169 -20.5977 -0.632367
-17.2346 -42.2495 -0.704891
-7.59515 15.9733 -0.24076
-31.7507 -23.7186 -0.549383
-33.0812 -22.5516 -0.512352
-32.2897 -65.2431 -0.900228
17.4947 -13.0527 -0.264422
18.4444 -13.2799 -0.287782
29.5115 -18.1978 -0.461926
-20.0635 -51.3868 -0.667721
-29.3362 22.3665 -0.394685
-36.6643 -20.4952 -0.46388
-26.0548 -55.5964 -0.652122
-17.7787 -40.7777 -0.475098
-51.1044 28.0072 -0.486592
-31.7397 -55.9905 -0.591492
-18.8493 -49.4355 -0.501055
38.2678 -9.24524 -0.36136
-13.9091 17.6545 -0.158775
-32.3232 -71.981 -0.537607
-17.0763 -41.4184 -0.30384
9.62637 -9.05819 -0.0410397
13.2176 15.1274 -0.0420561
14.939 7.86436 -0.0292064
-28.8939 -12.8895 -0.0574678
-11.5205 -16.7735 0.0249644
-12.6679 -19.0671 0.0438626
-17.836 -40.9424 0.185778
9.49052 -9.03579 0.0598356
-31.7798 22.4908 0.200852
-20.4281 -51.5718 0.270619
-29.6563 -13.7639 0.19614
17.0077 -12.4095 0.118018
-12.9018 -19.7818 0.154439
14.8374 -11.558 0.148256
-51.3108 18.384 0.480775
7.14909 -12.2839 0.119414
16.1501 -11.9676 0.17092
-35.5858 -21.5339 0.436446
38.974 -8.01066 0.414747
-34.4682 -21.6003 0.463487
-12.0865 -33.383 0.415576
-12.552 -33.7544 0.437598
-10.8005 -31.1008 0.401747
-9.30387 -28.7868 0.367194
27.5397 55.7634 0.808027
9.6388 -9.06617 0.17117
-12.5912 -19.511 0.31653
-10.4703 -31.7837 0.459626
8.60558 -8.54897 0.183961
6.35658 -13.0046 0.210847
7.1987 -11.0929 0.201929
9.39284 -9.10576 0.189032
8.0668 -9.15321 0.195184
9.7753 -9.05133 0.219539
38.4342 -8.23465 0.645378
-23.3015 19.9825 0.54851
-32.4694 -21.8453 0.673571
-33.6602 -24.6961 0.731463
13.0073 -10.6856 0.275998
13.322 -10.7452 0.320922
-9.82245 -12.4539 0.299489
6.87557 -11.2684 0.257448
8.02459 -9.43105 0.243553
28.1485 57.9175 1.28873
7.02268 -11.0386 0.263076
9.22083 -8.72464 0.269763
11.5975 -9.96836 0.335254
17.3747 -7.76067 0.383244
7.25761 -11.0116 0.298539
-9.36642 -12.0916 0.386904
-12.6015 -19.3448 0.551931
7.68058 -9.35106 0.275698
7.86589 -9.40682 0.284736
-25.0025 21.0144 0.846886
-28.4946 -9.13758 0.750569
9.66633 -8.99403 0.339741
17.6632 -12.9034 0.551769
18.5158 -13.3326 0.567769
-22.435 19.6425 0.775489
-27.028 21.3609 0.897804
-28.5099 -8.55666 0.778904
-32.5105 -17.3345 1.00061
-13.15 -19.8571 0.633434
14.877 -11.5595 0.502917
22.9439 -3.33836 0.652601
-12.0218 -18.7455 0.644643
25.2313 -4.7799 0.747647
16.7676 26.0216 0.927058
-27.5124 -20.2678 1.01136
7.27424 -11.3947 0.405947
7.00624 -10.7593 0.391083
15.0972 24.5937 0.885294
-7.579 -8.75765 0.354053
13.1185 -10.7344 0.517787
-7.27477 -9.45506 0.365326
-28.1527 -7.94615 0.973104
-11.7383 -17.1588 0.696513
7.90489 -9.38951 0.406185
16.3134 11.1456 0.707262
10.9143 -9.50369 0.525857
11.962 -10.1068 0.570764
23.9681 48.2642 2.02289
-7.41067 -8.09066 0.409964
9.69406 -8.99899 0.493901
23.0141 -3.23128 0.892341
28.3235 58.5498 2.51733
-7.39964 -9.82154 0.480961
10.4827 -9.56079 0.556672
12.8081 -10.5784 0.671332
21.7421 -2.66477 0.893178
-28.6472 -17.3795 1.37015
8.77318 -8.73381 0.511699
-6.88778 -8.42188 0.46757
9.47785 -8.96586 0.54552
12.8436 14.7438 0.863203
-28.4819 -8.35885 1.30407
14.9833 19.5159 1.10538
15.4156 26.5425 1.36721
22.6037 44.4488 2.20468
6.24697 -13.9186 0.680162
10.8983 -9.56125 0.655807
18.6047 -1.65117 0.854583
20.1836 38.4304 2.03535
15.3645 27.0713 1.45906
-11.1143 2.75674 0.5508
-7.19998 -9.49037 0.574451
9.20634 -9.02356 0.610631
11.4513 -8.78568 0.676029
20.2547 -2.32116 0.982214
11.7553 11.9802 0.833241
16.7992 40.4008 2.1505
7.79275 -9.49774 0.604767
10.2318 -9.31893 0.685451
14.9323 25.3211 1.4716
20.9035 40.5361 2.31453
21.1619 -2.63625 1.08452
-7.36711 -8.46381 0.582068
9.42488 -8.97363 0.677733
17.0849 25.0539 1.59269
17.0039 30.8262 1.83707
13.0904 -10.79 0.901526
10.6753 12.4795 0.878072
14.469 19.6406 1.31015
11.132 -9.65271 0.796849
15.2708 19.8965 1.3829
-25.6682 19.6764 1.76581
-6.93503 -8.13621 0.591346
10.3689 12.5359 0.910819
-7.22081 -9.32155 0.660382
10.1048 12.5879 0.935942
-27.1022 19.081 1.88052
6.16372 -13.0174 0.824519
11.3033 12.2192 0.956484
-6.85605 -6.76635 0.558499
11.3934 12.1494 0.980509
-6.7759 -8.37285 0.644584
6.30517 -12.6744 0.827074
14.8988 19.8231 1.49084
14.4341 23.5996 1.64997
13.8688 32.0521 2.09573
-6.07925 6.47487 0.544516
-8.12917 -7.70267 0.677267
-7.0839 -8.12648 0.662003
5.77275 -12.5545 0.835464
-7.45104 -6.86002 0.629914
7.0477 -11.229 0.819769
7.0243 -10.616 0.794519
11.4 -9.8407 0.930231
12.1989 -10.205 0.985755
16.3462 7.2394 1.13899
15.1451 19.6195 1.56787
-7.21089 -6.28429 0.620189
10.314 -9.42011 0.901589
-7.35143 -6.23663 0.632191
11.5996 12.24 1.14882
9.77275 22.0006 1.63909
-7.23116 -9.59859 0.802933
11.7665 12.7618 1.19061
-6.9354 -4.4445 0.566303
-6.7227 -8.16494 0.721212
-6.68152 -4.42166 0.552351
9.31309 -8.904 0.897081
10.0392 -7.87655 0.898966
12.8938 16.2509 1.49975
-6.64719 -6.63968 0.652642
9.85306 -8.32053 0.943114
11.65 17.4195 1.5753
11.5952 18.4861 1.62996
9.77691 18.6086 1.58506
9.2084 19.9008 1.64915
7.55077 22.5049 1.78459
10.9693 18.9338 1.66691
10.0557 -7.62943 0.965216
-7.00104 -7.16144 0.767282
-17.0571 -6.18668 1.41845
9.50999 -7.70983 0.959797
9.51864 19.0117 1.67803
-6.365 -4.25 0.606469
-6.80015 -8.18428 0.843494
4.84051 -5.74011 0.597011
9.21587 20.2756 1.76647
7.93891 19.411 1.68625
5.03499 -5.803 0.619025
12.912 11.6512 1.40914
11.9053 11.9588 1.38164
6.76052 -9.43137 0.943264
12.3651 11.8269 1.40638
6.85161 20.1139 1.73947
-6.34116 -4.3774 0.627677
-7.12374 -9.42821 0.96994
11.6745 12.2309 1.39886
10.5621 9.23998 1.19486
-5.00312 -11.4147 1.0531
6.13927 -6.0592 0.752977
9.25152 -7.20729 1.00873
-6.77199 -6.66999 0.807393
10.552 12.5052 1.4283
8.82924 -7.35708 0.999104
10.9515 12.3454 1.44421
-7.27893 -7.73179 0.930867
8.21851 -7.31661 0.977028
10.3277 12.6236 1.4662
-7.04262 -7.71007 0.925799
-6.90749 -8.30361 0.969328
10.7211 12.4626 1.49274
10.637 13.7212 1.57291
-7.08515 -8.29102 0.993419
11.3326 10.9465 1.4492
-6.29976 -4.22129 0.697
-6.8301 -8.55442 1.00153
-6.31335 -4.38391 0.708203
11.1756 8.62458 1.32466
10.7359 9.41163 1.33116
6.61452 15.713 1.60368
10.6215 11.4268 1.47622
-11.1593 2.85958 1.08774
6.17093 -5.97831 0.819156
8.03027 -6.65719 1.00194
10.8358 9.27904 1.38488
9.6454 12.6914 1.54352
9.83113 12.6165 1.57585
7.76704 12.4218 1.45537
8.02482 13.4152 1.55614
11.315 8.12535 1.4197
7.2412 12.8856 1.49186
9.16311 11.4833 1.49488
7.10731 13.7598 1.58515
5.97408 14.1957 1.58142
9.29284 10.5943 1.45656
9.14457 12.4582 1.60577
11.4772 7.7179 1.44284
9.34324 10.1044 1.4329
4.9808 -5.82838 0.823112
-6.82777 -4.64371 0.870741
5.68075 14.1533 1.61912
-7.03968 -4.49426 0.890408
9.02313 10.8117 1.51209
-6.74372 -6.75331 1.02075
5.92177 -5.84501 0.89882
9.7734 8.60496 1.40363
9.04497 9.44723 1.40678
9.3523 10.4257 1.5186
4.87999 14.1436 1.61528
4.25073 -8.08421 0.989349
6.54595 10.9515 1.40419
-6.78452 -3.91512 0.861897
6.43714 12.07 1.51801
-6.87779 -3.85327 0.873059
9.7834 7.25921 1.36237
6.75685 11.5319 1.48877
9.87783 7.0823 1.3655
5.51602 11.7593 1.46898
5.52621 12.2882 1.52219
4.78566 12.4547 1.51014
9.90511 6.7323 1.36498
-6.87393 -4.55173 0.943926
7.42872 -6.24858 1.10656
-7.30866 -0.783096 0.84235
-6.25956 -5.37735 0.950197
5.25838 -5.57783 0.884595
8.9487 7.95563 1.39507
4.43024 -7.20295 0.979626
10.4796 5.18807 1.36946
9.03238 7.85774 1.4074
5.20966 -5.62154 0.905547
8.67428 7.98463 1.39903
8.9861 9.14189 1.49989
-7.02711 -5.63443 1.06556
10.2024 4.77729 1.34228
-6.90142 -3.84215 0.951435
9.20358 6.18705 1.34511
5.29219 11.6006 1.54613
-6.87642 -3.05807 0.914078
-6.8609 -3.24365 0.917411
4.89016 -5.96383 0.941396
5.989 -6.14457 1.04477
9.43487 5.6592 1.36012
8.52873 7.28136 1.38663
-6.93266 -4.29949 1.00464
-6.8643 -4.52342 1.01294
8.33491 8.66461 1.49175
5.11111 11.4949 1.56256
-6.53324 -5.60312 1.07096
3.72023 -7.59782 1.05421
8.57419 7.8075 1.45115
6.09208 -5.63054 1.04013
9.23004 6.10292 1.40235
-6.12062 -5.40073 1.02982
8.61184 6.66222 1.38863
8.15436 7.57106 1.41561
-7.08166 -1.77805 0.933499
-6.99551 -2.30007 0.940105
-6.4298 -5.30575 1.06341
8.88677 5.69744 1.3534
8.2261 8.11571 1.48953
-7.24215 -1.24953 0.941961
-6.88076 -4.10867 1.03584
7.48343 6.26451 1.26412
8.14077 7.09542 1.40044
8.03938 8.19724 1.488
-6.8933 -2.81922 0.969259
-6.89458 -2.95875 0.969648
4.61795 10.227 1.47519
9.04625 4.13312 1.3092
-7.2267 -1.60148 0.972359
6.85472 -4.2686 1.0733
4.93809 -5.95555 1.02577
-7.31067 -1.11372 0.989442
-6.99577 -2.19353 0.980377
-7.03268 -2.26257 0.986625
-5.98287 -4.38933 0.991438
5.20129 -6.58115 1.118
6.92583 -4.18542 1.08952
8.1362 7.22601 1.47435
-7.13113 -1.71335 0.985604
-7.06326 -1.95034 0.985173
8.84538 4.88343 1.37241
8.38692 5.91194 1.39527
-6.90391 -3.61004 1.06133
8.91486 4.18403 1.35087
3.40692 10.7086 1.53923
-7.29045 -1.19627 1.01092
-5.99794 -4.43241 1.0255
-5.97843 -4.53099 1.02674
7.1648 -3.94345 1.12416
8.12949 6.53219 1.44247
5.41782 9.15737 1.47376
-6.36793 -4.31172 1.05406
4.9417 -5.53568 1.03091
7.20258 -3.83896 1.13601
7.57927 -3.69593 1.16686
3.67867 10.2062 1.51136
3.49459 10.5159 1.54571
-7.34617 -1.07873 1.03616
-7.05423 -1.99826 1.02136
4.98053 -5.29641 1.01642
7.26462 -3.74685 1.14844
7.38175 -3.6816 1.17006
7.89444 -3.3659 1.22015
-7.13447 -1.86939 1.04853
-6.99001 -2.93823 1.09851
-5.99588 -4.3646 1.0664
7.92908 -2.7907 1.22998
8.28043 4.64759 1.39137
5.04969 8.65086 1.46855
8.4181 4.53325 1.41323
7.85408 -2.34783 1.20851
7.19395 5.72686 1.37717
3.01243 9.61675 1.50765
-7.07396 -2.01381 1.10197
7.50522 -3.11859 1.22534
8.27656 4.57414 1.43359
5.83961 7.51032 1.44495
5.34356 7.7092 1.42973
5.18093 8.02718 1.45162
5.13503 8.13882 1.45692
7.3543 -3.17867 1.22381
7.70256 -2.76446 1.24633
-6.73775 -1.67818 1.04552
7.85614 -2.26388 1.25387
7.28297 5.46223 1.39812
-7.08334 -1.94684 1.13961
-6.90183 -2.77857 1.15609
6.86074 5.56498 1.38589
-7.33211 -1.09226 1.15747
-7.1237 -1.81888 1.15111
-7.02692 -2.06173 1.14708
-7.10056 -1.8671 1.1518
-6.87722 -2.92662 1.17302
4.86004 7.53604 1.42658
3.44948 -6.03756 1.11039
-7.2535 -1.29543 1.17998
3.53037 -5.71143 1.08175
3.56711 -5.61649 1.07109
7.12265 4.80122 1.39996
4.71214 7.45829 1.4363
-7.05137 -2.01783 1.19497
-7.07316 -1.94144 1.20324
7.01771 4.86299 1.41228
3.86882 8.0378 1.47756
6.06586 -3.32621 1.15252
6.68353 4.90999 1.38303
4.71277 7.24375 1.44205
3.83872 -5.30378 1.1005
7.15647 4.45648 1.41978
7.51874 2.87508 1.36059
6.37117 5.32617 1.40775
-7.25698 -1.2519 1.25367
6.79927 4.1109 1.36478
-6.43572 -2.76542 1.1949
5.5187 -3.63575 1.13536
5.70122 -3.52503 1.15095
2.79844 7.97645 1.46239
-7.3495 -1.03627 1.28637
5.34192 -3.78918 1.14177
-6.29645 -2.25444 1.15937
-6.25731 -2.41128 1.17385
4.28408 -4.66788 1.10805
4.4978 -4.48097 1.11381
4.59599 -4.45319 1.12281
-6.78306 -1.72796 1.23269
4.37783 6.56834 1.40866
-7.13804 -0.925493 1.28619
-6.13083 -2.25283 1.16311
6.68266 3.71606 1.37096
6.14326 4.39288 1.37018
3.61027 -5.32981 1.1708
5.19369 5.73622 1.41581
2.55335 7.30822 1.45523
6.52306 3.07014 1.36339
-1.70654 -5.78238 1.14102
6.44429 -1.3898 1.25097
6.30805 2.79343 1.3285
6.25051 2.39388 1.33564
-4.4289 3.91871 1.38921
4.35079 3.55557 1.34442
4.23413 3.31045 1.33105
4.66939 -1.67922 1.24624
4.82439 -1.38254 1.25571
-2.12608 4.76131 1.30088
3.72565 -2.95191 1.22222
3.6716 -2.5485 1.19343
3.40397 -2.95944 1.22516
4.0198 2.57957 1.33526
-2.59611 -3.53611 1.25113
-2.32807 -3.57328 1.21677
3.7661 2.06414 1.3062
3.74226 1.98603 1.30549
-2.83029 3.46964 1.37985
-2.29866 -2.42136 1.18777
1.94984 -2.77355 1.21006
-2.11751 2.75818 1.31935
-2.02301 2.74649 1.32559
2.24614 -1.86599 1.22349
2.37626 -1.49585 1.22101
-2.0127 1.87316 1.29249
-2.06639 -1.44408 1.22859
1.44467 -2.06384 1.24251
-1.99414 -1.08848 1.21446
-1.9263 -0.708033 1.21974
-1.92801 -0.703801 1.24531
-1.95666 -0.344487 1.22829
-1.89413 -0.564951 1.22953
-1.8937 -0.531139 1.23459
8.25833 -8.73952 -7.49931
12.2037 -10.353 -8.85553
-8.61646 15.3771 -6.83667
20.9402 25.5028 -11.8589
-8.76973 -2.51151 -2.57043
-33.7314 -22.5326 -7.49411
-33.3595 -21.8161 -5.88169
-33.0856 -22.4843 -5.94096
-30.6045 -19.6277 -2.73431
9.34161 -8.8977 -0.394068
-7.43349 16.0231 -0.436041
-29.0207 -11.23 0.716717
-6.88936 -8.23391 0.458535
17.1199 24.5835 1.62708
11.5925 16.3034 1.65449
-6.67339 -6.6465 0.880582
4.31269 12.5148 1.52597
8.82055 9.18796 1.48987
8.00983 -8.80439 -10.4269
8.87635 -8.58185 -10.5488
6.988 -11.9876 -11.562
6.90286 -11.3979 -10.9409
8.19126 -8.30352 -9.57706
7.05144 -12.0764 -11.3704
7.09835 -11.021 -10.5013
8.04081 -8.41761 -9.24727
6.75824 -11.3338 -10.333
6.47405 -11.7467 -10.2557
7.79485 -8.89264 -9.0143
6.23337 -14.3751 -11.8556
8.34143 -8.74524 -9.14719
6.32795 -11.9592 -10.2175
6.17321 -12.1353 -10.1516
7.52968 -9.4929 -9.04587
7.94785 -9.09915 -8.96888
10.5366 -9.51181 -10.5562
6.14359 -14.1623 -11.4094
6.12114 -13.7073 -11.0363
6.15757 -12.627 -10.3316
9.24867 -8.87537 -9.40249
9.3372 -9.12354 -9.52052
5.89027 -12.5555 -10.0736
9.41336 -9.03962 -9.31324
6.89739 -11.182 -9.32303
5.63925 -13.0202 -10.0414
9.75096 -9.13595 -9.46875
7.64718 -9.39012 -8.51361
10.0592 -9.24316 -9.59645
10.9875 -9.55379 -10.2158
11.521 -9.76603 -10.142
8.42867 -8.65258 -7.99663
7.46978 -9.34674 -7.90482
8.21223 -8.76572 -7.93872
7.66856 -9.40083 -7.93638
7.87864 -9.45128 -7.88535
8.36544 -8.58092 -7.66019
0.35238 15.8549 -10.1191
7.56806 -9.37338 -7.66578
10.9849 -9.67196 -9.30488
7.26807 -10.7631 -8.21862
8.19899 -8.54259 -7.46665
4.62732 -15.4444 -10.1388
8.75834 -8.74465 -7.6569
7.96351 -9.07981 -7.44894
4.05933 -18.051 -11.3959
8.24147 -8.67303 -7.31366
4.09177 -17.3164 -10.8567
0.138808 14.8577 -9.04115
6.69203 -11.3242 -8.00729
7.78294 -9.31551 -7.36465
10.1958 -9.37669 -8.40417
6.85848 -11.3119 -7.94052
8.1051 -9.25468 -7.38381
11.3501 -9.76627 -8.95138
5.42623 -13.9168 -8.85789
7.77677 -9.31551 -7.19579
9.4071 -9.08718 -7.7495
6.94169 -11.1771 -7.78615
8.02702 -9.17722 -7.15347
9.81547 -9.24615 -7.85783
14.9892 7.49056 -9.73438
8.71903 -8.88338 -7.19178
6.97134 -11.0237 -7.49508
2.64967 -11.2477 -6.64502
7.90303 -9.12084 -6.91128
9.66712 -9.19877 -7.57943
10.8658 -9.55899 -8.16319
0.124009 15.2985 -8.62954
3.27609 -20.547 -11.7009
6.83673 -11.038 -7.27794
10.173 -9.35232 -7.7379
12.4423 -10.4398 -9.10715
9.29659 -9.06183 -7.25372
4.63829 -14.3557 -8.40951
8.05088 -9.26998 -6.81827
14.9128 7.62483 -9.19784
9.75977 -9.16519 -7.3523
0.829781 17.4755 -9.55511
2.73603 -19.7834 -10.8903
11.2091 -9.71294 -8.05217
4.25871 -14.5009 -8.17951
14.825 7.75346 -9.01405
15.2393 10.5227 -9.94634
14.1523 7.80821 -8.63907
11.0285 -9.68582 -7.80449
13.3801 -10.8956 -9.1777
3.03772 -19.2658 -10.2534
11.439 -9.89655 -7.69558
2.16565 -20.3112 -10.3099
10.3338 -9.40801 -7.02648
14.396 -11.3859 -9.21425
13.934 -11.27 -8.9704
11.0898 -9.72674 -7.34823
7.55088 -9.38988 -5.96637
3.57328 -8.49127 -4.53975
-8.66558 -1.90263 -4.36158
2.21592 -20.0535 -9.8961
4.54406 -9.3223 -5.07166
0.397616 13.6623 -6.69188
7.64999 -9.32093 -5.88345
-8.36604 15.9578 -8.7228
-9.16144 -2.4219 -4.56562
15.1421 -11.6929 -9.19243
19.5813 5.6028 -9.74188
-10.2631 -2.54097 -5.00062
1.90738 -20.4844 -9.78268
17.4542 16.4044 -11.3487
7.63051 -11.2796 -6.42476
20.2466 5.46505 -9.87765
14.1507 -11.2028 -8.39192
2.94282 -17.3934 -8.20142
19.5623 5.78818 -9.42639
18.0462 -13.1509 -10.3129
9.90342 -2.50156 -4.72018
20.5054 5.19745 -9.76157
17.585 16.5384 -11.1278
1.80524 -20.1223 -9.24655
9.73019 -9.0982 -6.0993
-9.17091 -1.66461 -4.25045
9.48747 -3.48136 -4.60327
6.75626 -11.3882 -6.02182
9.95121 -2.62855 -4.66913
19.4548 5.93251 -9.15851
17.9982 17.8546 -11.401
9.40254 -3.0974 -4.45655
15.5903 -11.9964 -8.82654
7.08343 -11.6366 -6.09226
7.1929 -10.979 -5.84954
9.59471 -3.41746 -4.53929
-9.8546 16.146 -8.41808
17.8552 -13.0305 -9.82103
19.7453 5.68821 -9.10933
16.2656 7.37813 -7.91126
18.1124 18.2969 -11.3903
16.5987 -12.3443 -9.11575
-11.0533 16.8038 -8.83686
-6.46591 14.7674 -7.06477
-5.20129 4.87764 -3.10535
20.3549 5.52683 -9.17133
9.5936 -3.41771 -4.39564
18.5231 18.7765 -11.3404
15.9853 -12.3011 -8.67815
15.0052 7.50294 -7.16204
3.85294 -9.33548 -4.29034
-10.9847 16.7021 -8.45949
6.9854 -10.9697 -5.48289
-13.4738 3.30199 -5.84392
0.742164 -22.2147 -9.36752
15.9593 -12.083 -8.37023
-5.12573 5.64307 -3.18791
0.995166 -22.0701 -9.26184
1.2321 -20.7132 -8.69281
14.3043 7.67228 -6.79136
18.8751 19.6727 -11.3954
3.7953 -8.98327 -4.06636
14.9175 7.80668 -7.01052
18.2254 19.4675 -11.071
-9.46959 -1.08684 -3.93433
4.01655 -8.52089 -3.8593
14.1711 7.82534 -6.64763
6.88502 -11.0516 -5.32247
-13.5178 2.52514 -5.62487
-7.84125 15.1844 -6.94117
19.6212 21.3231 -11.7439
15.2233 7.31515 -6.80711
-5.20651 14.2069 -6.06348
14.0836 -11.1342 -7.03086
1.53727 19.4028 -7.56252
-8.6064 15.5383 -6.89918
19.1975 5.85473 -7.77812
-1.74385 13.1665 -5.14284
5.31973 -9.43577 -4.17678
-2.36681 13.3665 -5.21202
19.9884 23.1257 -11.7254
4.67606 -8.54309 -3.6983
19.6325 5.63228 -7.77356
0.86741 -26.0846 -9.92049
15.0549 -11.6011 -7.15168
20.2015 5.4731 -7.83491
9.47811 -3.45329 -3.77189
0.52868 -22.3059 -8.31704
3.26778 -10.8556 -4.23441
20.6152 23.9871 -11.7504
0.908044 -8.69985 -3.24422
14.1574 -11.2116 -6.65813
20.6176 5.24396 -7.82347
18.19 17.9756 -9.34927
-12.9424 2.26737 -4.77652
21.3081 25.4487 -12.0431
2.29872 -13.3152 -4.86704
13.1469 -10.6315 -6.08326
0.793101 15.5058 -5.55738
-8.17108 -2.7884 -3.088
0.408316 -21.5496 -7.70628
-4.1594 13.6367 -5.06817
0.635498 -21.6904 -7.71255
16.027 -12.1044 -7.11749
-15.4458 17.8547 -8.31732
5.95787 -11.3924 -4.51971
-10.8355 16.3484 -6.84725
0.0956268 -18.2975 -6.43337
14.3977 -11.41 -6.42265
20.5729 5.41819 -7.42713
0.653878 -22.7618 -7.86538
-4.93751 14.3221 -5.18746
3.65145 -8.4757 -3.17644
4.89584 -9.06797 -3.53095
-14.2411 17.6784 -7.76746
2.28163 -10.9118 -3.8199
-8.73484 15.8408 -6.16312
3.05466 -13.8124 -4.82152
-14.7074 18.0495 -7.89026
20.3894 5.54369 -7.10342
22.6118 27.9751 -12.0274
36.914 -20.8375 -14.163
-5.2221 13.8421 -4.91041
1.92841 20.9777 -6.9935
1.26788 -10.243 -3.41261
33.175 -20.8548 -12.8841
-5.17221 14.2317 -4.91522
-12.3635 16.9235 -6.7962
18.8066 -13.4013 -7.49794
3.56747 -8.68979 -3.01158
6.25384 -10.1673 -3.82483
2.31744 -11.0202 -3.58341
-4.42566 -33.283 -10.6751
-1.11285 -23.3991 -7.45891
15.2022 10.4704 -5.82781
-12.9725 17.26 -6.82204
-17.6344 19.0191 -8.15068
3.01408 -9.71967 -3.21006
7.01093 -11.1722 -4.07699
1.37643 -21.6891 -6.72372
-2.51127 -26.7918 -8.2625
7.35751 34.0178 -10.6271
0.768425 15.0987 -4.59399
-10.9296 16.4884 -5.95962
-2.6301 -25.8595 -7.83071
-14.0761 17.5979 -6.72148
-5.15297 -33.8239 -10.19
0.828368 -24.6172 -7.36646
-5.29731 14.5607 -4.60592
2.09846 20.9489 -6.20646
-20.8425 19.4332 -8.40534
18.409 5.85826 -5.68779
-4.22858 14.1891 -4.35058
-7.78507 15.0993 -4.98127
4.27556 -9.1849 -2.97727
4.66706 -11.6915 -3.68008
-12.5281 2.207 -3.65578
-31.7195 -44.9328 -15.8295
-14.9073 17.9321 -6.70128
7.01335 -11.1696 -3.79613
2.57181 -9.57301 -2.81611
13.0465 -10.56 -4.77593
-8.41901 -2.45018 -2.48622
21.6064 27.8688 -9.99574
-8.54511 -2.25217 -2.49704
-2.47781 -25.3154 -7.14139
-12.9305 1.98146 -3.64268
4.4203 -11.4111 -3.39564
-9.13378 15.705 -4.98523
-12.8095 17.0822 -5.86224
-5.29276 14.1181 -4.11818
-8.18232 -39.7582 -11.1097
-21.0146 19.6099 -7.7252
-9.54551 15.826 -4.95049
-26.1161 20.0616 -8.75951
11.5812 11.657 -4.33826
4.36015 -11.3803 -3.22764
48.3679 -14.0606 -13.3421
-7.85654 -37.09 -9.96921
4.11057 -8.70179 -2.53359
11.2602 -10.0153 -3.94168
-14.1618 17.7307 -5.89843
6.57642 -10.4866 -3.20326
3.19332 -9.69058 -2.63723
-28.996 -42.4685 -13.2812
-4.20947 -27.6248 -7.23333
3.56339 -10.4356 -2.84272
4.09012 -9.43691 -2.64306
15.7828 -11.8675 -5.03755
-7.00575 14.9214 -4.16962
-30.4409 -40.5973 -12.8696
4.34377 -11.225 -3.04548
4.27348 -7.73789 -2.24943
6.58478 -10.7404 -3.14118
45.9529 -13.8936 -11.9678
-27.5973 20.8209 -8.54549
-11.2996 16.5995 -4.94814
-26.7046 -38.9577 -11.6152
-9.49477 -37.3814 -9.5171
-23.9271 20.0965 -7.67728
4.37579 -10.3917 -2.76972
-11.8216 16.9315 -5.00482
-7.68839 14.9769 -4.05532
10.3475 -9.33334 -3.33616
41.2016 -13.6861 -10.3877
15.2771 7.64046 -4.06797
-6.06412 -34.7474 -8.40575
3.98306 -9.12647 -2.35915
48.2256 -12.9072 -11.8472
-11.5912 -42.6885 -10.4826
4.22941 -9.04962 -2.38245
3.89904 -11.1821 -2.78993
4.93374 -8.73798 -2.36028
-12.5181 17.058 -4.92217
11.0923 -9.72055 -3.37046
-5.98891 -30.383 -7.06861
-26.5147 20.4785 -7.59313
42.4631 -9.28663 -9.86318
-29.7252 21.5819 -8.23471
-34.647 -22.705 -9.28243
-5.22693 -24.8939 -5.67437
41.6457 -12.874 -9.78594
5.4861 -9.52858 -2.45439
-12.3163 2.81032 -2.77174
41.5213 -12.1679 -9.55854
43.5746 -12.4331 -9.96814
28.4841 40.1193 -10.7824
-5.25758 13.789 -3.22408
13.5227 -10.8816 -3.8199
38.8639 -12.4895 -8.97303
-22.8512 19.9159 -6.57384
-27.4087 -67.5783 -15.8286
4.33687 -9.76066 -2.31563
4.56567 -9.2337 -2.22449
-14.2663 17.7737 -4.86559
-30.1297 21.8856 -7.95073
-30.9728 21.9803 -8.11771
-25.9871 -68.9516 -15.7997
-10.4583 16.3407 -4.11188
-8.11338 -34.4497 -7.52891
3.21165 -9.74898 -2.18821
3.99477 -9.89952 -2.27551
46.9286 -10.8806 -10.2823
15.1076 7.56737 -3.5836
-14.8236 18.2472 -4.97589
5.19235 -9.10435 -2.2016
27.6363 39.9891 -10.1638
-27.0567 -26.478 -7.86145
15.1529 7.93042 -3.55223
-29.5293 -22.8055 -7.7406
-30.1221 -77.2383 -17.1691
41.4027 -11.1422 -8.86613
-11.1984 16.4987 -4.05035
-15.279 18.0643 -4.81516
-34.1794 22.9439 -8.36421
45.4899 -9.92252 -9.49375
-12.628 -40.6365 -8.65174
4.16309 -9.79783 -2.16538
4.28862 -9.76618 -2.17372
11.7 -9.72596 -3.09512
-11.7326 16.8362 -4.09477
-18.7188 -53.727 -11.3743
-12.4341 -38.6297 -8.03701
4.09704 -9.98701 -2.13674
-33.3681 -22.8167 -7.96938
-26.0755 20.465 -6.52301
-32.4269 -23.1954 -7.77234
-6.72263 14.852 -3.16221
-24.9542 -58.6371 -12.3814
-32.8471 -21.8673 -7.60478
3.4582 -9.4227 -1.93769
47.004 -10.8906 -9.26396
-12.4601 17.0114 -4.02957
4.01465 -9.40434 -1.95092
-35.6376 -21.6473 -7.89372
-20.6488 -33.5438 -7.49254
-14.8406 -42.8231 -8.57825
38.7047 -12.7678 -7.70356
-34.8924 23.4349 -7.86548
-32.9604 -22.7631 -7.52559
-31.9358 -23.3654 -7.42864
-20.1894 -50.0196 -10.1523
-16.0927 -43.7145 -8.6433
3.83961 -9.25282 -1.85003
43.5694 -11.7428 -8.37841
5.79532 -9.77617 -2.08241
-23.1814 -52.5655 -10.5208
-19.4314 -48.2329 -9.40763
-14.2211 17.7267 -4.02847
-30.417 -24.5319 -6.94664
-19.8612 -26.4659 -5.91801
-38.1502 24.0734 -7.95872
-26.0794 20.4774 -5.7706
-33.109 22.6564 -6.96521
3.93776 -10.1218 -1.88274
4.79673 -8.65741 -1.71975
14.1517 7.60002 -2.77178
14.2328 8.16757 -2.81182
-29.9858 21.8053 -6.35549
43.2411 -12.2339 -7.64965
43.0134 -11.1402 -7.56295
-30.575 -24.2823 -6.62396
-20.5503 19.5715 -4.76473
-19.342 -48.078 -8.7586
15.0204 7.52838 -2.81903
-30.8289 21.8251 -6.30907
-22.2546 -53.0608 -9.50999
44.6319 -12.0236 -7.51206
-10.1005 16.0345 -3.05675
-19.5963 -48.6168 -8.36218
-34.0998 -23.5392 -6.52981
-22.2191 19.5214 -4.63078
-24.6763 -15.4698 -4.59978
-23.5668 20.1182 -4.80191
-38.8457 23.52 -7.03671
-10.9496 16.3877 -3.04144
3.49753 -9.59833 -1.57949
3.90185 -10.3175 -1.70742
-7.4088 15.0259 -2.55725
-30.1991 21.9799 -5.70927
-31.065 -23.9936 -5.96924
-27.3345 -25.5683 -5.67072
43.2166 -11.2351 -6.78645
45.9813 -10.0178 -7.16874
-6.35984 14.164 -2.32144
9.87904 -5.17833 -1.65555
-32.7446 -23.6171 -6.01278
-24.687 -62.4245 -9.95831
10.2699 -9.23383 -2.05787
46.1374 -10.6735 -7.03185
-35.792 -23.8263 -6.3285
-30.7964 -25.4021 -5.84023
-12.078 -40.0219 -6.15289
17.1268 -12.3912 -3.09586
-24.7356 20.3657 -4.65597
-23.3748 -52.3753 -8.26652
-7.41058 14.8416 -2.37062
-12.4024 16.9098 -2.98896
6.0944 -11.643 -1.87726
-13.0778 17.4796 -3.06564
-33.6782 22.7506 -5.71382
6.81964 -11.1394 -1.82503
38.4225 -12.6803 -5.68982
-30.4663 -24.4126 -5.44906
-32.0307 23.0191 -5.46408
-19.5647 -47.1554 -7.0529
46.2959 -10.3571 -6.54082
-6.6681 14.7455 -2.20997
-21.2324 -55.4151 -8.06351
7.8028 -9.44271 -1.64361
9.2495 -9.10553 -1.79008
-13.6613 17.4433 -2.98606
13.3481 -10.6463 -2.3098
-21.6648 19.7068 -3.93783
43.1435 -11.155 -5.91526
46.0047 -10.0771 -6.2328
-22.0468 19.4015 -3.84
-31.962 -23.9166 -5.21456
-14.5293 17.7917 -2.96946
-33.0484 22.0582 -5.15848
-37.5327 -15.8477 -5.26075
7.07305 -10.519 -1.626
10.892 8.91787 -1.80886
-33.0627 -22.7845 -5.13884
-30.5388 22.2942 -4.78289
-34.7954 -21.7125 -5.14114
42.9921 -11.1185 -5.55642
6.8507 -10.4511 -1.5611
-7.43908 14.8789 -2.05853
-24.3636 20.4578 -3.89544
-32.4109 22.8425 -4.89119
6.36133 -12.1998 -1.67557
45.9527 -9.80408 -5.75445
15.1723 7.94901 -2.06042
-17.1758 -41.5999 -5.42799
7.14448 -10.6182 -1.54057
-20.2299 8.96578 -2.61926
-13.6327 -41.2399 -5.10841
-31.1496 -24.0157 -4.59945
-30.6423 -24.506 -4.59176
43.0879 -11.5421 -5.24194
11.3246 -9.75253 -1.73119
-29.0387 22.0187 -4.19281
6.69917 -10.9153 -1.46579
7.53681 -9.27911 -1.3672
11.6827 -9.80743 -1.73222
9.49235 -4.63083 -1.19614
15.1487 7.7846 -1.92052
-10.0785 16.0447 -2.13763
-31.2408 22.8281 -4.33476
39.7918 -13.0992 -4.69709
9.42256 -9.08655 -1.44799
-10.7833 16.1726 -2.11247
6.87323 -12.9397 -1.58653
46.1032 -10.02 -5.11396
10.893 8.95164 -1.52077
16.9848 -12.6168 -2.2703
43.2939 -11.2287 -4.79179
9.68765 -9.04276 -1.40382
8.43021 -8.51586 -1.25517
-30.2268 -24.1883 -4.03141
-28.4076 -56.9803 -6.64277
15.1444 7.5952 -1.73194
-31.095 -23.9761 -4.02894
-12.5291 17.0798 -2.15047
-12.4583 16.6913 -2.06994
10.2835 -9.15564 -1.34863
-19.6888 -50.0028 -5.2693
6.39011 -12.2373 -1.33567
9.55684 -9.02294 -1.24299
16.8491 -12.3271 -2.0063
43.1835 -11.6041 -4.28548
-28.8557 -58.3286 -6.18679
-19.5988 -51.4336 -5.22801
-22.7132 19.8672 -2.82119
46.8511 -10.4227 -4.48231
9.78622 -9.05156 -1.23384
40.6659 -13.4148 -3.98948
-14.6377 17.9436 -2.09699
-29.2086 -13.317 -2.92643
-30.3702 -59.2045 -6.13373
16.0459 -12.0103 -1.82285
8.69229 -8.78389 -1.11889
-35.488 -20.1271 -3.57424
13.0174 -10.7453 -1.46954
46.426 -10.7609 -4.08181
9.46843 -9.09191 -1.10329
11.0412 -9.72314 -1.23641
-33.1353 22.7559 -3.34558
17.0531 -12.4357 -1.74769
-16.1351 -41.9867 -3.60308
14.846 -11.6087 -1.50245
-11.3236 -31.7014 -2.65733
-28.9698 22.0276 -2.815
-32.1103 22.6971 -3.03624
-21.5213 -49.1607 -4.14321
7.65129 -9.36256 -0.964969
-49.2097 26.7824 -4.24352
-20.839 19.6129 -2.08208
-32.3291 22.8676 -2.87058
16.5834 -12.3912 -1.51398
43.2185 -11.5655 -3.25882
-36.5196 -69.0988 -5.64013
14.1235 -11.1747 -1.28858
-14.8667 -39.4376 -2.90905
10.8539 -9.69333 -0.996843
-22.7342 19.9062 -2.04135
12.9963 -10.724 -1.12766
18.1957 -13.1972 -1.49809
-22.064 -50.8343 -3.66265
16.2391 -12.2831 -1.34433
-14.0126 -38.8514 -2.67169
45.0715 -11.7222 -2.91036
-29.8392 -60.4591 -4.11394
36.5988 -8.87905 -2.31087
44.1779 -10.1117 -2.78175
6.13672 -13.2653 -0.873188
31.662 -20.9508 -2.27087
-9.56264 15.9637 -1.09396
-14.8961 -38.8579 -2.36947
16.8207 -12.571 -1.17869
-9.60098 -12.4461 -0.861475
15.1393 7.76705 -0.920752
14.0481 -11.1206 -0.959168
-12.4549 16.8786 -1.09597
-15.7679 -39.0819 -2.2379
15.0333 7.90504 -0.833213
-15.5787 -39.8212 -2.09775
-13.7849 17.4727 -1.06474
9.63425 -9.08771 -0.607343
-22.6211 -51.8901 -2.56081
12.5685 -10.3324 -0.75411
-15.2049 -42.3851 -1.99877
-16.4447 -40.5163 -1.87156
6.94484 -12.824 -0.646725
-13.2358 -40.3476 -1.80835
-50.5204 27.4752 -2.33108
18.5948 -13.3592 -0.928835
17.0187 -12.6501 -0.825518
-38.1997 -74.1418 -3.1452
-17.2742 -45.2986 -1.78484
-32.6359 22.4242 -1.4493
43.7124 -11.2631 -1.62489
-32.1337 -63.9193 -2.39235
-24.3745 -53.4167 -1.97594
20.7097 23.9521 -1.0529
-20.8815 19.5682 -0.933221
8.24151 -14.546 -0.561177
9.4888 -9.05858 -0.425155
11.3976 -10.034 -0.493452
18.8545 -13.3317 -0.758551
35.6022 -13.4281 -1.2622
22.6429 27.4093 -1.14169
-26.9597 -13.5227 -0.94553
-22.2983 19.857 -0.910813
-30.7797 21.8 -1.17816
-23.4758 -53.9713 -1.82184
-13.2199 -37.3995 -1.22122
-20.2477 -51.6501 -1.67876
-15.7865 -42.7847 -1.30575
-33.3104 -20.1968 -1.03753
11.547 -9.79588 -0.405519
16.5415 -12.3034 -0.54318
-39.6691 24.5411 -1.23143
-29.3978 22.3693 -0.914984
-29.9157 21.9248 -0.877924
9.63662 -9.07181 -0.306514
-40.2579 13.9144 -0.94251
-29.9188 -50.0998 -1.31324
21.6076 -14.4514 -0.571002
31.1998 -18.9189 -0.822869
14.3546 3.96704 -0.304191
29.067 50.7948 -1.07859
23.8982 -11.126 -0.463969
48.5068 -11.1698 -0.925333
-30.0144 -21.5693 -0.67384
-28.8498 -28.3362 -0.640826
-18.0585 -44.3114 -0.795768
12.8434 -10.5616 -0.27343
18.7867 -13.5753 -0.353908
-28.8033 -12.8023 -0.413943
-32.09 -24.0153 -0.55745
-31.1266 -62.7484 -0.943997
-26.0742 -55.4942 -0.838741
-33.1801 -22.6601 -0.524414
-29.4136 22.3778 -0.436291
17.2212 -12.8605 -0.254941
29.9647 -18.5797 -0.414308
-29.8811 21.9372 -0.413914
-37.1076 -20.7343 -0.478472
-18.2371 -41.8258 -0.487125
-11.5391 -34.7326 -0.367689
-31.5557 -55.6008 -0.587553
-13.9476 17.6926 -0.173725
-26.3119 -13.2656 -0.237998
-14.6217 17.824 -0.158491
-21.9791 19.6295 -0.152713
-20.4626 19.1935 -0.128655
-10.4584 -13.4451 -0.0597163
14.8998 7.82727 -0.0208187
11.2029 -9.85114 -0.00774834
-33.798 -18.5118 0.0588709
-10.9155 -32.4409 0.11248
17.1763 -12.4793 0.0923865
-17.9837 -41.2871 0.201506
19.0482 -13.421 0.124049
7.2619 -12.4832 0.105477
26.4328 -10.8449 0.176054
-53.4417 19.0827 0.539597
16.4521 -12.1929 0.195733
38.2902 -7.8176 0.36914
-28.6508 -8.07877 0.347929
-35.4766 -21.4128 0.457233
-10.9324 -31.3226 0.356954
-52.2511 28.6369 0.726823
-12.2349 -33.9039 0.430355
-9.92679 -30.5131 0.386115
6.42019 -13.1232 0.186543
7.283 -11.2201 0.17594
-27.4022 21.5101 0.532074
11.4115 -9.96621 0.227878
-23.4891 20.0877 0.508897
10.9923 -9.81494 0.231378
13.1028 -10.7868 0.267529
37.1967 -7.9608 0.633233
-33.7907 -22.6391 0.740159
-30.35 21.7007 0.731197
6.22977 -13.0163 0.280014
7.08892 -11.1561 0.254686
8.08345 -9.48547 0.243408
29.6294 60.9258 1.4715
7.78394 -9.51097 0.277891
10.2068 -9.24476 0.332291
-28.3906 -9.10362 0.717944
-22.7141 19.8262 0.814421
-26.8296 21.1553 0.915594
-28.5185 -8.56303 0.784402
9.254 -8.95776 0.347955
9.69372 -9.00966 0.360786
-24.8978 20.9844 0.883338
25.7359 -5.20648 0.731218
13.1126 -10.7571 0.505348
15.2734 24.8816 0.899914
6.275 -12.9452 0.452641
7.5348 -11.7457 0.437926
-28.0619 -7.91425 0.956376
-12.4258 -19.0252 0.749144
-27.7519 -8.67375 1.00505
16.3399 11.1839 0.715237
-29.2984 -18.155 1.20496
16.321 28.3513 1.16664
-29.9199 -16.3203 1.26308
23.8396 -4.30489 0.875352
-27.3433 -19.447 1.24363
-7.26571 -7.92207 0.405604
9.11342 -8.88702 0.473189
12.6339 13.8203 0.721507
27.9114 57.5798 2.42201
26.7185 56.8866 2.36529
-11.4824 -9.08874 0.577386
8.78028 -8.72567 0.489691
-24.9963 20.5912 1.31323
22.0931 -2.99428 0.903319
-28.3155 -17.1988 1.35739
9.48067 -8.98961 0.535702
12.6718 14.5943 0.831098
6.65833 -12.6096 0.605448
15.1991 19.7489 1.09505
21.4758 29.6639 1.6032
-9.40853 -13.6801 0.730028
-9.87145 -15.4385 0.813798
7.66668 -11.0499 0.592521
8.68025 -8.77033 0.557631
24.5047 -3.75397 1.11943
-29.4245 -8.57468 1.3987
6.80596 -11.1889 0.602512
-8.23632 -8.10546 0.543787
22.54 45.4775 2.42751
-28.0824 -17.3559 1.56072
-9.68054 -13.5788 0.79397
9.72947 -9.02733 0.625134
16.5237 45.9191 2.36159
-29.777 -13.189 1.5544
-6.73575 -8.21183 0.522592
15.2549 35.4759 1.96988
-29.2937 -11.4714 1.57868
-7.56539 -6.95659 0.519404
-6.67644 -7.56844 0.510485
16.722 30.292 1.79607
10.6964 12.5075 0.889064
14.5415 19.7887 1.31809
9.40966 -8.98732 0.697176
15.1379 19.6964 1.37123
15.7047 24.2558 1.59066
-26.8578 18.9108 1.79888
-6.94529 -8.16216 0.594298
-25.7916 19.79 1.80583
6.17692 -13.0422 0.807222
-7.07314 -9.11536 0.657998
10.0986 12.6138 0.949987
15.3582 25.8767 1.75756
6.54876 -13.1528 0.845401
14.2095 23.1824 1.60569
-8.22345 -8.08327 0.694722
11.6815 11.7621 0.988261
14.9894 19.9361 1.49822
-7.35803 -9.9606 0.770252
7.07367 -11.2726 0.810933
11.3524 -9.79217 0.908896
5.91899 -10.8506 0.766847
-7.1724 -6.62948 0.610203
14.8084 21.0068 1.62588
16.3062 7.23812 1.1582
-7.01682 -6.1306 0.611264
6.5529 -13.633 1.00781
9.67278 21.8493 1.61176
10.5598 12.7279 1.13036
13.8195 18.5825 1.61497
12.6932 21.0454 1.70037
11.4912 12.1388 1.17302
6.64366 -9.90808 0.844695
11.6385 11.9074 1.20477
9.85446 -6.95631 0.858285
12.5142 12.1148 1.27902
9.98542 -8.43262 0.957454
-6.09982 6.61099 0.670641
10.5322 9.27396 1.05399
12.1563 18.1757 1.64506
11.7113 18.6586 1.65974
-6.92124 -7.67172 0.801166
11.0902 19.1417 1.69725
9.57354 -9.01355 1.01616
10.634 14.2746 1.39534
-6.40336 -4.29067 0.607665
9.39712 18.8271 1.68146
10.1316 -6.93305 0.982992
12.6034 11.6936 1.38966
9.97052 19.3589 1.75338
-7.22993 -9.58984 0.978339
6.75714 -9.43521 0.944269
12.39 11.8528 1.4048
12.2957 12.0925 1.43195
11.5633 12.0863 1.38464
-5.01857 -11.4543 1.05229
10.4542 13.0797 1.42462
-6.9418 -6.06598 0.793891
-6.79764 -6.67684 0.804732
-5.17988 -11.3608 1.06214
-7.2747 -7.71936 0.913398
9.32899 -7.29074 1.02295
-7.09488 -8.02859 0.93763
-6.99323 -7.6644 0.912433
9.51642 12.7026 1.40711
-6.92618 -8.34086 0.96861
10.915 9.15844 1.29846
10.6132 13.6693 1.56351
10.6225 9.32935 1.29409
7.85206 14.2535 1.49687
-6.47598 -8.108 0.950775
-6.87453 -8.98125 1.04399
11.3212 10.919 1.4512
11.3545 9.26417 1.37124
10.9879 10.9218 1.45221
6.62414 15.3079 1.56757
-11.3589 2.91 1.0989
-6.34909 -4.16286 0.711003
-6.78775 -6.27727 0.857231
9.57005 13.4967 1.59609
-5.97401 6.49128 0.867685
7.99108 -6.6347 1.01223
8.05616 13.433 1.55601
-7.04469 -7.5917 1.04333
9.4228 11.7822 1.52174
7.11532 12.6338 1.47168
7.17976 13.2274 1.53449
9.62218 9.17741 1.37611
5.98286 14.2629 1.60344
9.26519 12.6015 1.63078
-6.09562 -4.44827 0.790709
6.07888 13.9685 1.60499
6.3407 13.8892 1.60547
-6.95356 -4.417 0.88086
8.84928 9.10229 1.35342
9.23358 10.2865 1.50338
7.42321 11.1463 1.45554
5.91651 11.6538 1.42119
-6.28011 -7.3879 1.05981
10.3376 6.49698 1.35092
9.06623 8.20577 1.34798
7.41452 11.852 1.54387
6.94534 11.8046 1.51445
5.45039 12.1035 1.47722
4.96135 12.333 1.48769
4.81459 14.0024 1.62953
9.93854 7.10614 1.36423
8.84311 9.40022 1.44222
5.47141 11.7075 1.45559
-6.821 -6.70333 1.06435
6.95549 10.8567 1.45264
4.41896 13.4813 1.60404
9.79023 -3.20817 1.14872
-6.09077 -5.40212 0.942377
7.31259 -6.13957 1.08384
10.4807 5.75056 1.37112
-7.35858 -0.982752 0.85024
-6.24305 -5.34383 0.945723
5.25454 -5.56353 0.881642
5.15653 11.828 1.49931
-6.86616 -4.548 0.954123
4.46442 -7.27962 0.987494
10.4693 5.17915 1.37068
8.95519 7.94824 1.40567
-5.99075 -4.35996 0.863256
-6.47035 -5.26086 0.98496
4.10558 -7.89201 1.05783
4.97308 -5.85782 0.921866
10.2237 4.78052 1.35297
8.59054 8.34176 1.45045
5.36373 11.6857 1.56998
9.10331 6.3064 1.35596
8.08054 8.40963 1.46108
-6.47351 -5.73231 1.07624
3.71632 -7.59295 1.05867
8.73491 6.73503 1.38707
-6.45247 -5.33169 1.05917
9.1473 6.05051 1.40027
8.24281 7.19246 1.39583
8.17625 7.56505 1.42239
5.78632 -5.3541 1.01211
-6.95498 -4.43229 1.05838
8.16841 8.06506 1.48903
-7.3353 -1.03925 0.956765
-6.90697 -2.81979 0.973945
9.01973 4.12125 1.29873
8.45947 6.67392 1.41461
5.00604 -6.03725 1.03088
4.92446 -6.2026 1.0487
6.88435 -4.29151 1.07985
-7.11452 -1.71371 0.980633
-6.99237 -2.21452 0.980225
-6.01429 -4.41417 0.997123
8.19106 6.70434 1.4351
8.65373 4.46224 1.32753
8.67982 5.19608 1.38184
8.08755 7.19081 1.47315
-6.79288 -3.72495 1.05165
8.90547 4.18025 1.34667
8.31579 5.86935 1.39395
-6.38468 -4.32003 1.05461
-5.94662 -4.51681 1.01961
5.42121 9.13576 1.46766
3.70311 10.2454 1.51358
-7.3456 -1.08968 1.02793
-6.88778 -3.9177 1.0994
4.95486 -5.55024 1.02823
5.23528 -5.40553 1.04441
7.48188 -3.54569 1.15788
3.44657 10.3373 1.52762
8.44605 4.62259 1.3621
7.39296 -3.68709 1.17197
7.60614 -3.34331 1.18455
7.78225 -3.31437 1.20025
8.97697 2.82663 1.3547
4.83944 -5.64201 1.06843
7.37087 -2.85971 1.15107
-6.94177 -3.2922 1.11954
7.93949 -2.78711 1.22685
8.69178 -1.82576 1.30372
5.06583 8.67363 1.48311
3.00413 9.60361 1.49785
7.75246 -1.89287 1.17614
7.27501 5.79384 1.38584
3.51229 9.71733 1.52811
3.24289 9.97056 1.55473
-7.34777 -1.04018 1.09988
-7.05597 -2.01775 1.09332
6.99542 6.33266 1.42482
-6.25032 -2.26701 0.997414
-7.21923 -1.37131 1.10883
7.98333 4.84446 1.42278
5.76045 7.42285 1.42591
5.34405 7.70562 1.42753
5.11031 8.09871 1.4482
6.77295 -3.23209 1.13495
7.26301 -3.13192 1.2113
7.65547 -2.76248 1.24025
-7.29379 -0.730657 1.11896
-7.07838 -1.94926 1.13278
6.80273 -3.09905 1.15608
3.75285 -5.79123 1.0671
-7.03461 -2.07054 1.14925
-7.32381 -1.08957 1.1622
7.40156 4.80088 1.39352
-7.17797 -1.43936 1.16433
-7.25016 -1.29725 1.18133
-7.07862 -2.01364 1.1964
7.10831 4.78922 1.39931
-7.08218 -1.94022 1.20586
7.04826 4.89197 1.42527
6.65176 4.87901 1.37683
5.24616 6.29112 1.36492
4.71759 7.24056 1.44371
3.86801 8.02874 1.48197
-7.22817 -1.36951 1.22766
2.79233 -5.77678 1.08162
7.17889 4.45157 1.42319
6.55202 5.26933 1.41867
3.87619 -5.36879 1.11647
3.93846 -5.02328 1.0806
-7.25089 -1.24872 1.24769
-6.58327 -2.61923 1.20175
7.44642 2.85933 1.35301
7.06301 3.90952 1.37587
-6.40046 -2.74703 1.18467
6.80717 4.11842 1.36599
5.69071 -3.52474 1.15219
-7.37344 -1.03642 1.28719
-6.34315 -2.27548 1.15819
5.54281 -3.65286 1.14428
5.3254 -3.77859 1.1446
3.63481 7.23832 1.42541
-6.78216 -1.73072 1.22884
4.48336 -4.47077 1.11431
-7.07151 -0.911971 1.26968
4.72977 -4.46207 1.15074
4.36574 6.54886 1.40491
6.614 3.48867 1.35057
6.65494 3.69887 1.36795
-6.42613 -1.49699 1.18631
3.61036 -5.32858 1.1709
5.11177 5.6507 1.39553
-6.14267 -2.17882 1.19412
3.4134 -5.15898 1.15048
3.42177 6.83991 1.43152
-1.69732 -5.77997 1.14409
6.46811 2.74188 1.33709
-2.14239 -5.72498 1.17492
6.3319 2.80618 1.33354
-2.78606 -5.37349 1.18588
-3.49443 5.30546 1.37494
4.49128 3.91152 1.35966
4.1519 -2.87928 1.1774
4.63186 -2.18779 1.23792
4.21582 3.30469 1.32729
3.70663 -2.92964 1.2238
4.03054 2.58257 1.33776
-1.44563 -4.1237 1.22303
-2.32355 -3.58309 1.21311
3.87077 2.37112 1.31554
-2.84778 3.50862 1.35341
-2.48339 -2.91941 1.18996
-2.38094 -2.94077 1.19497
1.83694 -2.80295 1.17876
1.86004 -2.78151 1.2088
1.98618 -2.51931 1.19543
-2.03669 2.79616 1.31407
2.80226 -0.555341 1.25898
2.78198 -0.336642 1.24089
-2.09225 -1.62115 1.21352
-2.07985 -1.45293 1.23849
-1.86538 -1.79847 1.28429
-1.99729 -1.13266 1.20481
-1.98872 -1.0715 1.23159
-1.94836 -0.881233 1.23169
-1.93255 -0.709056 1.22184
-1.93138 -0.702128 1.24903
-1.90751 -0.470088 1.22167
-1.8728 -0.346016 1.21879
-1.85775 -0.401534 1.22558
2.37401 -19.6272 -9.97634
-7.56131 -8.92706 0.462579
8.0537 -8.83799 -10.5125
8.29824 -8.66458 -10.5459
8.24968 -8.32414 -9.926
6.98808 -12.0063 -11.4561
8.55724 -9.01605 -9.78697
7.88453 -8.97536 -9.17396
5.87301 -12.8444 -10.7672
9.47737 -8.88057 -9.79552
6.1718 -14.145 -11.6166
8.32648 -8.71948 -9.064
8.05582 -9.21169 -9.15034
7.3247 -9.28638 -8.81116
5.9352 -14.2073 -11.2327
7.75509 -9.34949 -8.76443
7.89226 -9.15857 -8.70823
7.16008 -10.6255 -9.12148
6.85129 -11.1217 -9.25932
10.1148 -9.24862 -9.62501
6.56947 -11.2246 -8.9027
8.07045 -8.66741 -7.88573
7.39554 -9.32417 -7.90803
8.55779 -8.72331 -8.12216
7.7598 -9.52056 -8.06826
6.51935 -12.8346 -9.39895
7.9726 -9.22563 -7.95191
5.01497 -16.0702 -10.8269
-0.478222 13.9037 -8.89601
7.76503 -9.28842 -7.7627
7.37403 -10.9197 -8.38858
8.41994 -8.60874 -7.67121
10.9475 -9.68402 -9.26993
9.03567 -8.86365 -7.93766
11.8538 -10.1079 -9.76205
8.11397 -8.5791 -7.26421
4.04648 -16.8518 -10.6214
4.26075 -15.4107 -9.81662
7.88519 -9.40678 -7.35526
3.95865 -15.6425 -9.6214
11.5636 -9.89929 -9.116
6.90002 -11.1332 -7.77648
7.80593 -8.85719 -6.99328
5.51191 -14.0547 -8.91873
6.521 -12.7671 -8.38884
8.40349 -8.6366 -7.02196
9.74636 -9.13562 -7.78862
2.80132 -11.8346 -6.97028
5.51414 -13.9835 -8.50948
9.65423 -9.16144 -7.52301
6.65092 -11.124 -7.2968
3.34102 -20.6305 -11.713
8.92758 -8.98776 -7.10094
12.2852 -10.3067 -8.98286
6.85784 -11.0595 -7.24881
4.7055 -14.6752 -8.516
6.25575 -12.6879 -7.78096
0.891482 18.6206 -10.1495
14.7554 7.79747 -9.06944
4.22389 -14.3042 -8.05427
14.8645 -11.7621 -10.2167
15.1146 7.5113 -8.99196
14.1398 7.79118 -8.57977
4.78451 -14.9007 -8.31464
12.1715 -10.2239 -8.3643
1.81105 -20.4147 -10.5443
11.4967 -9.92136 -7.77923
2.07888 -20.1547 -10.2819
14.0903 -11.1839 -9.09809
-0.00116077 14.2617 -7.15901
-7.18234 14.9229 -8.29747
10.6652 -9.66456 -7.23134
7.55617 -9.47715 -6.03821
17.8269 5.54809 -9.10861
-8.36437 15.851 -8.65976
11.7303 -9.85137 -7.41353
10.5642 -9.64828 -6.86946
14.9236 -11.441 -9.06906
16.9334 16.0427 -11.0844
7.5327 -11.1326 -6.40329
15.1554 7.48868 -7.93318
14.0454 -11.1214 -8.37239
-11.716 16.7741 -9.37233
15.9953 -12.1195 -9.1671
9.81884 -2.46194 -4.65035
-9.06824 -1.64859 -4.1911
19.0356 18.3704 -11.9393
3.92887 -9.13433 -4.5126
-10.0186 16.3623 -8.61388
-5.31002 4.41519 -3.1046
6.90312 -11.3637 -5.98487
9.48336 -9.13976 -5.8085
16.1768 7.37991 -7.84568
-6.51609 14.7925 -7.05798
1.50311 -18.7376 -8.13001
-10.95 16.6575 -8.58093
9.6233 -3.38502 -4.3697
7.06271 -11.1158 -5.56656
15.9761 -12.0763 -8.38233
14.7898 7.8186 -7.01844
19.0829 19.856 -11.5123
1.01673 -22.451 -9.3571
-4.46958 13.6605 -5.9207
-9.88206 -1.1053 -4.12082
14.2219 7.85337 -6.63477
20.8739 22.7079 -12.5755
-12.9617 2.42904 -5.37166
15.261 7.25116 -6.83461
-5.13364 14.0596 -6.01811
3.65287 -8.84283 -3.80779
12.4875 -10.3485 -6.35285
14.0692 -11.1087 -7.00487
19.6715 22.0187 -11.4563
19.0085 5.86169 -7.7143
1.54422 19.3886 -7.54318
-8.55322 15.4082 -6.79227
11.483 -10.1243 -5.88793
19.6265 22.7567 -11.5785
0.679152 15.4254 -5.91417
-1.65012 12.6296 -4.89939
2.71847 -12.2593 -4.81761
-8.73121 -1.24703 -3.35225
0.699478 -23.3982 -8.83417
15.3362 -11.7526 -7.28608
9.53145 -3.47797 -3.82762
-14.2591 17.5768 -8.43424
-7.8632 -3.49299 -3.15569
1.0945 -10.4347 -3.85903
7.07467 -11.3098 -4.87782
14.3354 8.00473 -5.92897
-8.26165 -2.83652 -3.14096
0.78694 15.3464 -5.48052
-3.88088 13.1144 -4.837
5.77212 -11.0522 -4.38734
15.9994 -12.0912 -7.10219
19.2899 5.95781 -7.10368
2.1409 20.9576 -7.39074
22.1725 26.8067 -12.0929
-14.526 17.9299 -7.91964
2.98778 -13.4057 -4.72658
-8.68852 15.6926 -6.12858
18.7062 -13.2491 -7.85578
-4.9399 14.1848 -5.10624
1.35079 -22.0287 -7.31446
1.77008 19.8028 -6.56983
1.44858 -10.3144 -3.44233
40.0879 -20.492 -14.7734
6.20075 -10.0982 -3.79276
17.7689 -12.5464 -6.96617
2.13356 20.8876 -6.68416
-13.0328 17.398 -6.85305
1.43699 -22.4425 -7.00811
-4.21504 14.4174 -4.66668
-10.6877 16.1927 -5.87927
-2.674 -27.2441 -8.31936
3.07659 -9.50624 -3.03627
0.786546 -23.9163 -7.19766
19.3724 -13.7505 -7.04848
17.7809 5.62526 -5.47314
-7.69998 14.9037 -4.88265
4.25064 -10.5464 -3.30425
3.64202 -10.629 -3.19729
4.26845 -11.0138 -3.31526
-12.9729 17.3393 -6.02319
-9.05306 15.4747 -4.87651
-13.1362 1.96916 -3.642
-16.4757 18.9288 -6.81357
26.7655 -17.62 -8.68183
-3.7793 -26.9598 -7.30454
3.79871 -9.18281 -2.6586
-9.55447 15.8813 -4.93259
48.4879 -14.1574 -13.3935
10.6074 -9.46065 -3.76208
-6.27732 14.5313 -4.13407
-14.0497 17.6145 -5.9121
-7.67698 -36.3343 -9.67649
4.9841 -9.62108 -2.80432
6.59787 -10.5587 -3.21173
-7.01403 14.8843 -4.18157
-10.2882 16.0232 -4.86479
-9.45137 -37.4604 -9.61114
-8.60794 -37.1666 -9.31956
11.024 -9.71805 -3.61336
-7.75853 15.0562 -4.10641
-11.4229 16.6024 -4.87784
14.7624 7.79809 -3.96385
4.06346 -9.29016 -2.39965
15.3701 7.61226 -4.04331
3.76268 -8.94595 -2.28117
-6.2944 -31.3711 -7.41159
5.65594 -9.93594 -2.6496
45.8334 -11.0916 -10.9597
-12.4756 16.9931 -4.85209
15.0214 7.69313 -3.81941
44.8217 -9.69624 -10.3879
-9.52987 15.8733 -4.14344
3.73517 -9.30416 -2.18094
43.9618 -11.2779 -9.90509
15.2835 7.58225 -3.65458
-10.3543 16.1624 -4.11091
-21.2545 -33.4145 -8.50914
4.84834 -9.8061 -2.3597
46.146 -10.805 -10.1397
-14.3937 17.8331 -4.82129
-31.4883 -23.2411 -8.296
42.6576 -14.2729 -9.51551
15.0087 7.93102 -3.5414
-34.3551 23.2327 -8.48046
-8.00923 -32.7629 -6.83273
3.98246 -11.5933 -2.46365
45.6477 -9.84893 -9.49764
11.8738 -9.82867 -3.09098
43.9871 -11.3238 -9.05069
-26.2485 19.8078 -6.52697
6.18475 -10.3517 -2.40047
47.0846 -11.0107 -9.44372
-12.4505 16.9877 -4.0699
-26.1082 20.4607 -6.44552
16.2735 12.3098 -3.90155
-6.67968 14.7025 -3.09923
-32.3562 -23.4035 -7.64401
-30.8965 -24.194 -7.54203
-34.5787 23.0418 -7.82466
-32.877 -21.6877 -7.44345
18.2149 5.72667 -3.56467
-33.4098 -20.1584 -7.28757
-14.3281 -41.3107 -8.14795
3.79544 -9.88537 -1.99347
-22.9862 -57.2285 -11.4727
