ply
format ascii 1.0 
element vertex 1875
comment /media/mkaihara/Seagate Backup Plus Drive/model_iterations/model_20.ply
property float32 x 
property float32 y 
property float32 z 
end_header 
-7.09634 -1.705 0.980595
-7.02885 -1.94084 0.980194
8.9156 4.92221 1.38298
8.45933 5.963 1.40701
-6.8671 -3.59081 1.05565
8.98148 4.21531 1.36062
3.47994 10.9389 1.57279
-7.25444 -1.19036 1.00568
-5.966 -4.40884 1.0201
-5.94619 -4.50659 1.02127
7.20745 -3.96686 1.13048
8.20414 6.59221 1.45544
5.49209 9.28302 1.49398
-6.33346 -4.28842 1.0484
4.97543 -5.57333 1.03748
7.2451 -3.86157 1.14234
7.62498 -3.71817 1.17352
3.74858 10.4008 1.54053
3.5666 10.7333 1.57811
-7.30964 -1.07337 1.03075
-7.01985 -1.98853 1.01621
5.01272 -5.3305 1.02254
7.30728 -3.76881 1.15481
7.4253 -3.70327 1.17659
7.94208 -3.38616 1.22713
-7.09948 -1.86022 1.0432
-6.95437 -2.92325 1.09282
-5.96421 -4.34158 1.06083
7.9748 -2.80675 1.23671
8.34244 4.68241 1.40149
5.11533 8.76344 1.4877
8.48095 4.56711 1.42348
7.89743 -2.36075 1.21482
7.25212 5.77319 1.38807
3.06998 9.80147 1.53713
-7.0394 -2.00398 1.09641
7.5476 -3.13615 1.23189
8.33801 4.60812 1.44394
5.9006 7.58883 1.45997
5.4023 7.79404 1.44543
5.24137 8.12096 1.46859
5.19626 8.23599 1.47433
7.39525 -3.19632 1.23025
7.74571 -2.7799 1.25295
-6.70687 -1.6705 1.04052
7.8994 -2.27631 1.26042
7.33998 5.50501 1.40883
-7.0488 -1.93736 1.13386
-6.86749 -2.76476 1.15024
6.91441 5.60854 1.39653
-7.29577 -1.08685 1.15147
-7.08892 -1.81 1.1453
-6.99277 -2.05172 1.14133
-7.06596 -1.858 1.14599
-6.84276 -2.91197 1.16706
4.91339 7.61888 1.4423
3.47743 -6.08601 1.1187
-7.21789 -1.28907 1.17394
3.55643 -5.75324 1.08911
3.5926 -5.6563 1.07814
7.17342 4.83547 1.40971
4.76358 7.53984 1.45207
-7.01707 -2.00802 1.18898
-7.03875 -1.932 1.1972
7.06789 4.89778 1.42217
3.91931 8.14299 1.49714
6.09514 -3.3422 1.15771
6.73083 4.94476 1.39261
4.76235 7.32008 1.4573
3.86337 -5.33758 1.10701
7.20533 4.48693 1.42925
7.56291 2.89199 1.36831
6.41857 5.36582 1.41806
-7.22139 -1.24576 1.24726
6.84263 4.13714 1.37326
-6.40574 -2.75255 1.18923
5.54484 -3.65289 1.14036
5.72826 -3.54167 1.15604
2.83997 8.09561 1.48473
-7.31305 -1.03113 1.27971
5.36737 -3.80714 1.14682
-6.26873 -2.24453 1.15411
-6.22962 -2.40062 1.16851
4.30704 -4.69273 1.11351
4.521 -4.50393 1.11911
4.61965 -4.47598 1.12815
-6.75171 -1.71998 1.22677
4.41921 6.63057 1.42208
-7.10376 -0.921053 1.27972
-6.10451 -2.24317 1.15795
6.72275 3.73837 1.37896
6.18243 4.42092 1.37875
3.6335 -5.36377 1.17772
5.23453 5.78139 1.42691
2.5876 7.40715 1.47547
6.5585 3.08684 1.37058
-1.69401 -5.74082 1.13333
6.47122 -1.39555 1.25588
6.34038 2.80777 1.33509
6.28075 2.40549 1.34189
-4.40246 3.89503 1.37979
4.3723 3.57321 1.35105
4.25377 3.32586 1.33721
4.68318 -1.68412 1.24962
4.83872 -1.38658 1.25916
-2.10822 4.71943 1.28786
3.73702 -2.96079 1.22557
3.68128 -2.55508 1.19623
3.41358 -2.96764 1.22824
4.03508 2.58942 1.34031
-2.58792 -3.52501 1.24725
-2.32087 -3.56233 1.2131
3.77818 2.07081 1.31038
3.75397 1.99229 1.30956
-2.81665 3.4522 1.37176
-2.29418 -2.41662 1.1853
1.95283 -2.77745 1.21151
-2.11059 2.7482 1.31351
-2.01665 2.7368 1.31984
2.24841 -1.86772 1.22448
2.3785 -1.49715 1.22197
-2.00861 1.86873 1.28856
-2.06392 -1.44229 1.22674
1.44514 -2.06425 1.24266
-1.99215 -1.08733 1.21277
-1.92467 -0.70739 1.21812
-1.92637 -0.703156 1.24365
-1.95502 -0.344198 1.22658
-1.89262 -0.564466 1.22791
-1.8922 -0.530688 1.23296
8.32585 -8.80962 -7.5583
12.3457 -10.4725 -8.95622
-8.43326 15.0456 -6.68654
21.4941 26.1815 -12.1794
-8.71363 -2.49547 -2.55405
-32.678 -21.8291 -7.26022
-32.3422 -21.1509 -5.70222
-32.0646 -21.7905 -5.75753
-29.7654 -19.0896 -2.65884
9.45755 -9.00816 -0.398926
-7.15666 15.4266 -0.419931
-28.3872 -10.9848 0.701646
-6.8246 -8.15661 0.454502
17.705 25.424 1.6816
11.8556 16.6735 1.69151
-6.62425 -6.59772 0.874339
4.41619 12.8158 1.56291
8.93065 9.30267 1.50815
8.06326 -8.86121 -10.4932
8.93866 -8.64047 -10.62
7.0329 -12.0595 -11.6301
6.94721 -11.4665 -11.0056
8.24723 -8.35873 -9.63976
7.0943 -12.1445 -11.4335
7.1455 -11.0902 -10.5661
8.09697 -8.47485 -9.3091
6.80317 -11.4046 -10.3963
6.51642 -11.8183 -10.317
7.84989 -8.95355 -9.07496
6.27258 -14.4564 -11.9215
8.40359 -8.80883 -9.21257
6.36919 -12.0315 -10.2781
6.21143 -12.2044 -10.2083
7.58628 -9.56207 -9.11045
8.00435 -9.16182 -9.02963
10.6353 -9.59965 -10.6522
6.17701 -14.2301 -11.4631
6.15014 -13.7633 -11.0809
6.19625 -12.6996 -10.3898
9.32523 -8.94751 -9.47766
9.41469 -9.19778 -9.59676
5.92753 -12.628 -10.1306
9.49146 -9.11318 -9.38786
6.95088 -11.2648 -9.3906
5.67382 -13.092 -10.0957
9.83828 -9.21654 -9.55088
7.70443 -9.45829 -8.57423
10.1507 -9.32597 -9.68106
11.0893 -9.64089 -10.3077
11.6372 -9.8633 -10.2416
8.49415 -8.71836 -8.05636
7.5288 -9.41863 -7.96432
8.27882 -8.83543 -8.00061
7.72991 -9.4741 -7.99696
7.94175 -9.52503 -7.94568
8.43258 -8.64849 -7.71938
0.345253 15.8207 -10.0979
7.62968 -9.44781 -7.72534
11.0945 -9.76726 -9.39519
7.33198 -10.8548 -8.28706
8.26484 -8.60992 -7.52435
4.64781 -15.4976 -10.173
8.82542 -8.81005 -7.71333
8.02759 -9.15119 -7.50635
4.07308 -18.0875 -11.4184
8.30765 -8.7413 -7.37014
4.09984 -17.3277 -10.8637
0.132458 14.8222 -9.02006
6.74958 -11.4177 -8.07185
7.84507 -9.38798 -7.4208
10.3007 -9.47235 -8.4883
6.91677 -11.4042 -8.00386
8.1731 -9.33069 -7.44323
11.4712 -9.86943 -9.04445
5.46406 -14.0043 -8.91234
7.84122 -9.39094 -7.25284
9.49148 -9.16744 -7.81677
7.00248 -11.2715 -7.85036
8.09411 -9.25231 -7.21082
9.9096 -9.33373 -7.93095
15.1542 7.57354 -9.84425
8.79757 -8.9623 -7.25438
7.03169 -11.1157 -7.55622
2.66514 -11.3009 -6.67527
7.97006 -9.19665 -6.96751
7.52394 -8.95679 -6.63881
9.76113 -9.28722 -7.65095
10.9753 -9.65411 -8.24319
0.117625 15.2694 -8.61381
3.27124 -20.4756 -11.6609
6.89363 -11.1262 -7.33481
10.2744 -9.44454 -7.81287
12.594 -10.5663 -9.21572
9.38252 -9.14447 -7.31866
4.6719 -14.4477 -8.46205
8.124 -9.35277 -6.87781
15.0785 7.71008 -9.30269
9.85493 -9.25357 -7.4219
0.822266 17.4619 -9.54866
2.72888 -19.6865 -10.8379
11.328 -9.81494 -8.13542
4.29595 -14.6147 -8.24193
14.9889 7.83976 -9.11637
15.4303 10.6557 -10.0746
14.3058 7.89346 -8.73544
11.147 -9.78898 -7.88625
13.5531 -11.0356 -9.29391
3.03024 -19.1794 -10.2083
11.5662 -10.0057 -7.77909
2.16087 -20.2071 -10.2578
10.4465 -9.51002 -7.1012
14.5866 -11.5355 -9.33385
14.1264 -11.4249 -9.09188
11.2164 -9.83701 -7.43004
7.62199 -9.47686 -6.02028
3.59622 -8.5418 -4.56579
-8.61038 -1.89053 -4.33374
2.20577 -19.9049 -9.82403
4.57132 -9.37403 -5.09903
0.391834 13.6533 -6.68834
7.72153 -9.40668 -5.93629
-8.21604 15.6645 -8.55988
-9.09901 -2.40542 -4.53451
15.3643 -11.8637 -9.32493
19.8439 5.67812 -9.87439
-10.185 -2.52168 -4.96257
1.90322 -20.3716 -9.72954
17.7535 16.6879 -11.5483
7.71206 -11.3976 -6.49034
20.5269 5.54088 -10.0163
14.3385 -11.3505 -8.50113
2.9608 -17.4688 -8.23587
19.8278 5.86691 -9.55624
18.3499 -13.3713 -10.4838
9.96891 -2.51814 -4.75152
20.7917 5.27017 -9.89964
17.8907 16.8281 -11.3262
1.79792 -19.9716 -9.17838
9.82732 -9.18812 -6.15847
-9.10965 -1.65352 -4.22198
9.55078 -3.5046 -4.6339
6.83238 -11.5135 -6.08633
10.0177 -2.64614 -4.70044
19.7195 6.01338 -9.28501
18.3358 18.1919 -11.6202
9.46364 -3.11756 -4.48551
15.8342 -12.1835 -8.96227
7.16483 -11.7674 -6.15896
7.26848 -11.0918 -5.90812
9.6593 -3.44047 -4.56979
-9.67261 15.842 -8.25733
18.159 -13.2515 -9.98565
20.0155 5.76621 -9.2358
16.464 7.46846 -8.00999
18.4574 18.6479 -11.6127
16.8613 -12.5388 -9.25764
-10.8117 16.4323 -8.63852
-6.34978 14.4941 -6.93142
-5.16344 4.84155 -3.08153
20.6407 5.60457 -9.30187
9.65825 -3.44075 -4.42521
18.8885 19.1494 -11.5696
16.2353 -12.4927 -8.81158
15.1774 7.58945 -7.24644
3.88554 -9.41032 -4.32348
-10.7523 16.3443 -8.27556
7.06196 -11.0874 -5.54018
-13.3293 3.26648 -5.78051
0.739737 -21.9458 -9.25575
16.195 -12.2605 -8.49174
-5.08356 5.59579 -3.16022
0.989347 -21.7954 -9.14826
1.23055 -20.5811 -8.63799
14.4638 7.75829 -6.86932
19.2652 20.0819 -11.6365
3.82576 -9.05152 -4.09612
15.0894 7.89712 -7.09357
18.5917 19.8617 -11.2991
-9.4048 -1.07943 -3.9073
4.04316 -8.57388 -3.8825
14.3298 7.91349 -6.72436
6.96228 -11.1731 -5.3794
-13.3772 2.49877 -5.56576
-7.68337 14.873 -6.7961
20.064 21.8072 -12.015
15.4008 7.40075 -6.88855
-5.11747 13.9537 -5.95308
14.2879 -11.2952 -7.13099
3.99861 -9.22531 -3.94483
1.54022 19.5284 -7.61396
-8.42459 15.2053 -6.74858
19.4559 5.9337 -7.88452
-1.72868 13.0136 -5.08185
5.37153 -9.52535 -4.21516
-2.34177 13.1974 -5.14468
20.4752 23.6921 -12.0173
4.71486 -8.6117 -3.72699
19.9022 5.70981 -7.88203
0.853844 -25.4517 -9.68315
15.2865 -11.7791 -7.25983
20.4844 5.54991 -7.94626
9.54196 -3.47656 -3.79728
0.522268 -21.7771 -8.12314
3.30549 -10.9735 -4.2787
21.1346 24.5948 -12.0529
0.90639 -8.66174 -3.23068
14.3614 -11.3726 -6.75235
20.9115 5.31883 -7.93653
18.5562 18.3392 -9.54211
-12.8134 2.24474 -4.72846
21.8763 26.131 -12.371
2.31749 -13.4024 -4.89777
13.3267 -10.7764 -6.16486
0.789169 15.5454 -5.5731
-8.1212 -2.77141 -3.06924
0.40577 -21.1024 -7.54902
-4.08283 13.3736 -4.96796
0.630716 -21.3159 -7.58146
16.2887 -12.3016 -7.23185
-15.0534 17.3993 -8.1025
6.01923 -11.5058 -4.56344
-10.581 15.9615 -6.68251
0.0986844 -17.9627 -6.31799
14.6077 -11.5758 -6.51465
20.8661 5.49558 -7.53454
0.647554 -22.3163 -7.71378
-4.83475 14.0142 -5.0733
3.68447 -8.54941 -3.20297
4.94196 -9.15109 -3.56223
-13.8802 17.2286 -7.56713
2.29599 -10.9668 -3.83838
-8.53086 15.4668 -6.01487
3.09792 -13.9926 -4.88234
-14.3344 17.5895 -7.68661
20.6805 5.62297 -7.20638
23.315 28.8485 -12.4085
38.1296 -21.523 -14.6262
-5.11011 13.5377 -4.79975
1.93823 21.1641 -7.05843
1.26981 -10.2355 -3.41016
19.7702 -14.3702 -8.11383
34.2257 -21.5147 -13.289
-5.06293 13.9223 -4.80584
-12.0582 16.5034 -6.62493
19.1687 -13.6592 -7.64042
3.5941 -8.75064 -3.0319
6.32399 -10.2793 -3.86575
2.32855 -11.0588 -3.59546
-4.22814 -31.8428 -10.2177
-1.07405 -22.6943 -7.23765
15.4159 10.618 -5.91221
-12.6481 16.8263 -6.64814
-17.1481 18.4933 -7.9228
3.06122 -9.86739 -3.25681
13.564 -10.6953 -5.43333
7.1043 -11.3192 -4.12911
1.35987 -21.3257 -6.61284
-2.41444 -25.8143 -7.96494
7.53219 34.8694 -10.8986
0.764264 15.1316 -4.60537
-10.6553 16.0724 -5.80674
-2.52352 -24.8562 -7.53104
-13.7117 17.1407 -6.54444
-4.93083 -32.4052 -9.7666
0.811748 -23.919 -7.16061
-5.17168 14.2075 -4.49151
2.11047 21.1411 -6.26606
-20.2514 18.881 -8.16425
18.6524 5.93585 -5.76449
-4.13699 13.8699 -4.25029
-7.59826 14.7332 -4.858
4.32341 -9.2853 -3.0086
4.72915 -11.8421 -3.72592
-12.4075 2.18574 -3.62028
-30.045 -42.5627 -14.9975
-14.5168 17.4608 -6.52288
7.11522 -11.3305 -3.84923
2.59466 -9.65026 -2.83791
13.2255 -10.7044 -4.84021
-8.36725 -2.43514 -2.471
22.2569 28.7118 -10.303
-8.49217 -2.23823 -2.48162
-2.36643 -24.2183 -6.83631
-12.804 1.96204 -3.60674
4.48571 -11.5756 -3.4429
-8.90395 15.3072 -4.85656
-12.4784 16.6392 -5.70795
-5.16364 13.767 -4.01322
-7.72048 -37.5386 -10.4943
9.91628 -9.03775 -3.65001
-20.4049 19.0402 -7.49865
-9.30466 15.4243 -4.82253
-25.317 19.4472 -8.48928
11.7423 11.82 -4.40121
4.42762 -11.5521 -3.2747
50.1546 -14.5799 -13.8336
-7.38513 -34.8807 -9.38057
4.16254 -8.81042 -2.56395
11.4064 -10.145 -3.99177
-13.7805 17.2521 -5.73705
6.65807 -10.6151 -3.24137
3.23239 -9.80424 -2.66693
-27.5033 -40.2834 -12.6005
-3.99321 -26.2243 -6.87126
3.6137 -10.5782 -2.88009
4.14295 -9.55641 -2.67525
16.0481 -12.0668 -5.12093
-6.81874 14.5196 -4.05482
-28.9526 -38.6133 -12.243
4.41058 -11.3936 -3.08963
4.32201 -7.82533 -2.2738
6.67931 -10.8934 -3.18456
47.5882 -14.3881 -12.3925
-26.7139 20.154 -8.26987
-11.0031 16.1624 -4.81573
-25.4694 -37.1574 -11.0806
-8.94383 -35.2236 -8.97221
-23.2018 19.4868 -7.44248
4.43615 -10.5319 -2.80575
-11.5106 16.4844 -4.87064
-7.4921 14.5916 -3.94879
10.4716 -9.44493 -3.37527
42.5239 -14.1253 -10.72
15.4646 7.73451 -4.11953
-5.71087 -32.745 -7.92589
4.03123 -9.23447 -2.38599
49.9885 -13.379 -12.2794
-26.4419 -39.4973 -11.2688
-10.8337 -39.9096 -9.80492
4.29387 -9.1868 -2.41711
-24.3772 -35.3683 -10.0748
3.97939 -11.4094 -2.84456
4.99443 -8.84468 -2.38804
-12.1841 16.6016 -4.78854
-6.94704 -32.7893 -7.76283
11.2338 -9.8443 -3.41257
-5.6912 -28.8882 -6.72441
-25.6883 19.8397 -7.35463
43.7982 -9.57873 -10.1728
-28.7357 20.863 -7.95873
-33.5455 -21.9833 -8.9877
-5.03862 -24.0113 -5.47554
42.9845 -13.2878 -10.0996
5.55785 -9.65217 -2.48514
-12.1972 2.78313 -2.74474
42.852 -12.558 -9.86407
45.0227 -12.8462 -10.2986
29.952 42.1892 -11.3459
-5.11254 13.4039 -3.13167
13.7289 -11.0474 -3.87715
40.0332 -12.8652 -9.24211
-22.1625 19.3152 -6.37392
-24.861 -61.3014 -14.3636
4.40263 -9.90695 -2.34903
4.63045 -9.36368 -2.25461
-13.8719 17.2815 -4.72908
-29.1044 21.1406 -7.6784
-29.9015 21.2199 -7.83516
-23.4274 -62.1648 -14.2502
-10.1733 15.894 -3.99756
-7.65152 -32.4991 -7.10631
3.26531 -9.90842 -2.22254
4.06205 -10.0644 -2.31194
48.5805 -11.2637 -10.6436
15.2926 7.66025 -3.62901
-14.4077 17.7343 -4.83428
5.2601 -9.22238 -2.22913
28.961 41.9104 -10.6586
-37.4023 24.5708 -9.37889
-26.1872 -25.6276 -7.60957
15.3434 8.03031 -3.59846
-28.6485 -22.1254 -7.51015
-26.8433 -68.8351 -15.307
42.7052 -11.4928 -9.14445
-10.8924 16.0469 -3.93765
-14.8531 17.56 -4.67912
-32.9243 22.1012 -8.05535
47.0315 -10.2589 -9.81504
-11.7996 -37.9745 -8.08884
4.22999 -9.95359 -2.19849
4.36403 -9.93702 -2.21028
11.8578 -9.85709 -3.13608
-11.4109 16.3735 -3.98053
-17.2168 -49.4208 -10.467
-7.79864 -30.1887 -6.24348
-7.16742 -29.2935 -6.05019
-11.7022 -36.3612 -7.56821
4.16421 -10.1488 -2.17004
-32.3238 -22.1027 -7.7202
-25.2564 19.8219 -6.31659
-31.4154 -22.472 -7.53017
-6.53016 14.4239 -3.069
-22.9414 -53.9106 -11.3871
-31.8495 -21.2033 -7.374
3.51733 -9.58177 -1.96907
48.6592 -11.2741 -9.5897
-12.1152 16.5399 -3.91626
4.07961 -9.55525 -1.98099
-34.519 -20.9679 -7.64603
-19.7742 -32.1235 -7.17672
-13.8602 -39.9972 -8.01548
39.8816 -13.1561 -7.93704
-33.5864 22.5576 -7.56953
-31.9359 -22.0556 -7.29184
-30.9411 -22.6378 -7.1975
-18.7457 -46.4455 -9.43012
-15.0441 -40.8693 -8.08378
3.89491 -9.38411 -1.87526
45.0194 -12.1337 -8.65666
5.87851 -9.91587 -2.11118
-21.479 -48.707 -9.75157
-18.1074 -44.9498 -8.7701
-13.817 17.2226 -3.91247
-29.4576 -23.7583 -6.72779
-19.2223 -25.615 -5.72848
-22.5066 -58.813 -11.1824
-36.6603 23.1332 -7.64648
-25.2534 19.8287 -5.58659
-31.9193 21.8422 -6.7136
4.0084 -10.3013 -1.91488
4.86054 -8.77216 -1.74169
14.3211 7.69113 -2.80636
14.4096 8.26918 -2.84822
-28.9677 21.0648 -6.13842
44.683 -12.6419 -7.90417
44.4196 -11.5045 -7.80976
-29.6155 -23.5203 -6.41625
-19.9354 18.9856 -4.62089
-17.9932 -44.7275 -8.15086
15.2056 7.62134 -2.85516
-29.7773 21.0804 -6.09264
6.76136 -11.258 -2.20666
-20.5973 -49.112 -8.80483
41.0368 -12.9399 -7.0114
46.1626 -12.4361 -7.76921
-9.8167 15.5832 -2.9693
-18.2087 -45.1762 -7.77281
-33.0056 -22.784 -6.32025
-21.5547 18.9376 -4.49125
-24.132 -15.1287 -4.49833
-22.8398 19.4974 -4.65271
-37.3443 22.6108 -6.76361
-10.6422 15.9271 -2.95466
3.56489 -9.78167 -1.60845
3.98088 -10.5249 -1.74044
-7.18124 14.5633 -2.47685
-29.1623 21.2251 -5.51219
-30.0931 -23.2431 -5.78252
-26.4695 -24.7594 -5.49145
-19.339 -44.9527 -7.45737
44.6416 -11.6056 -7.00986
47.5645 -10.3629 -7.41536
-6.16676 13.7324 -2.24904
9.95989 -5.22067 -1.66908
-31.7105 -22.8713 -5.82283
-22.5234 -56.9576 -9.08864
10.4002 -9.35094 -2.08345
47.7432 -11.045 -7.27631
-34.6142 -23.0423 -6.12011
-29.7989 -24.5794 -5.65106
-11.284 -37.3948 -5.75128
17.4397 -12.6175 -3.15166
-23.9598 19.7268 -4.50899
-21.6778 -48.5746 -7.66843
-7.18798 14.3947 -2.29775
-12.0535 16.4338 -2.90373
6.21373 -11.8703 -1.91275
-12.7005 16.975 -2.97605
-32.4565 21.9253 -5.5056
6.93772 -11.3319 -1.85561
39.5959 -13.0676 -5.86308
-29.509 -23.6456 -5.27778
-30.8773 22.1901 -5.26638
-18.234 -43.9499 -6.57512
47.9095 -10.7181 -6.7686
-15.0019 2.80806 -2.10089
-6.45513 14.2732 -2.13762
-19.4835 -50.8525 -7.40168
7.90313 -9.56392 -1.66416
9.36695 -9.22123 -1.81231
-13.2721 16.9462 -2.89998
13.5531 -10.8099 -2.34471
-21.008 19.1094 -3.81761
44.5693 -11.5237 -6.11049
47.5952 -10.4256 -6.44814
-21.3911 18.8244 -3.72503
-30.9547 -23.1629 -5.05004
-14.1122 17.2808 -2.88329
-31.8828 21.2802 -4.97577
-36.4408 -15.3867 -5.10735
7.1847 -10.6849 -1.65087
11.0183 9.02166 -1.83128
-32.0361 -22.0771 -4.97906
-29.4752 21.5178 -4.61556
-33.716 -21.039 -4.98136
44.4043 -11.4838 -5.73871
6.96028 -10.6181 -1.58529
-7.21017 14.4203 -1.99382
-23.5956 19.8129 -3.77195
-31.2481 22.0229 -4.71497
6.4923 -12.4502 -1.70891
47.537 -10.1422 -5.95278
15.3668 8.05102 -2.0881
-16.1337 -39.0771 -5.09988
7.2586 -10.7876 -1.56443
-19.8647 8.80392 -2.57179
-12.7258 -38.4988 -4.77025
-30.1751 -23.2644 -4.45531
-29.6757 -23.733 -4.44667
44.5167 -11.9249 -5.41553
11.479 -9.88545 -1.75436
-28.0448 21.2651 -4.04868
6.81343 -11.1011 -1.48999
7.63286 -9.39719 -1.38414
-21.487 -51.6439 -6.30053
11.8445 -9.94322 -1.75579
9.56565 -4.6666 -1.20546
15.3411 7.88361 -1.94614
-9.78384 15.5754 -2.07422
-30.1307 22.0169 -4.18012
41.0572 -13.5158 -4.84609
9.5401 -9.19988 -1.46568
-10.4737 15.7081 -2.05102
7.02556 -13.2258 -1.62058
47.7031 -10.3678 -5.2914
11.0226 9.05834 -1.54021
17.3025 -12.8528 -2.31219
44.7337 -11.6022 -4.951
9.80856 -9.15564 -1.421
8.52759 -8.61419 -1.26935
-29.2869 -23.4363 -3.90573
-26.2362 -52.6257 -6.13557
15.336 7.69138 -1.75502
-30.1244 -23.2278 -3.90282
-12.1663 16.5853 -2.08756
-12.1062 16.2196 -2.01086
10.4141 -9.27193 -1.36546
-18.2165 -46.2648 -4.87606
6.53248 -12.5098 -1.3645
9.67208 -9.13157 -1.25769
-50.352 28.047 -5.56679
17.1593 -12.5541 -2.04275
44.6253 -11.9916 -4.42844
-26.5936 -53.7568 -5.70205
-18.0671 -47.4153 -4.82022
-22.018 19.2591 -2.73448
48.5129 -10.7925 -4.64131
9.90887 -9.16501 -1.24902
41.9897 -13.8515 -4.11907
-14.209 17.4181 -2.03513
-28.5331 -13.0091 -2.85842
-27.9909 -54.5671 -5.6533
16.3315 -12.224 -1.85485
8.79716 -8.88987 -1.13211
-34.4182 -19.5204 -3.46598
13.2182 -10.911 -1.49185
48.0679 -11.1416 -4.22619
9.58748 -9.20623 -1.1169
11.1916 -9.85558 -1.25297
-31.9379 21.9337 -3.22443
17.3694 -12.6664 -1.77969
-15.0951 -39.2811 -3.37106
15.0982 -11.8059 -1.52761
-36.191 -70.7237 -6.30962
-10.7515 -30.1006 -2.52336
-27.9773 21.2731 -2.71838
-30.9656 21.888 -2.92782
-20.0076 -45.7037 -3.85172
7.75535 -9.49002 -0.977763
-46.9567 25.5564 -4.04897
-20.2063 19.0176 -2.01874
-31.1646 22.0441 -2.76706
16.8907 -12.6208 -1.54166
44.6676 -11.9534 -3.36807
-33.2578 -62.9279 -5.13564
14.3547 -11.3576 -1.30937
-13.9554 -37.0206 -2.73067
11.0021 -9.8257 -1.01023
-22.0348 19.2939 -1.97849
13.1975 -10.8901 -1.14486
18.5573 -13.4595 -1.52749
-20.4733 -47.1707 -3.3982
16.537 -12.5085 -1.36867
-13.1457 -36.4483 -2.50627
46.6449 -12.1316 -3.01201
-27.4145 -55.5468 -3.77874
37.6161 -9.12592 -2.37526
45.6624 -10.4516 -2.87538
6.3048 -13.6286 -0.89639
32.7321 -21.659 -2.34691
-9.27058 15.4762 -1.06033
-14.0084 -36.5432 -2.22789
17.1374 -12.8077 -1.20059
-9.45735 -12.2599 -0.848446
15.3344 7.86721 -0.933658
14.2767 -11.3016 -0.974569
-12.0948 16.3906 -1.06428
-14.8374 -36.776 -2.1053
15.2276 8.00725 -0.84501
-14.6345 -37.4084 -1.96998
-13.3843 16.9651 -1.03388
9.756 -9.20255 -0.614914
-20.936 -48.0251 -2.36892
12.7563 -10.4869 -0.765233
-14.1749 -39.5143 -1.8626
-15.4424 -38.0471 -1.75663
7.11182 -13.1326 -0.661827
-12.3501 -37.6486 -1.68665
-48.1542 26.1885 -2.2221
18.9751 -13.6325 -0.947605
17.3436 -12.8917 -0.841084
-34.4908 -66.9436 -2.83766
-16.0651 -42.1284 -1.65879
-31.4756 21.6271 -1.39808
45.1887 -11.6436 -1.67996
-29.3861 -58.4541 -2.1858
-22.5455 -49.4088 -1.8261
21.3665 24.712 -1.0885
-20.2489 18.9756 -0.905295
8.46118 -14.9339 -0.575716
9.60898 -9.17334 -0.430493
11.5607 -10.1777 -0.500437
19.2411 -13.6051 -0.773933
36.6531 -13.8245 -1.29946
23.4736 28.4152 -1.18605
-26.3695 -13.2267 -0.92433
-21.6144 19.2481 -0.883251
-29.7229 21.0517 -1.13808
-21.6553 -49.7864 -1.6789
-12.4356 -35.1818 -1.14778
-18.6973 -47.6967 -1.5487
-14.7202 -39.895 -1.21627
-32.3423 -19.6098 -1.00655
11.7092 -9.9335 -0.411175
16.8478 -12.5313 -0.553132
-38.0865 23.5622 -1.18272
-28.3771 21.5928 -0.883673
-28.8899 21.1732 -0.848285
9.75901 -9.18706 -0.3104
-38.966 13.4679 -0.912486
-28.044 -46.9613 -1.22906
22.1001 -14.7808 -0.583882
32.1878 -19.518 -0.848671
14.5053 4.0087 -0.308086
-46.1817 16.6499 -0.960382
31.2357 54.5866 -1.16325
24.3977 -11.3586 -0.473737
50.3147 -11.5862 -0.960163
-29.1619 -20.9569 -0.653808
-27.8523 -27.3564 -0.617485
-16.8753 -41.4089 -0.741931
13.0403 -10.7236 -0.277609
19.1779 -13.8581 -0.361196
-28.1551 -12.5142 -0.404076
-31.0849 -23.2631 -0.538942
-28.4939 -57.4414 -0.861503
-24.0782 -51.2467 -0.772229
-32.163 -21.9655 -0.507331
-28.3921 21.6009 -0.421754
17.5557 -13.1104 -0.25985
30.8833 -19.1494 -0.426853
-28.8592 21.1871 -0.400373
-35.9521 -20.0886 -0.462594
-17.1361 -39.3013 -0.455949
-10.8853 -32.7659 -0.345432
-29.322 -51.6657 -0.54348
-13.5373 17.1723 -0.169209
-25.7531 -12.984 -0.232386
-14.1934 17.3023 -0.154456
-21.318 19.0392 -0.148791
-19.8548 18.6236 -0.125502
-10.2896 -13.2282 -0.0583076
15.0924 7.92847 -0.0219561
11.3607 -9.98991 -0.00792647
-32.8568 -17.9965 0.0581404
-10.3263 -30.6904 0.108067
17.5031 -12.7168 0.0940844
-16.9082 -38.8184 0.191592
19.4415 -13.6981 0.126559
7.4219 -12.7584 0.107731
27.0179 -11.0849 0.179737
-51.1886 18.2783 0.516331
16.7558 -12.418 0.199258
39.3933 -8.04285 0.379292
-28.062 -7.91274 0.341167
-34.3884 -20.7561 0.444333
-10.3751 -29.7265 0.340514
-49.7487 27.2654 0.691072
-11.5769 -32.0812 0.40914
-9.41752 -28.9485 0.368059
6.59019 -13.4708 0.19133
7.41592 -11.425 0.179032
-26.4944 20.7977 0.513514
11.5746 -10.1087 0.230997
-22.763 19.4668 0.492242
11.1463 -9.95247 0.234479
13.3092 -10.9567 0.271609
38.2393 -8.18396 0.650498
-32.7492 -21.9413 0.71857
-29.318 20.963 0.705373
6.39587 -13.3635 0.287244
7.21887 -11.3607 0.259186
8.19364 -9.61482 0.246564
32.5791 66.9929 1.61461
7.89124 -9.64211 0.281545
10.3403 -9.36573 0.336454
-27.8055 -8.91603 0.703601
-22.023 19.2231 0.788598
-25.954 20.4651 0.884658
-27.933 -8.38725 0.768728
9.37019 -9.07025 0.352127
9.81669 -9.12398 0.365164
-24.0968 20.3094 0.853845
26.2253 -5.30552 0.744665
13.3187 -10.9262 0.513091
15.8217 25.7753 0.930834
6.43881 -13.2832 0.464087
7.6804 -11.9727 0.446131
-27.499 -7.75549 0.937588
-12.132 -18.5756 0.732496
-27.1941 -8.4994 0.985292
16.6083 11.3676 0.726105
-28.5484 -17.6904 1.17514
16.9997 29.531 1.21372
-29.1748 -15.9139 1.23255
24.2545 -4.37983 0.890112
-26.6406 -18.9473 1.21277
-7.1995 -7.84994 0.402147
9.22668 -8.99747 0.478833
12.8687 14.0772 0.734017
30.5345 62.9927 2.64712
29.2871 62.3562 2.59021
-11.3514 -8.98509 0.571138
8.88719 -8.83193 0.495405
-24.2064 19.9407 1.27052
22.4418 -3.04153 0.917084
-27.6213 -16.7772 1.32509
9.60031 -9.10305 0.542209
12.9225 14.883 0.846651
6.81501 -12.9063 0.619261
15.6112 20.2844 1.12368
22.3573 30.8818 1.66757
-9.25397 -13.4556 0.71876
-9.68384 -15.1453 0.799212
7.79801 -11.2391 0.60235
8.78664 -8.87784 0.564192
24.94 -3.82069 1.1388
-28.8061 -8.39449 1.36976
6.93361 -11.3988 0.61343
-8.15809 -8.02852 0.538899
24.1806 48.7886 2.6025
-27.3938 -16.9304 1.52347
-9.52404 -13.3595 0.781866
9.85298 -9.14192 0.632791
17.9808 49.9699 2.56846
-29.0954 -12.8873 1.51959
-6.67257 -8.13488 0.517983
16.1905 37.6522 2.08952
-28.6513 -11.2198 1.54472
-7.50393 -6.90014 0.515376
-6.61913 -7.50356 0.506346
17.4941 31.6908 1.87782
10.8777 12.7196 0.903409
14.9394 20.3302 1.35321
9.52839 -9.10072 0.705667
15.5469 20.2287 1.40734
16.2506 25.0991 1.64493
-26.0579 18.3477 1.74407
-6.88045 -8.08602 0.589055
-25.0031 19.1851 1.7493
6.33871 -13.3837 0.827711
-6.99893 -9.01984 0.651489
10.273 12.8317 0.965713
15.9447 26.8652 1.82371
6.71471 -13.4859 0.866188
14.6901 23.9667 1.65909
-8.14554 -8.00673 0.688447
11.8657 11.9477 1.00315
15.4011 20.4838 1.53849
-7.27224 -9.84457 0.761766
7.20369 -11.4797 0.825358
11.5115 -9.92941 0.921296
6.03276 -11.0591 0.781041
-7.11741 -6.57873 0.60571
15.2398 21.619 1.6724
16.5253 7.33538 1.1731
-6.96634 -6.08655 0.607016
6.72595 -13.9925 1.03365
10.0304 22.6573 1.67081
10.7414 12.947 1.14917
14.1738 19.059 1.65563
13.0833 21.6924 1.75193
11.6794 12.3377 1.1916
6.74611 -10.0608 0.857233
11.8263 12.0995 1.22359
9.95324 -7.02599 0.866547
12.72 12.3141 1.29942
10.1046 -8.53327 0.968511
-6.03268 6.53821 0.662428
10.6659 9.39168 1.0668
12.469 18.6435 1.68676
12.0273 19.1621 1.70391
-6.86042 -7.60436 0.794443
11.4066 19.688 1.74513
9.69471 -9.12762 1.02862
10.8419 14.5539 1.42207
-6.36831 -4.26721 0.604346
9.67826 19.3906 1.73136
10.2347 -7.00356 0.992627
12.8037 11.8795 1.41115
10.2728 19.9461 1.80612
-7.14968 -9.48352 0.968006
6.85156 -9.56693 0.956958
12.589 12.0432 1.42678
12.4962 12.2897 1.45471
11.7518 12.2834 1.40666
-4.94128 -11.2784 1.03697
10.6412 13.3136 1.4496
-6.89254 -6.02298 0.788432
-6.74644 -6.62666 0.7989
-5.10295 -11.1927 1.04722
-7.21074 -7.65157 0.905703
9.42481 -7.3656 1.03306
-7.0302 -7.95549 0.929456
-6.93263 -7.59808 0.904863
9.68337 12.9256 1.43135
-6.86059 -8.26198 0.959853
11.0536 9.27477 1.31445
10.8129 13.9265 1.59246
10.7583 9.44865 1.31014
8.02342 14.5646 1.52925
-6.41646 -8.03358 0.942439
-6.80376 -8.88892 1.03374
11.4888 11.0807 1.47219
11.5012 9.38384 1.38846
11.1507 11.0837 1.47325
6.79773 15.7093 1.60855
-11.2589 2.88439 1.08873
-6.31507 -4.14058 0.707199
-6.73952 -6.23278 0.851342
9.75095 13.7519 1.62589
-5.91013 6.42179 0.857462
8.06317 -6.6945 1.02096
8.21614 13.6999 1.58665
-6.98402 -7.52641 1.03471
9.57501 11.9726 1.54595
7.25106 12.875 1.49955
7.32608 13.4971 1.56558
9.74257 9.29226 1.39292
6.13118 14.6168 1.64323
9.42803 12.823 1.65913
-6.06259 -4.42419 0.786463
6.22382 14.3018 1.64328
6.48725 14.2105 1.64255
-6.91304 -4.39128 0.875767
8.9583 9.21448 1.36973
9.36259 10.4303 1.52404
7.54192 11.3246 1.47859
6.02558 11.8688 1.44731
-6.22842 -7.32721 1.05145
10.4402 6.56144 1.3639
9.16826 8.29814 1.36277
7.54261 12.0568 1.57035
7.06775 12.0128 1.54099
5.56094 12.3493 1.50721
5.06943 12.6021 1.52023
4.94569 14.3841 1.67418
10.041 7.17943 1.3779
8.95608 9.52033 1.4603
5.5771 11.9339 1.48372
-6.76926 -6.65257 1.05656
7.0651 11.0278 1.47534
4.5358 13.8386 1.64684
9.86071 -3.23122 1.15661
-6.05293 -5.36858 0.93667
7.372 -6.18935 1.09223
10.5788 5.80441 1.38354
-7.32185 -0.977854 0.845744
-6.20461 -5.31098 0.940039
5.29114 -5.60218 0.887368
5.26066 12.0671 1.52968
-6.82595 -4.52139 0.948593
4.51161 -7.3563 0.997322
10.5632 5.2256 1.38256
9.05325 8.03529 1.42071
-5.95912 -4.33698 0.858735
-6.43044 -5.22846 0.979017
4.15843 -7.99325 1.07068
5.01013 -5.90136 0.928281
10.3112 4.82146 1.36416
8.68812 8.43655 1.46661
5.46805 11.9132 1.60062
9.1875 6.36474 1.36814
8.17303 8.50592 1.47753
-6.43118 -5.69491 1.06939
3.76185 -7.6854 1.07084
8.81829 6.79935 1.39998
-6.41222 -5.29847 1.05271
9.23001 6.10524 1.41259
8.32472 7.26396 1.4094
8.26102 7.64351 1.43684
5.82566 -5.39044 1.01857
-6.91455 -4.40655 1.05229
8.25827 8.15382 1.50515
-7.29886 -1.03409 0.951756
-6.87239 -2.80568 0.968968
9.0872 4.1521 1.30809
8.53921 6.73685 1.42764
5.04432 -6.08325 1.03826
4.96371 -6.25187 1.05654
6.92618 -4.31753 1.08603
-7.07989 -1.70538 0.97566
-6.95824 -2.20372 0.975285
-5.98231 -4.39073 0.991877
8.268 6.76733 1.4483
8.7189 4.49586 1.3372
8.75027 5.23826 1.39273
8.16775 7.26215 1.4875
-6.75674 -3.70515 1.04604
8.97195 4.21147 1.35638
8.38706 5.91967 1.4056
-6.34991 -4.29654 1.04892
-5.91473 -4.49263 1.01421
5.49525 9.26064 1.48771
3.77378 10.4415 1.54291
-7.30908 -1.08426 1.02256
-6.85 -3.89622 1.09338
4.98886 -5.58819 1.03482
5.27004 -5.44128 1.05089
7.52589 -3.56651 1.16432
3.51603 10.5463 1.55895
8.50986 4.65752 1.37207
7.43666 -3.70883 1.17852
7.65044 -3.36273 1.19107
7.82829 -3.33393 1.20698
9.03746 2.84569 1.36349
4.87326 -5.68128 1.07541
7.41081 -2.87516 1.15695
-6.90563 -3.27507 1.11366
7.98531 -2.80315 1.23357
8.74376 -1.83665 1.31115
5.13184 8.78681 1.50251
3.06143 9.78779 1.52709
7.79354 -1.90286 1.18203
7.3345 5.84123 1.39694
3.5763 9.89495 1.55645
3.30639 10.1666 1.58581
-7.31126 -1.03502 1.09414
-7.02158 -2.00792 1.08781
7.05649 6.38797 1.43706
-6.22291 -2.25708 0.992882
-7.1839 -1.3646 1.10316
8.04335 4.8809 1.4332
5.82 7.49965 1.44058
5.40275 7.79034 1.4432
5.17096 8.19494 1.46542
6.80806 -3.24877 1.14047
7.30294 -3.14909 1.21758
7.6981 -2.77782 1.24679
-7.25783 -0.727059 1.11314
-7.04388 -1.93976 1.12707
6.83782 -3.11499 1.16168
3.78026 -5.83315 1.0743
-7.00037 -2.06047 1.14348
-7.28756 -1.08418 1.15618
7.45509 4.83562 1.40335
-7.14303 -1.43236 1.15843
-7.21459 -1.29089 1.17528
-7.04406 -2.00381 1.19037
7.15886 4.8233 1.40903
-7.04768 -1.93078 1.1998
7.09896 4.92718 1.43531
6.69856 4.91337 1.38631
5.29137 6.34543 1.37663
4.76717 7.31678 1.45897
3.91844 8.13369 1.50159
-7.1928 -1.36281 1.22141
2.81494 -5.82293 1.08961
7.22801 4.48204 1.43269
6.60066 5.30848 1.42903
3.9014 -5.40344 1.12316
3.96148 -5.0524 1.0864
-7.21535 -1.24261 1.24131
-6.55226 -2.6069 1.19596
7.48974 2.87598 1.36061
7.10775 3.9343 1.38434
-6.37082 -2.73432 1.17907
6.85065 4.14475 1.37449
5.71767 -3.54136 1.15727
-7.33677 -1.03127 1.28051
-6.31497 -2.26538 1.15289
5.56917 -3.67015 1.14934
5.35064 -3.79641 1.14963
3.67658 7.32179 1.44208
-6.75082 -1.72273 1.22295
4.5064 -4.4936 1.11958
-7.03788 -0.907639 1.26334
4.75431 -4.48507 1.15626
4.40688 6.61071 1.41826
6.65226 3.50887 1.35816
6.69467 3.72097 1.3759
-6.39825 -1.4905 1.18092
3.6335 -5.36239 1.17779
5.15136 5.69452 1.40631
-6.11639 -2.16951 1.18884
3.434 -5.18973 1.15681
3.45883 6.91433 1.44737
-1.6849 -5.73861 1.13641
6.50161 2.75611 1.34379
-2.1283 -5.68798 1.16776
6.36449 2.82065 1.34019
-2.77022 -5.34322 1.17951
-3.4641 5.25865 1.36143
4.51551 3.93268 1.36698
4.16537 -2.8885 1.18086
4.64642 -2.19459 1.24149
4.23532 3.32003 1.33341
3.71779 -2.93833 1.22711
4.04589 2.59245 1.34284
-1.44007 -4.10844 1.21872
-2.31632 -3.57205 1.20944
3.88446 2.37956 1.32018
-2.83397 3.49086 1.34542
-2.47722 -2.91218 1.18695
-2.37525 -2.93379 1.19207
1.83975 -2.80685 1.18014
1.86282 -2.78528 1.21019
1.98878 -2.52231 1.19664
-2.03014 2.78607 1.30826
2.80563 -0.555946 1.26038
2.78532 -0.336988 1.24229
-2.08954 -1.61898 1.21161
-2.07734 -1.45111 1.23661
-1.86301 -1.79608 1.28234
-1.99527 -1.13145 1.20312
-1.98675 -1.07038 1.22989
-1.94661 -0.880379 1.23004
-1.9309 -0.708408 1.22022
-1.92973 -0.701481 1.24737
-1.90599 -0.469694 1.22004
-1.87138 -0.345752 1.21717
-1.85636 -0.401223 1.22398
2.36843 -19.5304 -9.92789
-7.48262 -8.83418 0.458089
8.10877 -8.89658 -10.5811
8.35115 -8.71789 -10.6099
8.30277 -8.37601 -9.98707
7.03444 -12.0809 -11.526
8.62045 -9.08087 -9.85624
7.93903 -9.03539 -9.23432
5.90854 -12.9147 -10.825
9.55345 -8.95043 -9.87146
6.20832 -14.2197 -11.6769
8.38798 -8.78228 -9.1282
8.11565 -9.27816 -9.21521
7.37748 -9.3511 -8.87134
5.9731 -14.2887 -11.2959
7.81397 -9.41845 -8.82782
7.95092 -9.22471 -8.76997
7.21121 -10.6979 -9.18246
6.90185 -11.1998 -9.32299
10.2076 -9.33233 -9.71073
6.61871 -11.3045 -8.96468
8.13146 -8.73138 -7.94288
7.45361 -9.3954 -7.96714
8.62478 -8.79014 -8.18332
7.82408 -9.59754 -8.13211
6.57086 -12.9299 -9.46727
8.03676 -9.29812 -8.01315
5.03538 -16.1201 -10.8599
-0.482543 13.8645 -8.87132
7.82676 -9.36039 -7.82164
7.43728 -11.0103 -8.45663
8.48835 -8.67742 -7.73126
11.057 -9.77968 -9.36012
9.10957 -8.93472 -8.00029
11.9857 -10.2194 -9.86809
8.18165 -8.64949 -7.32256
4.05519 -16.8664 -10.6304
4.27866 -15.459 -9.8467
0.0973664 14.1994 -8.62725
7.95266 -9.48555 -7.41554
3.96888 -15.6641 -9.63446
11.6907 -10.0071 -9.21371
6.96021 -11.2268 -7.84034
7.86462 -8.92201 -7.04353
5.55119 -14.1454 -8.97495
6.57479 -12.8665 -8.45274
8.4723 -8.70603 -7.07736
9.83863 -9.22103 -7.86015
2.81887 -11.8955 -7.0049
5.56879 -14.1137 -8.58668
9.74815 -9.2496 -7.59404
6.70811 -11.2159 -7.35569
3.33021 -20.5227 -11.653
9.00692 -9.0664 -7.16192
12.4288 -10.4261 -9.08541
6.91679 -11.1511 -7.30742
4.74038 -14.7716 -8.57052
6.31181 -12.7958 -7.84556
0.885629 18.6474 -10.1657
14.9166 7.88335 -9.17126
4.25512 -14.3968 -8.10501
15.0728 -11.926 -10.3572
15.283 7.59554 -9.09473
14.2916 7.87546 -8.67456
4.81536 -14.9837 -8.35989
12.3106 -10.3397 -8.45768
1.8062 -20.289 -10.4803
11.6257 -10.0318 -7.8644
2.07417 -20.0484 -10.2284
14.2849 -11.3377 -9.22138
-0.00694058 14.2326 -7.14499
-7.05819 14.6574 -8.14714
10.7805 -9.76808 -7.30744
7.62942 -9.56763 -6.09442
18.0513 5.61797 -9.22514
-8.21032 15.5523 -8.4938
11.8705 -9.96855 -7.5002
10.6782 -9.75149 -6.94164
15.1363 -11.6033 -9.19602
17.2119 16.3088 -11.2717
7.61685 -11.2547 -6.47174
15.3293 7.575 -8.02653
14.2301 -11.2666 -8.48027
-11.4632 16.4082 -9.16491
16.2357 -12.3007 -9.30257
9.88318 -2.47811 -4.68096
-9.00828 -1.63771 -4.16332
19.4163 18.7399 -12.1836
3.96177 -9.20707 -4.54722
-9.81311 16.0217 -8.43176
-5.27411 4.38484 -3.08251
6.98251 -11.4917 -6.05046
9.5782 -9.23024 -5.86491
16.3723 7.46943 -7.94269
-6.39532 14.5106 -6.92073
1.50498 -18.6894 -8.10914
-10.7124 16.2919 -8.3897
9.68825 -3.40788 -4.39915
7.14377 -11.241 -5.62759
16.2137 -12.2549 -8.50485
14.959 7.90856 -7.10103
19.4788 20.2706 -11.7568
1.01045 -22.1645 -9.23944
-4.40587 13.4532 -5.82899
-9.81149 -1.09744 -4.09127
14.3821 7.94234 -6.7118
21.3905 23.2725 -12.893
-12.8315 2.40457 -5.31713
15.4396 7.33633 -6.91669
-5.04475 13.8061 -5.9072
3.68692 -8.92189 -3.84049
12.6376 -10.4719 -6.42753
14.2709 -11.2674 -7.10345
20.1115 22.5147 -11.7186
19.2623 5.94013 -7.81901
1.54597 19.4991 -7.58853
-8.37191 15.0769 -6.64351
11.6194 -10.2437 -5.95624
20.0903 23.2979 -11.8584
0.674309 15.4515 -5.92558
-1.6372 12.493 -4.8453
2.72951 -12.2935 -4.83055
-8.67631 -1.23921 -3.3311
0.693398 -22.9695 -8.6747
15.5763 -11.9362 -7.39826
9.59618 -3.5016 -3.85359
-13.93 17.1682 -8.2358
-7.81504 -3.47164 -3.13651
1.09248 -10.3876 -3.84225
7.16009 -11.444 -4.93413
14.5018 8.09804 -5.9999
-8.21063 -2.81904 -3.12165
0.782831 15.3817 -5.49459
-3.80873 12.8587 -4.74019
5.84074 -11.1805 -4.43673
16.258 -12.2861 -7.21516
19.5536 6.03941 -7.20244
2.1691 21.2985 -7.51523
22.8364 27.6123 -12.4619
-14.1595 17.4754 -7.71626
3.01817 -13.5262 -4.76767
-8.48676 15.3242 -5.98198
19.0564 -13.4969 -8.00091
-4.84277 13.896 -4.99985
1.33359 -21.6408 -7.18772
1.77673 19.9557 -6.62308
1.45061 -10.3083 -3.44032
41.4907 -21.2086 -15.2874
-3.1991 -23.624 -7.69332
6.26864 -10.2067 -3.83232
18.0852 -12.7695 -7.08847
2.14346 21.0562 -6.74066
-12.7066 16.9604 -6.67822
1.41194 -21.9471 -6.85591
-4.12894 14.1099 -4.56477
-10.4246 15.7918 -5.73123
-2.55885 -26.1201 -7.98062
3.10929 -9.6019 -3.0656
0.772439 -23.284 -7.01021
19.7602 -14.0257 -7.18779
18.0079 5.69718 -5.54446
-7.5184 14.5485 -4.76385
4.30369 -10.6739 -3.3428
3.69145 -10.7681 -3.23759
4.32942 -11.1669 -3.35974
-12.6327 16.8829 -5.86234
-8.82535 15.0831 -4.75072
-13.0064 1.94967 -3.60576
-16.0193 18.4031 -6.62214
27.468 -18.082 -8.90749
-3.58472 -25.5924 -6.93897
3.84312 -9.28726 -2.68766
-9.31518 15.4811 -4.80602
50.276 -14.6794 -13.8861
10.7382 -9.57703 -3.80745
-6.11597 14.1532 -4.02397
-13.6801 17.1497 -5.75399
-7.24192 -34.2928 -9.13756
5.04843 -9.74367 -2.83879
6.68381 -10.6947 -3.25188
-6.82741 14.4849 -4.06682
-10.0276 15.6155 -4.73885
-8.88428 -35.223 -9.04185
-8.05794 -34.8019 -8.73175
11.1677 -9.8446 -3.65949
-7.55964 14.6673 -3.99812
-11.1229 16.165 -4.74725
14.9438 7.89407 -4.01421
4.11404 -9.40342 -2.42779
15.5577 7.70545 -4.09426
3.81103 -9.05877 -2.30878
-5.97459 -29.7929 -7.04245
5.73033 -10.0652 -2.68295
47.4036 -11.4716 -11.3345
-12.1438 16.5399 -4.72078
15.2061 7.7879 -3.86796
46.3095 -10.0182 -10.7322
-9.27764 15.4514 -4.03129
-30.6121 -75.2255 -17.652
3.79352 -9.44774 -2.21324
45.4231 -11.6529 -10.2337
15.473 7.67644 -3.70143
-10.077 15.7282 -3.99857
-20.3716 -32.0272 -8.15756
-16.6482 -52.0282 -11.7765
4.91946 -9.94862 -2.39276
47.74 -11.1783 -10.4894
-13.9948 17.3381 -4.68575
-30.518 -22.5251 -8.04076
44.081 -14.749 -9.83196
15.1965 8.03044 -3.58728
-33.0901 22.3771 -8.16648
-7.53812 -30.8413 -6.4357
4.05736 -11.807 -2.50745
47.1976 -10.1834 -9.81968
12.037 -9.96378 -3.13269
45.4539 -11.7014 -9.35189
-25.4425 19.1993 -6.32509
6.27924 -10.5092 -2.43581
48.7499 -11.4002 -9.77721
-12.1072 16.5186 -3.95587
-25.2873 19.8171 -6.24138
16.5399 12.5116 -3.96756
-6.48615 14.2739 -3.00682
-31.3428 -22.6706 -7.40484
-29.9253 -23.4336 -7.30528
-33.3097 22.1961 -7.53599
-31.8823 -21.0316 -7.21839
18.4582 5.80323 -3.61351
-32.4255 -19.5646 -7.07293
-13.4093 -38.6644 -7.62916
3.86263 -10.0584 -2.02701
-21.1142 -52.5709 -10.5426
-14.957 -40.2988 -7.86748
4.06247 -9.84419 -1.91944
13.3722 -10.4488 -3.05951
48.1527 -10.7155 -8.86008
-13.94 17.2887 -3.96648
-25.4144 19.9327 -5.70101
15.4455 8.17645 -3.04642
-28.6236 -24.9436 -6.61839
45.312 -11.6067 -8.02976
-7.4928 14.4319 -2.75225
-9.14722 16.8438 -3.2354
47.3592 -11.1486 -8.22638
-28.8448 21.0103 -6.00667
-28.7359 -22.1079 -6.06039
-19.6528 18.7912 -4.52245
-30.3009 21.3992 -6.18731
16.3747 -12.2174 -3.34677
-9.7732 15.515 -2.91534
-40.1892 23.6486 -7.39696
-29.9919 -22.5311 -6.00583
-31.7225 -21.8811 -6.06998
3.5183 -9.7282 -1.61638
-22.4368 19.1665 -4.55618
17.4265 -12.3196 -3.30465
-10.5699 15.8186 -2.88876
48.9262 -11.4667 -7.62643
-20.099 -46.5798 -7.66932
-27.6907 20.7675 -5.17449
-35.7793 22.3094 -6.25759
-29.9792 -23.271 -5.66232
47.3335 -10.1434 -7.20729
-31.9267 -23.0897 -5.7574
-45.9114 25.6344 -7.55987
-33.6167 -22.4227 -5.81677
6.95999 -13.3554 -2.18491
-34.3502 -19.9646 -5.62303
-6.50209 14.3338 -2.18354
-12.399 16.7374 -2.89683
-30.1212 21.686 -5.18705
-25.9229 -22.2308 -4.70922
-21.5899 -48.0832 -7.27104
-14.2048 -41.5286 -6.03977
38.6012 -12.8373 -5.57809
-21.8762 19.2239 -3.87425
-30.5816 -22.9022 -4.98825
-29.0182 -23.8056 -4.96263
-32.1248 -22.1244 -4.99658
7.5929 -9.61709 -1.58369
45.3831 -11.6173 -6.01038
-31.3819 21.3549 -4.82543
-28.556 -15.2377 -4.12592
6.13344 -7.94321 -1.28146
47.5384 -11.1737 -6.19053
-29.142 21.4179 -4.51236
14.9016 -11.6096 -2.31997
-15.1464 17.3271 -2.75145
-28.156 21.2065 -4.26354
-30.5337 21.5847 -4.5016
-9.77596 15.5483 -2.12077
-29.9448 -21.5367 -4.33961
-20.1356 -48.4751 -6.10854
13.3122 -10.7668 -2.00357
37.6185 -12.4309 -4.5836
6.49764 -10.5959 -1.42772
11.4393 -9.91294 -1.70489
16.9486 -12.6191 -2.38022
-10.4632 15.6891 -2.08706
6.98333 -13.0107 -1.61675
11.8613 -9.90546 -1.71083
45.21 -11.5934 -5.12351
-36.3581 22.67 -4.59836
47.6136 -11.1262 -5.26414
15.3338 -11.7746 -2.05607
-12.2504 16.5506 -2.11424
15.1236 8.00492 -1.71206
14.3795 -11.3437 -1.82891
-13.2478 16.9435 -2.0855
6.6181 -12.6825 -1.37585
9.58525 -9.092 -1.27656
17.551 -12.8335 -2.12117
-27.778 -13.2737 -2.90017
-14.1655 17.3466 -2.08726
-31.5006 -61.37 -6.42172
-32.2816 -20.2 -3.37163
16.6256 -12.4582 -1.86882
40.6259 -13.5178 -3.83129
11.3618 -10.0998 -1.25586
45.6765 -11.6746 -3.93158
-14.5497 -37.8636 -3.25867
-33.5407 -65.5852 -5.73791
18.1983 -13.2612 -1.77761
-28.3235 21.4364 -2.71723
7.59691 -9.35835 -0.932626
-30.7779 21.7871 -2.80156
-14.9649 -37.0212 -2.98457
-21.4619 -49.0937 -3.87238
-31.5474 -59.3652 -4.78031
-30.3188 -60.7243 -4.64881
12.8828 -10.7214 -1.12775
17.6072 -12.8241 -1.47189
-36.7519 22.8796 -2.8312
45.9714 -11.77 -3.11455
-27.6005 -12.9784 -1.82631
-33.9246 -65.5421 -4.46805
14.9102 -11.624 -1.13874
32.9583 -21.7115 -2.15538
32.8671 -20.7149 -2.12229
15.7162 7.76203 -0.911149
15.14 8.02824 -0.88282
-12.1656 16.602 -1.04471
-21.6931 -47.871 -2.69914
-12.2456 -33.3313 -1.75959
-26.1128 -15.0813 -1.43078
-35.4416 -66.7961 -3.6905
9.85017 -9.27707 -0.676606
13.7978 -10.9727 -0.865558
16.4223 10.4473 -0.921515
16.7694 11.7538 -0.955619
7.07484 -12.9763 -0.702153
-19.5591 -5.77122 -0.875706
-26.638 -47.4726 -2.40012
10.5906 -14.2982 -0.726613
18.6623 -13.4584 -0.939855
45.0984 -11.5201 -1.85206
-9.1785 -12.1397 -0.586941
46.7883 -10.9565 -1.8894
23.6596 28.4446 -1.26613
-30.745 21.0175 -1.29191
-34.6755 -19.4446 -1.29343
-16.2865 -40.591 -1.40366
16.993 -12.6778 -0.691395
18.4289 -12.9697 -0.706255
14.6655 3.97243 -0.449247
-22.4383 -51.5612 -1.68376
-21.5705 19.2153 -0.82635
-11.1269 -33.7404 -0.953928
45.5152 -9.66901 -1.30112
-39.0491 24.2893 -1.24471
-50.5797 18.188 -1.28895
-21.7154 -36.2135 -0.919498
46.3129 -10.7546 -1.02255
-29.0986 21.9916 -0.730445
-29.216 9.293 -0.641956
36.3461 63.6387 -1.35484
-28.4836 21.0222 -0.679433
13.3002 -10.898 -0.297793
-32.9463 -20.5033 -0.600528
-26.604 -53.5037 -0.886003
18.0546 -13.0206 -0.323146
-11.3585 -34.3406 -0.464728
-13.5008 17.139 -0.223622
-17.9784 -41.3185 -0.487061
31.8997 -19.9801 -0.338775
-21.567 19.2428 -0.197619
-9.69517 -12.4434 -0.0472381
7.23338 -12.0663 -0.024257
14.9588 7.82272 -0.000763045
-33.87 -20.9145 0.213368
-21.8956 -37.4227 0.322437
-49.2266 26.967 0.571623
6.90341 -12.2488 0.145596
8.16304 -9.28144 0.123449
-38.9749 -20.7211 0.486524
-10.5475 -29.8706 0.35587
11.3446 -9.88931 0.197265
-21.961 18.7649 0.378499
-11.9432 -18.5309 0.321701
-29.4298 20.9425 0.64157
-33.4925 -22.4539 0.723191
-32.954 -24.3447 0.716626
10.8619 -9.76126 0.238233
7.95344 -9.80396 0.271155
8.05202 -9.39826 0.266907
-64.8991 22.4735 1.6035
18.7096 -13.5815 0.563017
-27.8063 -8.35369 0.777368
-26.4447 20.7382 0.966058
11.8468 -10.15 0.425413
17.6825 -7.66493 0.548598
-23.6767 20.081 0.922405
-7.79015 -9.13519 0.382434
13.1306 14.2761 0.688462
-26.705 -18.9989 1.13307
6.37638 -13.1382 0.513404
9.07476 -8.92986 0.434882
25.2795 -4.4797 0.85833
19.3072 18.4382 0.962437
14.7396 25.5162 1.10635
-87.1645 31.1073 3.39629
-52.964 17.4093 2.00542
25.0804 -4.87215 0.967618
-24.1486 19.7269 1.1767
9.55804 -9.09287 0.509847
22.9751 -3.16537 0.875803
12.6301 14.6285 0.789943
15.4548 19.9694 1.0326
6.74147 -12.7819 0.59275
20.1694 46.6209 2.11836
7.84503 -11.305 0.579803
-7.46838 -7.35173 0.463199
-8.12647 -11.2433 0.620558
-28.5863 -11.3164 1.46497
16.8341 10.9283 0.999266
-7.6444 -7.11278 0.50023
16.2 25.1685 1.54524
-6.87249 -8.09038 0.583872
15.2454 20.8767 1.41546
-24.7963 19.0941 1.72823
15.2765 24.8793 1.68945
-7.03108 -9.06381 0.655971
7.08695 -14.0442 0.902253
10.1965 12.8258 0.969004
15.3906 20.4483 1.60361
16.0638 28.59 2.01823
11.3451 31.8181 2.14801
-7.19434 -9.81943 0.779356
10.1054 23.0299 1.68763
11.6886 10.2818 1.10894
11.773 12.4497 1.2089
14.1997 16.408 1.55214
8.43748 -13.0062 1.09383
10.9858 9.17047 1.0523
13.314 14.9331 1.49636
-14.0378 8.27838 1.23085
-10.9905 2.07047 0.845223
12.899 16.7909 1.64266
12.1009 19.2856 1.76766
10.2419 -7.00909 0.968748
-7.58211 -8.02081 0.88336
13.0802 11.8405 1.43857
12.1595 11.8956 1.41155
-6.94791 -6.11317 0.752103
-6.99245 -6.83757 0.811424
-13.038 1.84597 1.08726
-6.95197 -8.80355 0.966882
11.7702 12.2863 1.46672
9.20352 -7.23243 1.01878
10.8576 9.56464 1.31497
-11.2473 2.88006 1.06597
-7.54548 -7.02806 0.926637
11.875 9.16294 1.43583
9.48926 13.419 1.57802
7.42895 13.67 1.52497
8.67584 13.4895 1.60838
-6.68407 -6.6607 0.938171
7.95713 -6.61413 1.01241
9.93952 12.4497 1.59644
10.151 10.3695 1.49846
-6.82991 -5.36145 0.90359
9.80171 9.3336 1.44266
8.3968 11.4162 1.48542
6.98627 13.5469 1.62423
9.759 8.51594 1.37071
9.38236 10.4501 1.52974
5.88251 12.9583 1.54096
-6.32382 -7.4477 1.05621
6.86875 11.6908 1.49202
5.44477 13.6433 1.62132
-6.78178 -3.95531 0.866771
-6.64204 -6.0282 0.988375
3.98136 -7.89001 0.977618
5.49178 -6.15267 0.9262
9.50563 7.65236 1.37129
9.24746 9.84139 1.52271
8.1184 11.5633 1.5794
6.94161 10.9553 1.4791
-6.83138 -4.53754 0.929999
4.7738 -7.78865 1.05488
-10.4362 6.99601 1.45652
-7.0452 -2.11966 0.855724
9.13027 6.16787 1.31066
6.07182 12.3929 1.63144
5.13448 11.8746 1.52646
4.812 -5.9103 0.896669
4.17668 -8.00766 1.09739
8.41766 3.89894 1.16255
11.1085 5.54081 1.52545
4.73244 13.1686 1.74287
-6.11479 -5.34991 0.996561
-9.05144 1.29022 1.13868
8.38232 7.66661 1.43759
-6.39066 -5.28164 1.04868
7.91953 8.31808 1.47656
-6.84314 -3.55026 0.997974
5.01077 -6.01757 1.01053
5.06021 -5.46685 0.970929
8.51836 7.00856 1.46113
8.06671 7.97666 1.50936
-7.15795 -1.71307 0.991187
-6.98815 -2.19594 0.981135
-6.44468 -4.3453 1.03246
4.87305 -6.14245 1.04292
8.49372 6.4374 1.44949
-6.80417 -4.18988 1.07658
-6.01263 -4.41798 1.00338
4.98736 -5.57953 1.02723
7.46651 -3.54633 1.15019
8.44437 4.28726 1.34498
8.41071 4.6218 1.36161
-6.89733 -2.88928 1.06892
7.53626 -3.76132 1.20241
7.06394 -3.07556 1.08655
4.98124 -5.83581 1.10711
8.25211 -1.74606 1.22129
-6.91545 -3.23728 1.13222
7.46912 5.62824 1.40463
5.83779 7.53732 1.44025
8.05708 3.94811 1.37085
7.98003 4.23207 1.37322
5.51931 7.92571 1.46877
5.17475 8.83979 1.5482
3.5927 9.82847 1.57997
-6.96503 -2.80929 1.14463
7.73601 -2.81425 1.26069
7.90144 -2.25171 1.26768
7.84984 -2.03076 1.25264
7.52945 4.24101 1.3934
7.13402 4.79711 1.41267
6.80522 4.96005 1.40028
5.44942 6.53046 1.41575
-7.16149 -1.35242 1.20618
5.06479 7.43829 1.50241
4.79302 7.33624 1.47162
-7.17521 -0.799267 1.20824
2.89099 -5.981 1.11928
6.75481 4.122 1.35203
6.57077 5.27829 1.4314
3.90621 8.08475 1.50791
-6.34571 -2.28864 1.14407
-6.25232 -2.66789 1.15895
3.79682 -5.27392 1.10601
-6.93306 -1.78534 1.25055
4.25939 -4.6684 1.11025
6.71649 3.53684 1.37087
5.11313 5.65587 1.3938
3.65703 -5.39686 1.18675
3.41144 6.84161 1.42628
6.54241 3.07011 1.37299
6.4721 2.73294 1.3413
-1.63811 -5.66974 1.1333
-2.15694 -5.72635 1.19335
6.29369 2.39284 1.34588
3.95954 -4.60402 1.20753
-2.93531 5.47712 1.32207
-3.55728 5.1158 1.35539
4.22344 -2.93773 1.20916
-4.22566 3.88055 1.39573
4.60424 -2.19535 1.23791
4.49412 -1.27356 1.16145
3.71883 -2.94346 1.23541
3.68725 -2.59059 1.19554
3.43287 -2.98455 1.22761
-2.31566 -3.60792 1.20383
-2.49482 -2.92166 1.19455
1.86886 -2.48716 1.12983
1.93098 -2.6457 1.19473
-2.02659 2.77897 1.3008
-2.07133 -1.46326 1.19553
-1.82475 -1.83006 1.30115
-1.97621 -1.17156 1.20807
6.95185 -6.96115 -8.93787
9.80151 -9.16666 -9.49673
9.35777 -9.03835 -7.75087
2.43839 -19.9155 -10.6559
3.70813 -9.38509 -4.54856
28.2966 35.1624 -15.1694
2.09291 20.8707 -6.22422
-21.0423 -29.3122 -6.73911
-26.889 -25.0084 -5.6621
9.67779 -8.9287 -1.64549
8.91262 -8.7821 -1.25423
9.06896 -8.94478 -0.943986
19.8108 -14.0272 -1.3267
46.0128 -12.3591 -2.46635
-30.2199 -12.7808 0.331551
10.2362 7.04513 1.31899
-3.43174 5.2199 1.33904
8.05342 -8.31219 -10.3808
7.91459 -8.34025 -10.1196
8.46042 -8.54937 -9.95886
6.89948 -11.9052 -11.3019
8.05294 -8.3139 -9.15408
8.09481 -8.79925 -9.18648
6.26136 -14.2427 -11.7031
5.91522 -14.2785 -11.3139
9.19048 -8.93246 -9.3935
7.70826 -9.30076 -8.753
7.93911 -9.20283 -8.68687
7.29089 -10.7985 -9.26864
10.3709 -9.43995 -9.82822
6.49218 -11.1843 -8.83317
8.2689 -9.17996 -8.28259
7.4175 -9.42545 -8.00342
8.04751 -9.30297 -8.0851
5.0553 -16.0124 -10.8304
-0.532714 14.2679 -9.16518
7.38848 -10.9099 -8.44976
7.69286 -9.23505 -7.68833
11.159 -9.95541 -9.49176
7.13552 -11.0463 -8.19402
8.28763 -8.69871 -7.46227
0.0994457 14.2739 -8.69913
7.84451 -8.82044 -7.11024
11.6777 -9.91281 -9.24092
9.10072 -9.02697 -7.5735
6.65236 -12.9819 -8.60243
5.56469 -14.0936 -8.90238
7.13688 -11.2254 -7.63308
5.15299 -12.9258 -7.81196
3.1687 -19.2996 -10.9656
6.69643 -11.2327 -7.32531
7.94885 -9.16044 -6.79936
12.4094 -10.3933 -9.04944
-0.500138 14.3659 -7.89176
9.84739 -9.64526 -7.55653
13.5447 -10.8573 -9.3606
15.4193 10.5629 -10.0477
15.3493 7.54278 -9.1443
14.1334 7.79371 -8.54135
11.6122 -10.0201 -7.8787
-0.0761835 15.2995 -7.74323
2.3572 -19.3407 -9.84312
10.8499 -9.72536 -7.3282
7.44383 -9.39995 -6.01327
14.4286 -11.4431 -9.26988
18.5384 -13.2543 -11.0843
19.0561 5.88432 -9.69434
2.64315 -19.3364 -9.47901
13.0924 -10.8141 -8.20819
15.7823 -12.0153 -9.61946
7.41509 -10.9278 -6.35782
15.3229 7.51223 -7.94651
7.19639 -11.0669 -6.15032
6.31687 -10.7863 -5.78652
10.1104 -2.53711 -4.79313
17.8494 -13.0407 -10.1539
-11.3055 16.2205 -9.00471
3.57783 -9.11942 -4.43627
-9.7995 16.0112 -8.42883
16.3428 7.39255 -8.03064
-10.763 16.3663 -8.44106
-6.91815 6.70745 -4.14705
-6.35315 6.33523 -3.81635
1.20811 -15.4819 -6.60015
20.7961 21.551 -12.5789
16.6405 -12.575 -8.76753
15.4874 7.6119 -7.21584
-9.93694 -1.08437 -4.15051
20.841 22.6911 -12.6619
14.3995 7.957 -6.70087
16.7796 7.55859 -7.39767
15.3374 7.89305 -6.92366
17.9769 16.6732 -9.65389
1.49087 -17.8521 -6.99539
19.1288 5.9025 -7.75128
20.2902 22.6492 -11.7711
0.760658 16.3773 -6.30261
-9.12832 -1.32396 -3.57335
0.700046 -23.3946 -8.90558
17.3711 -12.8474 -8.07919
14.4677 8.07967 -5.99453
0.529048 -21.8371 -7.70306
-3.90641 13.1116 -4.79538
-10.1267 15.557 -6.49116
-0.810772 -21.7252 -7.649
-14.2508 17.5821 -7.8212
-8.48933 15.3274 -6.00653
-4.8249 13.7239 -4.89872
16.887 7.58096 -6.15642
1.27881 17.8823 -5.9791
