ply
format ascii 1.0 
element vertex 1872
comment /media/mkaihara/Seagate Backup Plus Drive/model_iterations/model_59.ply
property float32 x 
property float32 y 
property float32 z 
end_header 
8.83639 -8.54387 -10.5025
6.96016 -11.9426 -11.5193
6.87563 -11.3553 -10.9006
8.15636 -8.26869 -9.53726
7.02528 -12.0346 -11.3315
7.06952 -10.9782 -10.4612
8.00608 -8.3818 -9.20835
6.73092 -11.2903 -10.294
6.44843 -11.7029 -10.2181
7.76135 -8.85516 -8.97674
6.2088 -14.3238 -11.8141
8.3028 -8.70535 -9.10594
6.30309 -11.9152 -10.1805
6.15049 -12.0939 -10.1176
7.49515 -9.45025 -9.00586
7.91353 -9.06071 -8.9314
10.4709 -9.45299 -10.4917
6.12352 -14.1215 -11.377
6.10466 -13.6756 -11.0111
6.1344 -12.5831 -10.2964
9.19967 -8.82885 -9.35378
9.28757 -9.07567 -9.47112
5.86799 -12.5117 -10.0391
9.36345 -8.9923 -9.26501
6.86489 -11.1312 -9.28148
5.61864 -12.977 -10.0088
9.69427 -9.08329 -9.41487
7.61283 -9.34884 -8.4767
9.99949 -9.18878 -9.54066
10.92 -9.49581 -10.1544
11.4429 -9.7004 -10.0746
8.38889 -8.61231 -7.95981
7.43478 -9.30374 -7.86903
8.17174 -8.72299 -7.90055
7.63201 -9.35682 -7.8998
7.841 -9.40697 -7.84891
8.32484 -8.53975 -7.62388
0.359506 15.8808 -10.1349
7.53161 -9.32899 -7.63007
10.9127 -9.60893 -9.24493
7.22963 -10.7075 -8.17702
8.15951 -8.5019 -7.43154
4.61549 -15.4141 -10.1194
8.71798 -8.70508 -7.62249
7.92558 -9.03724 -7.41448
4.05066 -18.0282 -11.382
8.20205 -8.63208 -7.27954
4.08795 -17.3147 -10.8557
0.14535 14.8856 -9.0574
6.65805 -11.2686 -7.9688
7.74662 -9.27286 -7.33139
10.1277 -9.3144 -8.34919
6.82427 -11.2574 -7.903
8.06467 -9.2092 -7.34804
11.2699 -9.69765 -8.88927
5.40393 -13.865 -8.82568
7.73904 -9.27106 -7.16197
9.35456 -9.03697 -7.70719
6.90594 -11.1213 -7.74804
7.98748 -9.13269 -7.11925
9.75588 -9.19046 -7.81113
14.8451 7.41793 -9.63791
8.67122 -8.83505 -7.15322
6.93635 -10.9701 -7.45931
2.64112 -11.217 -6.62758
7.86382 -9.0762 -6.87796
9.60793 -9.14284 -7.53399
10.795 -9.4972 -8.11102
3.28034 -20.6014 -11.7316
6.8044 -10.9876 -7.24535
10.1084 -9.29332 -7.68973
12.3395 -10.3539 -9.03321
9.24355 -9.0106 -7.21325
4.61807 -14.2999 -8.37771
8.00769 -9.22078 -6.78269
14.7673 7.54985 -9.10531
9.70003 -9.10949 -7.30822
0.83669 17.475 -9.55354
2.74188 -19.8559 -10.9297
11.1316 -9.64624 -7.99754
4.23527 -14.4283 -8.13978
14.6808 7.67736 -8.92354
15.0688 10.4039 -9.83151
14.0162 7.73251 -8.55319
10.9515 -9.61864 -7.75105
13.2618 -10.7996 -9.09793
3.04409 -19.3319 -10.2881
11.3559 -9.82511 -7.64073
2.16902 -20.3826 -10.3458
10.2617 -9.34267 -6.97844
14.2649 -11.2829 -9.13182
13.8015 -11.1631 -8.8865
11.0076 -9.65486 -7.29472
7.51038 -9.34007 -5.93531
3.56374 -8.46971 -4.52853
-8.70887 -1.91216 -4.38376
2.22355 -20.1607 -9.94825
4.53259 -9.30051 -5.05998
0.403459 13.6617 -6.69043
7.60935 -9.27196 -5.8531
-8.51959 16.2582 -8.88961
-9.21012 -2.4348 -4.5902
14.9872 -11.5736 -9.09987
19.3598 5.53923 -9.62981
-10.3255 -2.55645 -5.03131
1.90993 -20.5575 -9.81737
17.1868 16.151 -11.17
7.58307 -11.2108 -6.38639
20.0109 5.40126 -9.76084
14.0227 -11.102 -8.3173
2.93001 -17.3366 -8.17557
19.3377 5.72157 -9.31632
17.8294 -12.9935 -10.1907
9.8583 -2.49008 -4.69806
20.2654 5.13647 -9.64558
17.312 16.2796 -10.9503
1.81029 -20.2249 -9.29314
9.67104 -9.04331 -6.06297
-9.21998 -1.67352 -4.27355
9.44615 -3.46612 -4.58277
6.7127 -11.3161 -5.98467
9.90554 -2.6164 -4.64711
19.2306 5.864 -9.05112
17.6968 17.5534 -11.2051
9.36234 -3.08408 -4.43697
15.4195 -11.8652 -8.73129
7.0364 -11.5608 -6.05352
7.15032 -10.9153 -5.81634
9.5523 -3.40227 -4.51878
-10.0419 16.4587 -8.58344
17.6385 -12.8728 -9.70352
19.5169 5.62228 -9.0022
16.0921 7.29911 -7.82465
17.804 17.9831 -11.1914
16.4139 -12.2073 -9.01575
-11.2993 17.1819 -9.03868
-6.58633 15.0511 -7.20318
-5.24317 4.91775 -3.132
20.1142 5.46134 -9.06118
9.55123 -3.40254 -4.37578
18.1971 18.4437 -11.1358
15.8107 -12.1671 -8.58481
14.8525 7.42617 -7.08691
3.83828 -9.30138 -4.27516
-11.2226 17.0682 -8.64761
6.94282 -10.904 -5.45084
-13.609 3.3352 -5.90336
0.743493 -22.3916 -9.4413
15.796 -11.9601 -8.28599
-5.17286 5.69607 -3.21912
0.998899 -22.2543 -9.33825
1.23229 -20.7877 -8.72397
14.1618 7.59535 -6.7214
18.5272 19.3078 -11.1803
3.78238 -8.95395 -4.05348
14.7646 7.72614 -6.93635
17.8972 19.1145 -10.8666
-9.52306 -1.09298 -3.95687
4.00695 -8.50173 -3.85076
14.0287 7.74624 -6.57854
6.84226 -10.9842 -5.29078
-13.6479 2.54948 -5.67964
-8.00539 15.5082 -7.092
19.2287 20.8941 -11.5036
15.0665 7.23944 -6.73486
-5.29965 14.4722 -6.17914
13.9445 -11.0244 -6.96253
1.53181 19.2477 -7.49917
-8.79531 15.8844 -7.05564
18.9775 5.78748 -7.68734
-1.75807 13.3163 -5.20249
5.29498 -9.39274 -4.15823
-2.39152 13.5367 -5.27969
19.557 22.6238 -11.4667
4.66007 -8.51463 -3.68625
19.4036 5.56651 -7.68136
0.876906 -26.5382 -10.0909
14.8953 -11.4783 -7.07703
19.9622 5.40813 -7.74056
9.43687 -3.4382 -3.75507
0.533438 -22.6906 -8.45824
3.24821 -10.7935 -4.21108
20.1559 23.4497 -11.4829
0.909775 -8.72293 -3.25242
14.0191 -11.1024 -6.5942
20.3699 5.18084 -7.72799
17.8616 17.6495 -9.17628
-13.0611 2.28819 -4.82083
20.8054 24.8451 -11.7531
2.28705 -13.2585 -4.84714
13.0273 -10.535 -6.02885
0.795974 15.4423 -5.53272
-8.20715 -2.80073 -3.10177
0.410084 -21.8619 -7.8163
-4.23985 13.9139 -5.17372
0.638497 -21.9402 -7.80015
15.8449 -11.9671 -7.03784
-15.8414 18.3137 -8.53368
5.9275 -11.3365 -4.49806
-11.0983 16.7479 -7.01726
0.093677 -18.5243 -6.51171
14.2558 -11.2979 -6.36041
20.3248 5.35274 -7.33614
0.657852 -23.0605 -7.96723
-5.04576 14.6469 -5.30788
3.63911 -8.44787 -3.16632
4.87606 -9.03221 -3.51738
-14.6075 18.1352 -7.9707
2.27529 -10.8874 -3.81172
-8.94808 16.2318 -6.31805
3.02784 -13.699 -4.78326
-15.0861 18.5163 -8.09679
20.143 5.4766 -7.01616
21.9993 27.2146 -11.6956
36.0018 -20.3232 -13.8158
-5.34111 14.166 -5.02814
1.91415 20.7468 -6.9133
1.26753 -10.2492 -3.41467
-5.28819 14.5604 -5.0314
-12.6772 17.3549 -6.97197
18.5472 -13.2166 -7.39592
3.55974 -8.67247 -3.00568
6.21891 -10.1114 -3.80436
2.31378 -11.0092 -3.57999
-4.5802 -34.4072 -11.0323
-1.14092 -23.9079 -7.61882
15.0085 10.3366 -5.75121
-13.3053 17.7048 -7.00026
-18.1234 19.5477 -8.37953
6.96042 -11.0926 -4.04871
1.38626 -21.9149 -6.79286
-2.58383 -27.5225 -8.48515
7.17295 33.128 -10.3435
0.77111 15.0335 -4.57237
-11.2142 16.9201 -6.11817
-2.71142 -26.6246 -8.05941
-14.4485 18.0649 -6.90213
-5.32352 -34.9096 -10.5144
0.839194 -25.09 -7.5061
-5.43117 14.9374 -4.72792
2.08045 20.7007 -6.12983
-21.4311 19.9827 -8.64499
18.1999 5.79161 -5.62181
-4.32557 14.5279 -4.45696
-7.98338 15.4879 -5.11209
4.2557 -9.14306 -2.96414
4.63672 -11.618 -3.65766
-12.6391 2.22655 -3.68845
-33.2338 -47.0762 -16.5815
-15.3056 18.4126 -6.88297
6.95753 -11.0813 -3.76695
2.56377 -9.54592 -2.80844
12.9295 -10.4656 -4.73386
-8.45723 -2.46132 -2.49755
21.0322 27.1249 -9.72465
-8.58484 -2.26264 -2.50869
-2.56418 -26.1667 -7.37828
-13.0465 1.99922 -3.67558
4.38815 -11.3302 -3.37236
-9.37613 16.1244 -5.1208
-13.1507 17.5387 -6.02108
-5.43183 14.4965 -4.23129
-8.56871 -41.6136 -11.6243
-21.6221 20.1773 -7.95053
-9.79926 16.2491 -5.08519
-26.9017 20.6653 -9.02468
11.4279 11.5019 -4.27825
4.32723 -11.2962 -3.20463
46.9969 -13.662 -12.9655
-8.26224 -38.9913 -10.4759
4.08924 -8.65684 -2.52096
11.1687 -9.93405 -3.91026
-14.5524 18.2207 -6.06348
6.53598 -10.4231 -3.18435
3.17819 -9.64648 -2.62568
-30.3396 -44.4357 -13.8937
-4.38591 -28.7683 -7.5291
3.54121 -10.3726 -2.82618
4.06819 -9.38713 -2.6296
15.5999 -11.73 -4.98007
-7.20635 15.3523 -4.29272
-31.7744 -42.3753 -13.4309
4.31201 -11.1447 -3.02445
4.255 -7.70427 -2.23995
6.53589 -10.6612 -3.11869
44.6917 -13.5121 -11.6409
-28.4638 21.4748 -8.81529
-11.6091 17.0556 -5.08618
-27.79 -40.5398 -12.0849
-9.96981 -39.2419 -9.98707
-24.6445 20.6993 -7.90906
4.34946 -10.3306 -2.75398
-12.1458 17.3973 -5.1445
-7.89913 15.3906 -4.16963
10.2728 -9.26616 -3.31255
40.1882 -13.3495 -10.1336
15.1089 7.55613 -4.02166
-6.35919 -36.4192 -8.80661
3.96513 -9.08629 -2.3491
46.8679 -12.5438 -11.5151
-12.2629 -45.1524 -11.0836
4.20101 -8.98873 -2.36701
3.8586 -11.0671 -2.76229
4.90791 -8.69238 -2.34834
-12.8646 17.5313 -5.0606
11.0049 -9.64409 -3.34441
-6.22953 -31.591 -7.34692
-27.3297 21.1081 -7.82777
41.4195 -9.05818 -9.62165
-30.6968 22.2874 -8.50507
-35.6053 -23.333 -9.53839
40.6182 -12.5564 -9.54576
5.45347 -9.47231 -2.44033
-12.4277 2.83571 -2.7969
40.4918 -11.8661 -9.32273
42.4617 -12.1156 -9.71477
-5.41646 14.211 -3.3253
13.3857 -10.7713 -3.78189
37.9667 -12.2013 -8.76705
-23.5351 20.5121 -6.77189
-29.9367 -73.8068 -17.2823
4.30846 -9.6973 -2.30114
4.53802 -9.17802 -2.21153
-14.672 18.2798 -5.00574
-31.1347 22.6157 -8.21702
-32.0189 22.7226 -8.39294
-28.5654 -75.7881 -17.3604
-10.7587 16.8113 -4.23218
-8.50374 -36.0984 -7.88623
3.18959 -9.68309 -2.174
3.96524 -9.82688 -2.25943
45.6456 -10.5829 -10.0022
14.9413 7.48389 -3.54274
-15.2508 18.7737 -5.12104
5.16278 -9.05272 -2.18951
26.5188 38.3688 -9.74663
14.9812 7.84041 -3.51054
-30.284 -23.3884 -7.93773
-33.5205 -85.9483 -19.099
-11.5193 16.9723 -4.16834
-15.7151 18.5804 -4.95417
-35.4001 23.7631 -8.66383
44.2889 -9.66035 -9.24404
-13.372 -43.0277 -9.15743
4.13452 -9.73115 -2.15118
11.5997 -9.64252 -3.06905
-12.0692 17.3201 -4.2141
-20.1458 -57.8186 -12.2364
-13.0752 -40.6173 -8.4478
4.06848 -9.91814 -2.12254
-34.2721 -23.4349 -8.18464
-26.8836 21.0993 -6.7261
-33.2995 -23.8197 -7.98084
-6.93253 15.3189 -3.26379
-26.8826 -63.1656 -13.334
-33.7087 -22.4409 -7.80366
3.43474 -9.3593 -1.92516
45.7247 -10.5941 -9.01285
-12.8188 17.5018 -4.14722
3.98795 -9.34211 -1.93849
-36.6094 -22.2376 -8.10838
-21.3992 -34.7624 -7.76335
-15.7265 -45.377 -9.08685
37.8009 -12.4696 -7.52476
-36.1639 24.2887 -8.15282
-33.845 -23.3741 -7.72694
-32.793 -23.9926 -7.62741
-21.5306 -53.3401 -10.8232
-17.0377 -46.2793 -9.14766
3.81949 -9.20511 -1.84083
42.4494 -11.4409 -8.16408
5.75626 -9.7105 -2.06887
-24.7828 -56.1957 -11.2444
-20.6452 -51.243 -9.99208
-14.6367 18.245 -4.14752
-31.2393 -25.1952 -7.13385
-20.3899 -27.1702 -6.0747
-39.6021 24.9894 -8.26215
-26.8925 21.1158 -5.9512
-34.2711 23.4515 -7.21025
3.90827 -10.0467 -1.8693
4.7709 -8.61085 -1.71079
13.9977 7.51716 -2.74032
14.0714 8.07481 -2.77859
-30.986 22.5326 -6.56807
42.1293 -11.9193 -7.45402
41.9263 -10.8586 -7.37275
-31.3965 -24.9347 -6.80138
-21.166 20.1579 -4.9083
-20.5894 -51.1772 -9.32066
14.8536 7.4446 -2.78647
-31.8617 22.5562 -6.52091
-23.8077 -56.7618 -10.1708
43.4481 -11.7046 -7.31384
-10.4021 16.514 -3.14952
-20.8795 -51.799 -8.90723
-35.0464 -24.1928 -6.71061
-22.8805 20.1025 -4.76922
-24.2883 20.734 -4.94946
-40.3104 24.4066 -7.30225
-11.2745 16.8744 -3.13297
3.47114 -9.52634 -1.5681
3.86811 -10.2289 -1.6933
-7.65674 15.5299 -2.64475
-31.2166 22.7203 -5.90201
-31.8983 -24.6373 -6.12893
-28.0658 -26.2524 -5.82196
42.1149 -10.9486 -6.61435
44.7526 -9.75002 -6.97802
-6.57316 14.6408 -2.40135
9.82996 -5.15262 -1.64724
-33.636 -24.2601 -6.17604
-26.7818 -67.7175 -10.8002
10.1918 -9.16352 -2.04252
44.8934 -10.3856 -6.84313
-36.8138 -24.5064 -6.50873
-31.6506 -26.1067 -6.00178
-12.7845 -42.3599 -6.51032
16.9092 -12.2338 -3.05723
-25.5034 20.9977 -4.80087
-24.9546 -55.9138 -8.8232
-7.65388 15.33 -2.45014
-12.7672 17.4074 -3.07786
6.03349 -11.5269 -1.85918
-13.4707 18.005 -3.15868
-34.871 23.5561 -5.91632
6.75808 -11.039 -1.80912
37.52 -12.3823 -5.55711
-31.2848 -25.0686 -5.59508
-33.1633 23.8328 -5.65747
-20.781 -50.086 -7.48962
45.044 -10.0769 -6.36479
-6.90292 15.2662 -2.28965
-22.9015 -59.7699 -8.69511
7.75026 -9.37921 -1.63285
-14.0646 17.9583 -3.075
13.2125 -10.538 -2.2868
-22.3196 20.3023 -4.05721
42.0373 -10.8688 -5.76444
44.7689 -9.80624 -6.06616
-22.7017 19.9777 -3.95435
-32.8265 -24.5636 -5.35527
-14.9594 18.3184 -3.05802
-34.1868 22.8178 -5.33618
-38.4873 -16.2509 -5.3942
7.01515 -10.433 -1.61312
10.77 8.8177 -1.78724
-33.9465 -23.3937 -5.2759
-31.5839 23.0569 -4.94662
-35.7293 -22.2954 -5.27882
41.9009 -10.8363 -5.41622
6.79448 -10.3653 -1.54871
-7.68989 15.3813 -2.12931
-25.1247 21.0967 -4.01726
-33.5526 23.6468 -5.06346
6.29355 -12.0703 -1.65838
44.721 -9.54116 -5.60097
14.9963 7.85668 -2.03543
-18.1044 -43.8482 -5.72031
7.08511 -10.53 -1.52819
-20.5809 9.1212 -2.66446
-14.445 -43.6956 -5.41134
-31.9832 -24.6585 -4.7223
-31.4673 -25.1659 -4.71514
41.9837 -11.2462 -5.10845
11.2287 -9.66995 -1.71685
-30.016 22.7595 -4.33387
6.641 -10.8206 -1.45351
7.48786 -9.21893 -1.35858
11.5808 -9.72186 -1.71744
9.44795 -4.60914 -1.19042
14.9746 7.69504 -1.89741
-10.3929 16.5453 -2.20511
-32.3335 23.6263 -4.48626
38.8184 -12.7786 -4.58309
9.35507 -9.02145 -1.43786
-11.1113 16.6646 -2.17737
6.79142 -12.7861 -1.56833
44.8624 -9.75021 -4.97707
10.7681 8.84876 -1.50207
16.7647 -12.4533 -2.24148
42.1791 -10.9395 -4.6692
9.61718 -8.97695 -1.39384
8.37774 -8.46285 -1.24753
-31.0279 -24.8296 -4.13809
-30.4682 -61.1132 -7.12389
14.9714 7.50835 -1.71117
-31.9238 -24.6153 -4.13615
-12.9086 17.5971 -2.21602
-12.826 17.1837 -2.13137
10.2055 -9.08616 -1.33864
-21.0568 -53.4766 -5.63465
6.31479 -12.0931 -1.32049
16.6341 -12.1697 -1.98124
42.0683 -11.3043 -4.17559
-31.0127 -62.6885 -6.6488
-21.0348 -55.2018 -5.61032
-23.4059 20.4728 -2.90705
45.5617 -10.1357 -4.35969
9.71456 -8.98525 -1.22502
39.6472 -13.0786 -3.89042
-15.0792 18.4846 -2.16037
-29.7836 -13.5793 -2.9838
-32.635 -63.6193 -6.5908
15.85 -11.8635 -1.80108
8.63456 -8.72552 -1.11164
12.8867 -10.6374 -1.45515
45.1488 -10.4647 -3.97026
9.40001 -9.02619 -1.09552
10.9489 -9.64188 -1.22634
-34.3052 23.559 -3.46316
16.8341 -12.276 -1.72576
-17.0636 -44.4027 -3.81019
14.6762 -11.4759 -1.4857
-11.7994 -33.033 -2.76874
-29.9466 22.7701 -2.90939
-33.2365 23.4928 -3.14214
-22.9147 -52.3433 -4.41142
-51.4088 27.9789 -4.43223
-21.472 20.2085 -2.14496
-33.4641 23.6702 -2.97069
16.3709 -12.2323 -1.49506
42.0951 -11.2647 -3.17483
-39.7304 -75.1736 -6.13638
13.9691 -11.0523 -1.27486
-15.6691 -41.566 -3.06608
10.7634 -9.61245 -0.988763
-23.4293 20.5146 -2.10327
12.8652 -10.6157 -1.11661
17.9426 -13.0136 -1.47778
16.0335 -12.1275 -1.32777
-14.7737 -40.9614 -2.81688
43.8529 -11.4051 -2.8324
-32.1607 -65.1628 -4.43462
35.8065 -8.68669 -2.2613
43.0247 -9.84767 -2.70976
6.04722 -13.0718 -0.86094
30.8704 -20.4269 -2.21521
-9.87741 16.4889 -1.13001
-15.6696 -40.8755 -2.4928
16.6015 -12.4071 -1.16377
-9.6976 -12.5714 -0.870106
14.9625 7.67631 -0.909204
13.8959 -11.0001 -0.949106
-12.8309 17.3879 -1.12877
-16.5799 -41.0947 -2.35357
14.8569 7.81218 -0.822644
-16.4067 -41.9376 -2.20974
-14.2016 18.0004 -1.09651
9.56345 -9.02087 -0.60303
-24.1871 -55.4824 -2.73898
12.4467 -10.2322 -0.747052
-16.1289 -44.961 -2.12089
-17.3277 -42.6919 -1.97272
6.85278 -12.6537 -0.63851
-14.0173 -42.7293 -1.91573
-52.8266 28.729 -2.43605
18.3259 -13.1658 -0.915863
16.7926 -12.4819 -0.814955
-41.9185 -81.36 -3.45318
-18.3714 -48.176 -1.89915
-33.7663 23.2006 -1.49838
42.5737 -10.9697 -1.58318
-34.7941 -69.2115 -2.59203
-26.0782 -57.1505 -2.11533
20.1285 23.2797 -1.02166
-21.5148 20.1614 -0.960652
8.11267 -14.3183 -0.552811
9.41963 -8.9925 -0.422183
11.296 -9.94448 -0.489249
18.5807 -13.1379 -0.747975
34.7999 -13.1254 -1.23438
21.9203 26.5344 -1.10339
-27.4544 -13.7709 -0.962752
-22.9801 20.4638 -0.937723
-31.8149 22.5329 -1.21665
-25.1864 -57.9045 -1.95598
-13.8946 -39.3073 -1.28435
-21.6845 -55.3142 -1.79918
-16.7392 -45.3667 -1.38562
-34.1389 -20.6992 -1.06341
11.4451 -9.70935 -0.402118
16.3297 -12.1458 -0.536574
-41.2207 25.5005 -1.2782
-30.4003 23.1318 -0.944984
-30.9211 22.6614 -0.906213
9.56583 -9.00513 -0.30438
-41.4781 14.3359 -0.96988
-31.6273 -52.9603 -1.38959
21.2526 -14.2139 -0.562107
30.4643 -18.4727 -0.804259
14.2234 3.93075 -0.30095
27.3266 47.7523 -1.01099
23.5262 -10.9527 -0.457101
47.099 -10.8454 -0.899096
-30.7365 -22.0883 -0.690241
-29.6963 -29.1677 -0.660141
-19.1144 -46.9019 -0.843704
12.7157 -10.4566 -0.270919
18.5097 -13.375 -0.349084
-29.3506 -13.0456 -0.421659
-32.9473 -24.6569 -0.572635
-33.6611 -67.8582 -1.02311
-27.9434 -59.4726 -0.9008
-34.0504 -23.2546 -0.538394
-30.4194 23.1427 -0.449846
16.9885 -12.6867 -0.251835
29.2862 -18.1589 -0.405632
-30.8789 22.6695 -0.426361
-19.2088 -44.0544 -0.5145
-12.0912 -36.3932 -0.386454
-33.6289 -59.2534 -0.628092
-14.3723 18.231 -0.178042
-26.7785 -13.5009 -0.242123
-15.0649 18.364 -0.162297
-22.6359 20.2159 -0.156032
-21.0709 19.7638 -0.131274
-10.5749 -13.595 -0.0604935
14.7246 7.73517 -0.0199896
11.1045 -9.76455 -0.00781158
-34.6085 -18.9558 0.0602049
-11.4071 -33.9021 0.116202
16.9481 -12.3134 0.0908812
-18.9273 -43.4534 0.210352
18.7698 -13.2248 0.121908
7.17402 -12.332 0.104087
25.9896 -10.663 0.172779
-55.5919 19.8502 0.563143
16.2408 -12.0362 0.192974
37.4255 -7.64091 0.360475
-29.1555 -8.22117 0.354408
-36.4134 -21.9784 0.469069
-11.3929 -32.642 0.370596
-12.7847 -35.4271 0.448142
-10.3423 -31.7899 0.400877
6.32829 -12.9351 0.183807
7.21166 -11.1101 0.174143
-28.2925 22.2088 0.551012
11.3096 -9.87714 0.225734
-24.209 20.703 0.52604
10.8969 -9.72968 0.22927
12.9673 -10.6751 0.264609
36.3758 -7.78497 0.618946
-34.6812 -23.2358 0.759305
-31.3589 22.4218 0.757254
6.14071 -12.83 0.275989
7.02009 -11.0476 0.252163
8.02422 -9.41589 0.241579
27.3588 56.2558 1.361
7.72699 -9.44129 0.275821
10.1266 -9.1721 0.329618
-28.8913 -9.26426 0.730902
-23.399 20.4238 0.840637
-27.6909 21.8342 0.946758
-29.0204 -8.71383 0.798534
9.18744 -8.89326 0.34541
9.62193 -8.94288 0.358067
-25.6893 21.6512 0.913162
25.3543 -5.12922 0.72027
12.977 -10.6458 0.5
14.7795 24.0769 0.871829
6.18778 -12.7651 0.446389
7.45497 -11.6211 0.433263
-28.5446 -8.05048 0.973185
-12.6439 -19.3593 0.761727
-28.2269 -8.8223 1.02257
16.0949 11.0162 0.705033
-29.9282 -18.5454 1.23065
15.7209 27.3085 1.12477
-30.5468 -16.6624 1.28944
23.5154 -4.24629 0.863387
-27.9268 -19.862 1.26983
-7.30327 -7.96307 0.407809
9.04879 -8.82392 0.469808
12.4109 13.5763 0.709392
25.8649 53.3571 2.24606
24.7257 52.6435 2.19051
-11.5742 -9.16144 0.582091
8.72064 -8.66634 0.486349
-25.7757 21.233 1.35606
21.8173 -2.95684 0.892036
-28.8966 -17.5518 1.38505
9.41114 -8.9236 0.531746
12.4345 14.321 0.816137
6.57392 -12.4496 0.597838
14.8211 19.2577 1.06853
20.7091 28.6047 1.54689
-9.51228 -13.8309 0.737804
-10.0016 -15.642 0.824116
7.59454 -10.9458 0.586952
8.62153 -8.71095 0.553851
24.162 -3.70141 1.10372
-29.9544 -8.72913 1.42422
6.73927 -11.0792 0.596651
-8.28384 -8.15227 0.547031
21.2002 42.7737 2.28431
-28.6576 -17.7115 1.59246
-9.78622 -13.727 0.802369
9.65677 -8.95979 0.620439
15.3548 42.6699 2.19548
-30.356 -13.4456 1.5847
-6.77021 -8.25388 0.525343
14.4594 33.6258 1.86797
-29.841 -11.6858 1.60834
-7.60098 -6.98935 0.522022
-6.70693 -7.60302 0.512938
16.0477 29.0703 1.72443
10.5201 12.3013 0.87489
14.1749 19.2897 1.28546
9.34102 -8.92169 0.692081
14.7622 19.2076 1.33779
15.2131 23.4965 1.54152
-27.6369 19.4593 1.85304
-6.98125 -8.20446 0.597457
-26.564 20.3826 1.86194
6.08977 -12.8581 0.796012
-7.11552 -9.17001 0.661952
9.92794 12.4006 0.934379
14.8336 24.9928 1.69815
6.45761 -12.9696 0.833799
13.7725 22.4694 1.55688
-8.27068 -8.12975 0.698817
11.5038 11.5832 0.973663
14.6112 19.433 1.46096
-7.40872 -10.0293 0.775502
7.00421 -11.1618 0.803051
11.2523 -9.70573 0.90085
5.86251 -10.747 0.759652
-7.20314 -6.65794 0.613013
14.412 20.4445 1.58288
16.1101 7.15105 1.14454
-7.04456 -6.15488 0.613908
6.45838 -13.4365 0.993512
9.3411 21.0999 1.55682
10.3825 12.5141 1.11175
13.4901 18.1395 1.57688
12.332 20.4464 1.6524
11.3096 11.947 1.15485
6.59248 -9.83166 0.838273
11.458 11.7227 1.18643
9.7957 -6.91481 0.853179
12.3182 11.9251 1.25933
9.91461 -8.37277 0.950672
-6.17578 6.69338 0.680118
10.4018 9.15903 1.04124
11.8619 17.7355 1.60556
11.4141 18.1848 1.61793
-6.95457 -7.70873 0.805138
10.7925 18.6278 1.65198
9.50281 -8.9469 1.00867
-6.42179 -4.30306 0.60977
9.12989 18.2916 1.63383
10.0689 -6.89009 0.976922
12.4126 11.5165 1.36891
9.68511 18.8046 1.70338
-7.27663 -9.65184 0.984612
6.71043 -9.36995 0.937828
12.1999 11.6709 1.38353
12.1038 11.9037 1.40987
11.3813 11.8961 1.36314
-5.06105 -11.5512 1.06087
10.272 12.8516 1.40003
-6.96863 -6.08948 0.797201
-6.82519 -6.70393 0.808186
-5.22213 -11.4534 1.07049
-7.31093 -7.75785 0.918062
9.27356 -7.24738 1.01689
-7.13114 -8.06967 0.942507
-7.02674 -7.70117 0.916921
9.35165 12.4826 1.38295
-6.96264 -8.38481 0.973763
10.7808 9.04578 1.2827
10.4194 13.4196 1.53516
10.4901 9.213 1.27817
7.68204 13.9447 1.46453
-6.50769 -8.14776 0.955496
-6.91426 -9.0332 1.05002
11.159 10.7625 1.43062
11.2134 9.14897 1.3544
10.8298 10.7646 1.43152
6.45196 14.9097 1.52674
-11.4531 2.9341 1.10892
-6.36689 -4.17457 0.713376
-6.81362 -6.30122 0.860724
9.39227 13.2458 1.56657
-6.04641 6.57009 0.879475
7.95325 -6.60326 1.00747
7.89657 13.1668 1.52522
-7.07836 -7.62805 1.04844
9.27194 11.5935 1.49749
6.97753 12.3889 1.44317
7.03237 12.9557 1.50295
9.50308 9.06376 1.35922
5.83343 13.9063 1.56318
9.10419 12.3824 1.60251
-6.11196 -4.46024 0.793197
5.93249 13.6318 1.56613
6.19265 13.5647 1.56782
-6.97655 -4.43164 0.884152
8.73973 8.98953 1.33678
9.10498 10.1432 1.48253
7.30204 10.9643 1.43179
5.80329 11.4305 1.39387
-6.30666 -7.41918 1.06441
10.2395 6.43525 1.33821
8.9645 8.11363 1.33296
7.28419 11.6435 1.51669
6.82018 11.5917 1.48709
5.33575 11.8486 1.44591
4.84898 12.0532 1.45367
4.68128 13.6141 1.58395
9.83891 7.03486 1.35068
8.72975 9.27964 1.42381
5.36133 11.4716 1.42609
-6.84892 -6.73082 1.0689
6.84259 10.6803 1.42902
4.29869 13.1135 1.55983
9.74356 -3.19287 1.14328
-6.10902 -5.41836 0.945503
7.28374 -6.11536 1.07961
10.3878 5.69955 1.35908
-7.38658 -0.986502 0.854109
-6.26226 -5.36033 0.948942
5.24327 -5.5516 0.879791
5.04783 11.5783 1.46741
-6.88862 -4.56292 0.957622
4.44949 -7.25528 0.984289
10.3814 5.13564 1.35927
8.85738 7.86136 1.39039
-6.00621 -4.37127 0.865868
-6.49108 -5.27776 0.988434
4.08828 -7.85876 1.05352
4.96242 -5.84527 0.919934
10.142 4.74229 1.34225
8.49219 8.24618 1.43388
5.25483 11.4481 1.53778
9.02071 6.24913 1.34373
7.98637 8.31154 1.44406
-6.49541 -5.75176 1.08016
3.70338 -7.56658 1.05512
8.65196 6.67101 1.37395
-6.47325 -5.34893 1.0629
9.06659 5.99708 1.38797
8.16014 7.12025 1.38186
8.09035 7.48549 1.40746
5.77216 -5.341 1.00966
-6.97799 -4.447 1.06228
8.0772 7.97492 1.4724
-7.3629 -1.04317 0.961022
-6.92852 -2.82862 0.977509
8.95636 4.09226 1.28967
8.37979 6.611 1.40131
4.99443 -6.02326 1.02853
4.91254 -6.1876 1.04621
6.86476 -4.2793 1.0768
-7.13886 -1.71959 0.984601
-7.01502 -2.22172 0.983975
-6.03001 -4.42576 1.00013
8.11368 6.64094 1.42155
8.59147 4.43009 1.31803
8.61137 5.15505 1.37097
8.00629 7.11849 1.45834
-6.81376 -3.73645 1.05534
8.84281 4.15079 1.33724
8.24504 5.81935 1.38211
-6.40298 -4.33247 1.05805
-5.96201 -4.52856 1.02264
5.34176 9.00162 1.44589
3.62638 10.0323 1.48154
-7.37312 -1.09377 1.03245
-6.90957 -3.93013 1.10333
4.94541 -5.53967 1.0263
5.22467 -5.39457 1.04232
7.45832 -3.53454 1.15425
3.37111 10.11 1.49339
8.38456 4.58888 1.3522
7.37002 -3.67565 1.16835
7.58167 -3.33256 1.18075
7.7562 -3.30328 1.19625
8.92264 2.80949 1.34653
4.83033 -5.6314 1.06645
7.34884 -2.85118 1.14764
-6.96362 -3.3026 1.12357
7.91225 -2.77755 1.22265
8.65684 -1.81843 1.29849
4.99415 8.55064 1.4618
2.94065 9.39937 1.46525
7.72667 -1.88659 1.17225
7.21435 5.74544 1.37424
3.44205 9.52222 1.49679
3.17327 9.75541 1.52045
-7.37543 -1.04411 1.10471
-7.07934 -2.02446 1.09756
6.93228 6.2754 1.41188
-6.26698 -2.27309 1.00066
-7.24507 -1.37624 1.11347
7.92436 4.80862 1.41225
5.69635 7.34008 1.40985
5.28024 7.61339 1.41024
5.04414 7.99361 1.42915
6.75569 -3.22386 1.13207
7.24169 -3.12273 1.20774
7.63081 -2.75359 1.23626
-7.32174 -0.733466 1.12397
-7.10202 -1.95579 1.13719
6.78525 -3.09111 1.15311
3.74901 -5.78532 1.06603
-7.05772 -2.07737 1.15365
-7.3511 -1.09365 1.16724
7.34812 4.76615 1.38342
-7.20326 -1.44446 1.16911
-7.27634 -1.30196 1.18629
-7.10217 -2.02036 1.20101
7.05742 4.75486 1.38922
-7.10584 -1.94674 1.21054
6.99705 4.85635 1.41484
6.60375 4.84372 1.3668
5.19659 6.23147 1.3518
4.66255 7.15582 1.42651
3.81139 7.91071 1.45968
-7.254 -1.37442 1.23275
2.79193 -5.77591 1.08146
7.12997 4.42117 1.41342
6.50168 5.22875 1.40765
3.87308 -5.36449 1.11557
3.93623 -5.02045 1.07997
-7.27715 -1.25327 1.25292
-6.60221 -2.6268 1.2058
7.40624 2.84385 1.34568
7.01909 3.88514 1.36725
-6.41801 -2.7546 1.1885
6.76378 4.09209 1.35721
5.68109 -3.51879 1.15022
-7.40115 -1.04033 1.29277
-6.36051 -2.28174 1.16198
5.53403 -3.64709 1.14245
5.31787 -3.77326 1.14295
3.58708 7.14274 1.40609
-6.80364 -1.73623 1.23341
4.47958 -4.46701 1.11334
-7.09684 -0.915242 1.27498
4.72465 -4.45725 1.14947
4.31935 6.47897 1.38958
6.57652 3.46883 1.34284
6.61569 3.67698 1.3598
-6.44507 -1.50142 1.19051
3.60848 -5.3258 1.17027
5.06827 5.60244 1.3834
-6.15856 -2.1845 1.19785
3.41293 -5.15827 1.15028
3.37892 6.75367 1.41292
-1.69765 -5.78167 1.14468
6.43639 2.72837 1.33044
-2.14319 -5.72748 1.1757
6.30082 2.79233 1.3269
-2.78765 -5.37683 1.18693
-3.53169 5.3632 1.39175
4.46465 3.88815 1.35127
4.15135 -2.8789 1.17713
4.62859 -2.18627 1.23692
4.19458 3.28787 1.32026
3.70797 -2.9307 1.22407
4.01447 2.57211 1.33205
-1.44334 -4.11824 1.22195
-2.32146 -3.58028 1.21277
3.8566 2.36227 1.31034
-2.86523 3.53131 1.3638
-2.48119 -2.91715 1.18974
-2.37863 -2.93828 1.19467
1.84289 -2.81162 1.18198
1.86588 -2.78984 1.212
1.99193 -2.5263 1.19832
-2.0453 2.80978 1.32208
2.80351 -0.555623 1.25905
2.78275 -0.33679 1.24074
-2.08977 -1.61954 1.2133
-2.07753 -1.45161 1.23839
-1.86263 -1.7963 1.28373
-1.99511 -1.13167 1.20485
-1.98661 -1.0706 1.23169
-1.94643 -0.880556 1.23194
-1.93081 -0.708562 1.22226
-1.92968 -0.701659 1.24947
-1.90606 -0.469793 1.22233
-1.87147 -0.345783 1.21955
-1.85631 -0.40126 1.22627
2.37818 -19.6954 -10.0106
-7.60739 -8.98152 0.465442
8.01888 -8.80049 -10.4684
8.26496 -8.63064 -10.5048
8.21648 -8.29131 -9.88709
6.95914 -11.9593 -11.412
8.51742 -8.97482 -9.74268
7.85137 -8.93843 -9.13659
5.85155 -12.8016 -10.732
9.42834 -8.83524 -9.74599
6.14933 -14.0988 -11.5794
8.28838 -8.6802 -9.02361
8.019 -9.17038 -9.10982
7.293 -9.24707 -8.7744
5.91163 -14.1562 -11.1932
7.71939 -9.30728 -8.72542
7.85665 -9.11804 -8.67018
7.12957 -10.5819 -9.08461
6.82091 -11.0744 -9.22061
10.054 -9.19352 -9.56837
6.54025 -11.1767 -8.86547
8.03398 -8.62885 -7.85103
7.36122 -9.28168 -7.87258
8.51687 -8.68219 -8.08427
7.7211 -9.47385 -8.02933
6.48817 -12.7765 -9.35729
7.93405 -9.18173 -7.91461
5.00337 -16.0426 -10.8087
-0.473426 13.939 -8.91803
7.7284 -9.24538 -7.72724
7.33595 -10.8648 -8.3472
8.37845 -8.56679 -7.63429
10.8754 -9.62078 -9.2101
8.9901 -8.81957 -7.89856
11.7647 -10.0323 -9.69002
8.07337 -8.53655 -7.22871
4.04226 -16.8479 -10.619
4.25046 -15.3834 -9.79968
7.84528 -9.35986 -7.31916
3.95363 -15.6341 -9.6164
11.4788 -9.8271 -9.05038
6.86462 -11.0778 -7.73856
7.77224 -8.81972 -6.96399
5.48862 -14.0008 -8.88528
6.48924 -12.7082 -8.3509
8.3626 -8.59509 -6.9886
9.68812 -9.08146 -7.74304
2.7912 -11.7981 -6.94957
5.48002 -13.9016 -8.46092
9.59517 -9.10577 -7.47794
6.61819 -11.0711 -7.26281
3.35002 -20.714 -11.7598
8.87942 -8.93979 -7.06352
12.1887 -10.2261 -8.91352
6.82407 -11.0068 -7.21494
4.68425 -14.616 -8.48259
6.2228 -12.6241 -7.74276
0.896626 18.5798 -10.1252
14.6132 7.72167 -8.97926
4.20489 -14.2472 -8.0231
14.719 -11.6475 -10.1183
14.9668 7.43726 -8.90134
14.0051 7.71632 -8.49525
4.76666 -14.8527 -8.28856
12.0791 -10.1468 -8.30194
1.81457 -20.5023 -10.5891
11.4122 -9.8489 -7.72315
2.08225 -20.2281 -10.3189
13.956 -11.0776 -9.01279
0.00494716 14.2814 -7.16804
-7.30956 15.1951 -8.45166
10.5914 -9.59808 -7.18228
7.51412 -9.42492 -6.0056
-8.52204 16.157 -8.82964
11.6377 -9.77383 -7.35603
10.4919 -9.58261 -6.82334
14.7757 -11.3281 -8.98065
16.6834 15.8036 -10.916
7.48325 -11.0606 -6.36281
15.0023 7.41256 -7.8506
13.9197 -11.0225 -8.29874
-11.9723 17.1449 -9.5825
15.8272 -11.9927 -9.07228
9.77461 -2.45077 -4.62878
-9.11623 -1.65733 -4.21363
18.6984 18.0431 -11.7229
3.91364 -9.10008 -4.49621
-10.2287 16.7105 -8.80006
-5.34928 4.44851 -3.12907
6.85748 -11.2899 -5.94694
9.42619 -9.08508 -5.77423
16.0058 7.30153 -7.76051
-6.64121 15.085 -7.20032
1.50108 -18.7581 -8.13916
-11.1927 17.0309 -8.77619
9.58064 -3.36994 -4.34988
7.01681 -11.0447 -5.53182
15.8114 -11.9525 -8.29729
14.6391 7.73841 -6.94459
18.73 19.4864 -11.2942
1.02068 -22.6416 -9.43565
-4.53627 13.8781 -6.01698
-9.94064 -1.11186 -4.14558
14.0782 7.77353 -6.56543
20.4208 22.2128 -12.2969
-13.082 2.45162 -5.42216
15.1033 7.17592 -6.76187
-5.22662 14.3253 -6.13432
3.63796 -8.80762 -3.79315
13.9322 -11.0008 -6.93772
19.279 21.5764 -11.2223
18.7922 5.79484 -7.62486
1.53978 19.2464 -7.48514
-8.74176 15.7527 -6.94695
11.3961 -10.0481 -5.84425
19.2141 22.2757 -11.3296
0.683282 15.3788 -5.89455
-1.66219 12.764 -4.95253
2.7141 -12.2475 -4.81314
-8.77533 -1.25334 -3.36944
0.703374 -23.6901 -8.94297
15.17 -11.6255 -7.20833
9.48954 -3.46261 -3.81039
-14.5935 17.9919 -8.63577
-7.89629 -3.50771 -3.16907
1.09645 -10.4648 -3.8698
7.02768 -11.2359 -4.84673
14.1857 7.9207 -5.8649
-8.29866 -2.84925 -3.15516
0.789994 15.2872 -5.45751
-3.95691 13.3847 -4.93934
5.73659 -10.9856 -4.36166
15.8198 -11.9557 -7.02368
19.0649 5.88819 -7.01926
2.11059 20.5994 -7.25998
21.595 26.1059 -11.772
-14.8982 18.3913 -8.12593
2.97019 -13.3348 -4.70249
-8.89946 16.0777 -6.28181
18.4557 -13.0719 -7.75201
-5.04257 14.4905 -5.21883
1.3618 -22.283 -7.3978
1.75951 19.6089 -6.50257
1.44844 -10.3217 -3.4447
39.028 -19.9505 -14.3856
6.1674 -10.0449 -3.77323
17.5448 -12.3883 -6.87953
2.11812 20.6683 -6.61099
-13.3676 17.8471 -7.03231
1.45368 -22.7769 -7.11105
-4.30542 14.7411 -4.77387
-10.9613 16.6094 -6.03306
-2.76307 -28.1129 -8.58143
3.0634 -9.46732 -3.02431
0.795633 -24.3412 -7.32386
19.094 -13.553 -6.94855
17.5858 5.56341 -5.4117
-7.89307 15.2814 -5.00894
4.22655 -10.4884 -3.28669
3.6191 -10.5641 -3.1785
4.23919 -10.9401 -3.29384
-13.323 17.8087 -6.18849
-9.29322 15.8877 -5.00909
-13.2553 1.98701 -3.67524
-16.9393 19.4625 -7.00771
26.2488 -17.2802 -8.51613
-3.93755 -28.0729 -7.60227
3.7817 -9.1427 -2.64737
-9.80686 16.3034 -5.06597
47.1187 -13.7578 -13.0169
10.527 -9.38907 -3.73411
-6.45106 14.9384 -4.2526
-14.4292 18.0915 -6.07417
-8.04453 -38.0586 -10.1319
4.95515 -9.56578 -2.78872
6.55434 -10.4898 -3.19135
-7.21413 15.3126 -4.30456
-10.5619 16.4514 -4.99696
-9.94574 -39.4112 -10.1076
-9.08977 -39.2387 -9.83475
10.9344 -9.63903 -3.58451
-7.9718 15.4732 -4.22246
-11.7359 17.0588 -5.01394
14.5988 7.7115 -3.91836
4.04397 -9.24653 -2.38876
15.202 7.52871 -3.99756
3.74448 -8.90333 -2.27068
-6.55454 -32.6546 -7.71196
5.62164 -9.87631 -2.63418
44.6205 -10.798 -10.6708
-12.82 17.4633 -4.98819
14.8553 7.60784 -3.77566
43.6647 -9.44579 -10.1207
-9.79743 16.3208 -4.26227
3.71121 -9.24487 -2.16757
42.8306 -10.9876 -9.65133
15.1136 7.49777 -3.61252
-10.647 16.6206 -4.2293
-22.0117 -34.6043 -8.81054
4.81659 -9.74234 -2.34488
44.9116 -10.5159 -9.86952
-14.8037 18.3417 -4.96038
-32.3251 -23.8588 -8.51573
41.5708 -13.9094 -9.27445
14.8392 7.8413 -3.49996
-35.5913 24.0686 -8.78657
-8.41238 -34.408 -7.17271
3.94747 -11.4935 -2.4432
44.4417 -9.58855 -9.24765
11.7693 -9.74208 -3.06425
42.8523 -11.0315 -8.81825
-27.0407 20.4056 -6.72484
6.13748 -10.2728 -2.38275
45.7954 -10.7091 -9.1862
-12.8076 17.4755 -4.18829
-26.9175 21.0949 -6.64621
16.0306 12.1257 -3.84138
-6.89088 15.1702 -3.20002
-33.23 -24.0356 -7.8498
-31.7312 -24.8476 -7.7451
-35.8184 23.8678 -8.10592
-33.7365 -22.2548 -7.63746
18.0051 5.66068 -3.52259
-34.2619 -20.6726 -7.47291
-15.1527 -43.6861 -8.61364
3.7672 -9.81243 -1.97932
-24.7851 -61.7048 -12.3665
-16.9076 -45.549 -8.88652
3.97252 -9.62868 -1.87899
13.0583 -10.2038 -2.98891
45.28 -10.0761 -8.33281
-14.7656 18.3134 -4.20437
-27.0696 21.231 -6.07439
15.0759 7.9804 -2.97075
-30.3976 -26.4893 -7.02763
42.7118 -10.9404 -7.57037
-7.94662 15.3092 -2.92301
-9.76962 17.993 -3.45995
44.5539 -10.488 -7.74039
-30.8394 22.4634 -6.42389
-30.3688 -23.3641 -6.40412
-20.8594 19.9451 -4.80223
-32.4629 22.9261 -6.63061
15.9064 -11.8683 -3.25256
-10.3513 16.4342 -3.09086
-43.5701 25.638 -8.02082
-31.7517 -23.8531 -6.3577
-33.5994 -23.1758 -6.42869
3.43073 -9.48849 -1.5781
-23.8342 20.3603 -4.84158
16.8964 -11.9447 -3.20556
-11.1923 16.7511 -3.06154
45.9312 -10.7646 -7.16082
-23.0821 -53.4911 -8.80281
-29.5903 22.192 -5.5309
-38.5531 24.0387 -6.744
-31.7757 -24.6655 -6.00121
44.556 -9.54808 -6.78536
-33.8826 -24.5043 -6.1098
-50.2259 28.0432 -8.27159
-35.6931 -23.8078 -6.17582
6.72468 -12.905 -2.11341
-36.3688 -21.1378 -5.95334
-6.96011 15.3459 -2.3412
-13.1447 17.7446 -3.07317
-32.2947 23.2508 -5.56254
-24.8565 -55.3564 -8.36731
-16.2817 -47.5968 -6.91806
36.6345 -12.1832 -5.29523
-23.2478 20.4292 -4.11834
-32.4072 -24.2694 -5.28587
-30.7618 -25.236 -5.26058
-34.0455 -23.4473 -5.29525
7.44237 -9.42663 -1.55318
42.7649 -10.9468 -5.66472
-33.6493 22.8976 -5.17488
-29.8802 -15.9443 -4.31718
6.03901 -7.82092 -1.26226
44.697 -10.5056 -5.82152
-31.2134 22.94 -4.83393
14.4951 -11.2929 -2.25776
-30.1321 22.6947 -4.56353
-32.7419 23.1455 -4.82784
-10.3836 16.515 -2.25443
-31.6418 -22.7572 -4.58557
12.9843 -10.5016 -1.9551
35.7422 -11.8108 -4.35609
6.33993 -10.3389 -1.39419
11.1888 -9.69581 -1.66827
16.4311 -12.2337 -2.3087
-11.0967 16.6393 -2.21497
6.75401 -12.5843 -1.56538
11.5958 -9.68365 -1.67325
42.6043 -10.925 -4.82917
-39.2288 24.4596 -4.9617
44.7576 -10.4586 -4.94926
14.906 -11.4461 -1.99969
-12.9938 17.5549 -2.24365
14.7615 7.81303 -1.66889
13.996 -11.0411 -1.781
-14.0482 17.9671 -2.21236
6.39644 -12.2581 -1.33125
9.40106 -8.91729 -1.25254
17.0009 -12.4312 -2.05575
-28.9752 -13.8458 -3.02526
-15.0289 18.4037 -2.21514
-37.528 -73.1113 -7.64993
-34.1132 -21.3462 -3.56329
16.1243 -12.0824 -1.81341
38.4267 -12.7859 -3.62495
11.1078 -9.87393 -1.22836
43.0081 -10.9923 -3.70267
-16.3466 -42.5383 -3.6606
-40.5622 -79.3139 -6.93985
17.5994 -12.8246 -1.72009
-30.3342 22.9578 -2.90978
7.44401 -9.16973 -0.914348
-33.0266 23.3785 -3.00578
-16.7313 -41.3903 -3.33678
-37.2631 -70.12 -5.64764
-36.1684 -72.4396 -5.54708
12.5649 -10.4567 -1.10048
17.0545 -12.4215 -1.42651
-39.6827 24.7036 -3.05618
43.2614 -11.0759 -2.93161
-28.7714 -13.5291 -1.90404
-40.9279 -79.071 -5.39269
14.4987 -11.3031 -1.10793
31.0799 -20.474 -2.03425
31.0539 -19.5721 -2.00681
15.3328 7.57255 -0.887145
14.7722 7.83308 -0.859557
-12.9178 17.6281 -1.10898
-24.9704 -55.1024 -3.10872
-42.9125 -80.876 -4.47187
9.65205 -9.09035 -0.66328
13.4425 -10.6901 -0.843735
15.951 10.1473 -0.892969
16.2451 11.3863 -0.923477
6.82369 -12.5153 -0.67804
-20.0834 -5.92596 -0.899013
-30.1934 -53.8076 -2.72286
10.2212 -13.7991 -0.702078
18.0342 -13.0053 -0.908887
42.4848 -10.8522 -1.74517
-9.40802 -12.4433 -0.601831
44.0035 -10.3041 -1.77733
22.1042 26.5739 -1.17865
-32.9245 22.5069 -1.38203
-36.6779 -20.5674 -1.36899
-18.4112 -45.885 -1.58913
16.4668 -12.2851 -0.670501
14.3781 3.89455 -0.439258
-26.2443 -60.3065 -1.9729
-22.9303 20.4261 -0.877059
-12.4515 -37.7563 -1.06953
42.8997 -9.11317 -1.22654
-42.3593 26.3476 -1.34835
-54.9079 19.744 -1.39755
43.5803 -10.1198 -0.96247
-31.2186 23.5932 -0.781828
-30.5899 9.72979 -0.670966
31.1137 54.4748 -1.15229
-30.4725 22.4895 -0.725068
12.9626 -10.6213 -0.290473
-34.8355 -21.679 -0.636093
-31.0056 -62.3557 -1.03737
17.4711 -12.5997 -0.313099
-12.7254 -38.4716 -0.523485
-14.3287 18.1895 -0.235795
-20.2998 -46.6533 -0.553594
30.1795 -18.9024 -0.321386
-22.9199 20.4496 -0.208084
-9.94522 -12.7644 -0.0489512
7.01216 -11.697 -0.023644
14.5987 7.63433 0.000668722
-35.8532 -22.1392 0.224475
-24.093 -41.1784 0.35104
-54.0607 29.6149 0.630966
6.68276 -11.8571 0.140973
8.00199 -9.09821 0.121079
-41.4616 -22.0432 0.516146
-11.5719 -32.7707 0.387101
11.092 -9.66903 0.1929
-23.3059 19.9136 0.404059
-12.4391 -19.2998 0.333663
-31.4775 22.3992 0.688943
-35.5147 -23.8097 0.765146
-35.0223 -25.8725 0.759663
10.6259 -9.54914 0.233108
7.78392 -9.59487 0.265501
7.89036 -9.20946 0.261683
-72.0575 24.9517 1.78353
18.0737 -13.1198 0.543783
-28.8836 -8.67742 0.80737
-28.2323 22.1397 1.03434
11.5722 -9.91461 0.415648
17.2429 -7.47431 0.535153
-25.2247 21.3935 0.985639
-7.92559 -9.294 0.388791
12.6572 13.7613 0.665186
6.13139 -12.6332 0.494132
8.90185 -8.75962 0.426791
24.4757 -4.33717 0.831431
18.4377 17.6077 0.920908
13.7482 23.7997 1.03402
-57.5458 18.9152 2.18175
24.2845 -4.71746 0.937294
-25.6962 20.9908 1.25519
9.37009 -8.91398 0.500032
22.3193 -3.07494 0.851268
12.1606 14.0846 0.762054
14.6837 18.9729 0.982844
6.5058 -12.335 0.572491
17.6691 40.8384 1.85843
7.63756 -11.0059 0.564774
-7.57002 -7.45173 0.469429
-8.30758 -11.4937 0.633708
-29.7733 -11.7863 1.52527
16.3225 10.5962 0.970112
-7.74685 -7.20808 0.506889
15.1636 23.5581 1.44809
-6.97329 -8.20902 0.592208
14.4471 19.7832 1.34284
-26.336 20.2795 1.83895
14.2941 23.2791 1.5823
-7.14684 -9.21278 0.666378
6.8005 -13.4765 0.866579
9.85349 12.3943 0.937502
14.6015 19.3999 1.52272
14.8607 26.4483 1.86851
10.1921 28.5834 1.93055
-7.32927 -10.0036 0.793406
9.40044 21.4228 1.57073
11.3732 10.0043 1.07995
11.3965 12.0515 1.17122
13.6135 15.7307 1.48914
8.16861 -12.5918 1.05965
10.7178 8.94669 1.0275
12.8122 14.3702 1.44094
-14.4478 8.52015 1.26893
-11.1665 2.10362 0.859966
12.3449 16.0696 1.57303
11.4824 18.2995 1.67814
10.0758 -6.89539 0.953405
-7.69506 -8.14027 0.896247
12.6816 11.4795 1.39559
11.7873 11.5314 1.36916
-7.02522 -6.18115 0.760529
-7.07814 -6.9213 0.821297
11.3985 11.8983 1.42118
10.5835 9.32307 1.28247
-11.4411 2.92966 1.08574
-7.64291 -7.11869 0.938495
11.5814 8.93633 1.401
9.14745 12.9355 1.52166
7.12815 13.1162 1.46343
8.35165 12.9852 1.54861
-6.76201 -6.7383 0.94904
7.85117 -6.52612 0.999354
9.61392 12.0417 1.54463
9.87537 10.0878 1.45829
-6.89859 -5.41536 0.912846
9.55988 9.10324 1.40758
8.13635 11.0619 1.4397
6.69876 12.989 1.55738
9.53768 8.32268 1.34017
9.12361 10.1618 1.48798
5.63479 12.4121 1.47588
-6.40542 -7.54376 1.06958
6.63342 11.29 1.44098
5.18857 13.0006 1.54457
-6.84053 -3.9896 0.874693
-6.71303 -6.0926 0.998977
3.91539 -7.75969 0.962273
5.43379 -6.08775 0.916908
9.30739 7.49269 1.34317
9.00683 9.5852 1.48348
7.86032 11.1956 1.52942
6.72332 10.6106 1.43269
-6.89426 -4.57933 0.938874
4.70095 -7.67005 1.03953
-10.6849 7.16287 1.49359
-7.10359 -2.13724 0.863533
8.9681 6.05825 1.28783
5.83476 11.9085 1.56747
4.92861 11.3979 1.46482
4.76758 -5.85594 0.888881
4.10711 -7.87472 1.08002
8.30449 3.84647 1.14735
10.9071 5.44028 1.49825
4.50761 12.5415 1.65907
-6.17148 -5.39953 1.00596
-9.16637 1.30661 1.15444
8.20867 7.50768 1.40813
-6.45112 -5.33162 1.05877
7.74207 8.13157 1.44371
-6.90109 -3.58035 1.00692
4.96206 -5.95923 1.00123
5.01748 -5.42084 0.963196
8.35443 6.8736 1.43332
7.89334 7.8051 1.47714
-7.21829 -1.72752 1.00036
-7.04546 -2.21396 0.989914
-6.49951 -4.38229 1.0416
4.82427 -6.08112 1.03304
8.34094 6.3215 1.42372
-6.8644 -4.22699 1.08649
-6.06095 -4.4535 1.01178
4.94411 -5.5313 1.01881
7.40028 -3.51493 1.14037
8.32552 4.22686 1.32639
8.28799 4.5543 1.34207
-6.95405 -2.91306 1.07834
7.46729 -3.72694 1.1918
7.00776 -3.05117 1.07828
4.93502 -5.78182 1.09737
8.17627 -1.73008 1.21044
-6.97347 -3.26447 1.1423
7.34997 5.53836 1.38243
5.71314 7.37616 1.40938
7.95059 3.89585 1.35302
7.87139 4.17438 1.3548
5.39251 7.74333 1.4348
5.03531 8.60117 1.50604
3.45914 9.4619 1.51999
-7.02271 -2.83258 1.15476
7.66782 -2.78949 1.24995
7.83164 -2.23187 1.25684
7.78154 -2.01315 1.24209
7.42932 4.18453 1.37508
7.0334 4.72936 1.3929
6.70797 4.88906 1.38038
5.34866 6.40949 1.3894
-7.22212 -1.36389 1.21733
4.95378 7.27491 1.46908
4.68763 7.17457 1.43882
-7.23725 -0.806187 1.21974
2.86566 -5.92921 1.11026
6.66987 4.07007 1.33517
6.47271 5.1994 1.41009
3.8001 7.86439 1.46606
-6.39177 -2.30528 1.15315
-6.29743 -2.68717 1.16801
3.77152 -5.23911 1.09917
-6.98908 -1.79979 1.26154
4.23407 -4.64083 1.10409
6.63932 3.49612 1.35526
5.03116 5.56497 1.37123
3.63157 -5.35962 1.17908
3.33326 6.6839 1.39259
6.4733 3.03759 1.3586
6.4076 2.70561 1.32807
-1.65033 -5.71174 1.14144
-2.1726 -5.76773 1.20177
6.23523 2.37053 1.33349
3.93834 -4.57962 1.20151
-3.00035 5.60147 1.35565
-3.62403 5.2135 1.38445
4.20858 -2.92751 1.20515
-4.28017 3.93143 1.41661
4.587 -2.18724 1.23347
4.4786 -1.26927 1.15757
3.70898 -2.93579 1.23234
3.67889 -2.58484 1.19298
3.4256 -2.97838 1.2252
-2.32087 -3.61633 1.20717
-2.49892 -2.92677 1.1974
1.8726 -2.49209 1.13185
1.9342 -2.65012 1.19653
-2.04182 2.80271 1.3146
-2.07144 -1.46371 1.19722
-1.82432 -1.83026 1.3025
-1.97593 -1.17172 1.20972
9.66151 -9.0375 -9.36482
9.22461 -8.91143 -7.64368
2.44704 -20.0719 -10.7385
3.66975 -9.29447 -4.5061
26.4372 32.8439 -14.1577
2.07236 20.5238 -6.11577
-22.5192 -31.3681 -7.20979
9.49772 -8.76268 -1.61549
8.74871 -8.6205 -1.23165
8.89875 -8.77687 -0.926641
19.1101 -13.5309 -1.28063
43.2794 -11.6247 -2.32045
-31.5786 -13.3555 0.345908
10.0324 6.90478 1.2933
-3.49837 5.3232 1.36877
7.96993 -8.22823 -10.2772
7.83102 -8.25434 -10.0168
8.36153 -8.45142 -9.84638
6.82755 -11.7887 -11.1933
7.96134 -8.22117 -9.05353
8.00118 -8.69978 -9.08419
6.20588 -14.1309 -11.6127
5.85654 -14.1516 -11.2153
9.07012 -8.81742 -9.27421
7.61734 -9.19388 -8.65413
7.84574 -9.09732 -8.58884
7.2039 -10.6746 -9.16427
10.209 -9.29413 -9.67868
6.4144 -11.0564 -8.73432
8.15755 -9.05832 -8.17488
7.32565 -9.31151 -7.90856
7.94641 -9.18864 -7.98742
5.02659 -15.9462 -10.7863
-0.523806 14.3501 -9.21712
7.29137 -10.7712 -8.34443
7.59701 -9.12252 -7.59636
10.9764 -9.79444 -9.34028
7.04233 -10.9071 -8.09285
8.18036 -8.58785 -7.36879
0.112127 14.3607 -8.75149
7.75191 -8.71867 -7.02948
11.4696 -9.73747 -9.07976
8.96656 -8.89531 -7.46498
6.56744 -12.8255 -8.50091
5.50773 -13.9645 -8.82253
7.0403 -11.0787 -7.53538
5.10795 -12.8263 -7.75309
3.16104 -19.3138 -10.974
6.60314 -11.0815 -7.22899
7.8439 -9.04166 -6.71283
12.1679 -10.1923 -8.87688
9.68707 -9.48974 -7.43677
13.2544 -10.6256 -9.16365
15.056 10.312 -9.80399
15.0315 7.38552 -8.94979
13.8551 7.63885 -8.36773
11.3989 -9.83733 -7.73713
-0.0635991 15.1913 -7.68399
2.36493 -19.4871 -9.91666
10.6622 -9.55852 -7.2044
7.33632 -9.26616 -5.92963
14.0961 -11.1805 -9.06003
18.0264 -12.8899 -10.7826
18.6026 5.74392 -9.45976
2.66145 -19.5457 -9.5799
12.8377 -10.6056 -8.05178
15.3823 -11.7117 -9.37952
7.29478 -10.754 -6.25906
14.9981 7.35207 -7.77337
7.08185 -10.8947 -6.05688
6.21688 -10.6196 -5.69948
9.99637 -2.50838 -4.73832
17.3548 -12.6808 -9.87676
-11.7941 16.9298 -9.40428
3.5407 -9.03084 -4.39467
-10.22 16.7083 -8.80176
15.9814 7.22826 -7.8486
-11.245 17.1078 -8.82942
-7.05383 6.84128 -4.23199
-6.4731 6.45699 -3.89189
1.1983 -15.4497 -6.58751
19.9454 20.6643 -12.0532
16.2086 -12.2501 -8.54357
15.1524 7.44639 -7.0554
-10.0698 -1.09886 -4.20649
19.9247 21.6886 -12.0936
14.0925 7.78648 -6.55349
16.3983 7.38602 -7.22543
15.0009 7.719 -6.76736
1.48752 -17.9184 -7.02155
18.6639 5.75874 -7.55956
19.4474 21.7021 -11.2709
0.769305 16.2905 -6.26585
-9.23809 -1.33984 -3.61666
0.710261 -24.1387 -9.1849
16.8968 -12.498 -7.86195
14.154 7.90361 -5.86033
0.536865 -22.6086 -7.97098
-4.05783 13.646 -4.99593
-10.6049 16.298 -6.80564
-0.861795 -22.8486 -8.03802
-15.0073 18.5195 -8.24366
-8.90536 16.0867 -6.30988
-5.02538 14.3146 -5.11465
1.27442 17.6414 -5.8939
-5.34826 14.2503 -5.01793
38.5468 -19.806 -14.3081
12.4711 -10.3157 -5.21615
8.01419 -9.18195 -3.90523
7.39855 -8.78782 -3.55621
-4.23939 14.2696 -4.47949
11.5317 -9.78037 -4.56431
15.1055 9.50741 -5.11154
13.6476 -10.6567 -4.9687
-5.50874 14.6864 -4.41492
-13.4446 18.0436 -6.34994
15.6665 10.5894 -5.20841
-9.616 16.159 -4.99732
-27.0903 20.9816 -8.94769
-23.8731 20.054 -8.06515
-7.14151 15.1595 -4.28479
-7.93376 15.3936 -4.22298
-26.0566 20.563 -8.0885
-3.29402 13.4765 -3.32213
-11.7339 17.0248 -4.94156
3.10507 -9.53645 -2.37206
14.7631 7.87509 -3.9498
-33.3708 -26.1979 -9.94904
5.39133 -11.6249 -3.01941
49.3284 -11.8973 -11.7935
-7.24743 -35.4505 -8.31521
-9.73261 16.3227 -4.3441
15.0648 7.38169 -3.80045
-30.144 21.9159 -8.27352
-12.3189 -44.0864 -10.0535
3.72327 -9.40699 -2.22843
42.5102 -10.7714 -9.47406
-34.8695 -22.902 -8.89177
-14.7914 18.3544 -4.89505
14.6412 7.81994 -3.44738
-31.9813 -24.1999 -8.25616
9.29152 -9.19818 -2.71161
43.237 -10.9918 -9.15183
45.9735 -9.74989 -9.48514
-28.5044 21.3942 -7.02948
-21.1983 -34.4579 -7.95338
-33.2192 -24.0004 -7.74878
-34.6735 -22.8797 -7.75806
-14.7723 18.3632 -4.28021
15.3175 7.51069 -3.00582
-5.2702 14.0627 -2.64262
-18.5619 19.8611 -4.80602
-21.9909 -52.3605 -9.90297
-22.4434 -36.2053 -7.35129
-33.9611 23.0082 -6.95811
9.12382 -8.9739 -2.17208
-31.1536 22.6936 -6.27252
-32.0892 -24.1102 -6.40977
-20.2377 -53.8619 -9.18976
42.5945 -10.8146 -7.01026
-44.5133 26.291 -8.14639
-37.0983 -23.2259 -6.78729
6.43695 -10.8644 -1.97304
-29.2579 -26.0809 -5.9218
-30.6284 -25.1305 -5.93867
-20.3163 -50.0531 -8.02488
6.47564 -12.4029 -2.08975
-33.1364 -23.8312 -5.84209
-31.1275 -24.5037 -5.62196
-32.2327 23.0767 -5.54418
-13.037 17.6014 -2.98132
-32.8908 -24.5899 -5.5607
-30.2389 -26.0152 -5.41483
-31.8186 -19.7882 -4.92038
-33.7773 -23.2831 -5.41159
-33.4664 22.6992 -5.09569
-30.6093 22.7818 -4.66588
-40.7564 24.0736 -5.81807
12.9489 -10.4697 -1.953
9.70482 -9.08652 -1.52911
10.5479 -9.22812 -1.54391
-13.0749 17.6779 -2.31597
15.1032 -11.614 -2.03421
-30.9612 -24.4856 -4.00322
45.8156 -9.73727 -4.68254
17.1252 -12.4954 -2.08725
42.31 -11.3717 -4.13197
-33.6881 -69.1091 -6.81936
-23.3469 20.428 -2.71815
-28.9811 -13.0062 -2.76012
6.94618 -10.6767 -1.1189
17.0405 -12.313 -1.82099
-29.3583 -26.1942 -3.31973
9.84441 -8.93842 -1.09777
13.7172 -10.9063 -1.41045
-34.3526 23.2895 -3.17397
-29.9976 22.4759 -2.77249
16.7447 -12.2142 -1.51497
-17.4423 -42.767 -3.31275
7.34427 -9.11149 -0.853501
-25.8261 -59.2767 -4.45168
9.57055 -9.01523 -0.87279
9.71637 -4.7316 -0.681904
11.3072 -9.79641 -0.942544
-14.9359 -41.0079 -2.56978
15.2172 7.47459 -0.92853
14.6529 7.84529 -0.903775
11.7841 -10.0055 -0.798391
16.8918 -12.6513 -1.00936
-12.5606 17.206 -1.02491
-36.5492 -65.3038 -3.59589
-27.1257 -54.309 -2.91076
-35.0865 -19.7985 -1.3552
-18.1879 -45.0153 -1.62018
-25.1544 -58.1734 -1.83522
-22.2156 -59.9234 -1.85527
15.4344 13.4658 -0.395231
11.5429 11.2302 -0.301981
23.7174 28.9597 -0.638177
13.2312 -10.8873 -0.316219
-22.0553 -48.4357 -0.874641
-19.5212 5.65803 -0.106538
-34.8506 -66.8918 -0.40548
29.7792 -18.7847 -0.234065
18.5914 -12.919 -0.0243928
14.7899 7.65301 0.0339123
-31.6134 -13.2628 0.238733
6.51515 -12.1725 0.157808
11.3795 -9.94375 0.165148
-12.3076 -19.0081 0.29942
26.0047 -5.04713 0.75107
21.4922 44.035 1.53857
-7.85953 -9.27352 0.420231
-30.6701 -14.6215 1.27916
16.0439 28.9502 1.43073
-10.8254 -16.9086 0.847779
14.7372 19.5575 1.12202
18.7378 36.6217 1.8606
16.6472 31.9176 1.68867
6.55461 -12.4108 0.662239
-6.9676 -8.46796 0.563272
15.4626 25.5746 1.59917
6.29516 -13.7119 0.782189
-6.74288 -4.55225 0.48144
-11.6385 -8.88466 0.866541
-7.54265 -10.4144 0.855382
10.9516 9.07307 1.01246
6.24 -12.9441 1.00955
-7.16969 -6.35266 0.682523
7.06752 -10.8047 0.919789
12.8435 20.0438 1.82514
-15.039 8.40596 1.32538
10.9867 -4.91426 0.915171
9.45867 -8.87711 1.03562
10.3663 12.4775 1.46311
6.50554 -6.18986 0.831882
10.9938 9.08606 1.34047
6.43106 13.3822 1.41623
4.56505 12.6313 1.3124
9.70994 12.1909 1.56818
7.6092 10.4161 1.34535
6.58786 12.7671 1.53006
8.20875 -6.62555 1.10903
10.1001 9.55191 1.48587
7.09739 10.7079 1.38326
8.76858 9.31759 1.44716
4.73979 -5.85167 0.848242
9.88468 5.45142 1.2896
7.00596 11.1273 1.5333
5.90847 10.6129 1.43929
-7.02869 -2.098 0.852062
8.44437 8.58077 1.42769
-7.19605 -0.818214 0.867157
-6.88185 -3.96699 0.944581
4.40935 12.1775 1.57669
-7.03294 -2.333 0.89328
-7.46047 -0.987303 0.92629
-9.17526 1.34205 1.15972
8.31843 7.59417 1.43066
4.84065 -5.26535 0.934247
7.74015 8.17249 1.4811
-7.26708 -4.51184 1.15474
7.26237 -3.86947 1.14158
7.46293 -3.53894 1.15201
7.46641 -3.27003 1.13851
8.13521 4.13793 1.30446
7.42054 -3.70501 1.18471
8.32726 4.57492 1.36045
7.70543 -3.01941 1.20076
7.92207 -1.91961 1.17239
5.69079 7.35664 1.40302
5.20489 -5.60977 1.17209
-7.1449 -1.82996 1.1555
-7.18792 -1.33064 1.16301
5.28538 6.3507 1.36842
-6.41556 -2.31612 1.13891
6.81202 4.18587 1.36045
-7.33794 -0.957486 1.25541
2.98526 -6.16875 1.15358
-6.96746 -1.76856 1.26388
3.99835 -5.11114 1.12914
4.70499 -4.47713 1.151
3.54852 -5.23113 1.16051
5.00686 5.54118 1.36462
-7.25277 -1.15826 1.34099
3.84533 -5.22283 1.20803
-7.05859 -0.809798 1.34829
6.32381 2.82909 1.33297
3.69329 -4.57284 1.13592
-2.25052 -5.37809 1.17135
4.94067 -6.43543 1.59831
3.81176 -4.42142 1.15538
