ply
format ascii 1.0 
element vertex 1873
comment /media/mkaihara/Seagate Backup Plus Drive/model_iterations/model_11.ply
property float32 x 
property float32 y 
property float32 z 
end_header 
20.9613 24.2585 -12.3093
3.4921 24.636 -9.47882
4.80916 -8.77854 -3.79678
20.208 5.79774 -8.00481
0.833538 -24.5114 -9.33154
15.657 -12.0638 -7.43301
20.8069 5.63752 -8.07303
9.65148 -3.51633 -3.84012
0.513243 -20.994 -7.83697
3.3859 -11.2235 -4.37302
21.6543 25.2038 -12.3562
0.906085 -8.60041 -3.20935
14.6956 -11.6362 -6.90675
21.2489 5.40488 -8.06626
6.63677 -10.5409 -4.5538
18.9156 18.6965 -9.73164
-12.6783 2.22125 -4.6789
22.4503 26.8212 -12.7028
2.35348 -13.5667 -4.95627
13.6269 -11.0182 -6.30116
0.782456 15.4942 -5.55518
-8.04397 -2.74501 -3.04124
0.402084 -20.4133 -7.30761
-4.02255 13.1707 -4.89097
0.622964 -20.717 -7.37284
16.7023 -12.6132 -7.41289
-14.7123 17.004 -7.91613
6.15428 -11.7563 -4.66031
4.82059 -11.6809 -4.48606
-10.3733 15.6467 -6.54875
0.103983 -17.4181 -6.13112
14.9519 -11.8475 -6.66559
21.2008 5.584 -7.6571
0.63729 -21.6103 -7.47452
-9.24988 -1.18684 -3.18711
-4.75527 13.7793 -4.9865
3.76842 -8.73671 -3.27053
5.05179 -9.34926 -3.63688
-13.572 16.8449 -7.3964
2.33058 -11.1011 -3.88406
-8.36982 15.1729 -5.89861
3.17828 -14.324 -4.99487
-14.0142 17.1953 -7.51221
21.0119 5.71331 -7.3236
24.0453 29.7563 -12.8049
39.8469 -22.4914 -15.282
-5.02636 13.3126 -4.71828
1.93373 21.183 -7.0661
1.27649 -10.2351 -3.41042
20.3672 -14.8038 -8.35623
35.7188 -22.4526 -13.8656
-4.98052 13.6918 -4.72464
-11.8057 16.1567 -6.4838
19.7201 -14.0517 -7.85779
3.66847 -8.92248 -3.08939
6.47656 -10.5234 -3.955
12.8843 -10.5002 -5.33548
2.35905 -11.1722 -3.63141
-3.95896 -29.8758 -9.59429
-1.01584 -21.6368 -6.90662
15.6226 10.7608 -5.99386
-12.3783 16.4662 -6.50393
-16.7188 18.0295 -7.72179
3.16542 -10.1916 -3.35979
13.8868 -10.9496 -5.56053
7.29488 -11.6192 -4.2358
1.33102 -20.7088 -6.42554
-2.27388 -24.3921 -7.53299
7.63154 35.3783 -11.0615
0.756395 15.0553 -4.58235
-10.4357 15.7401 -5.68484
-2.37225 -23.4331 -7.10694
-13.4053 16.7568 -6.39592
-4.62279 -30.4324 -9.17888
0.785352 -22.8322 -6.84116
-5.07818 13.9471 -4.40747
2.10358 21.1352 -6.26549
-19.7174 18.3825 -7.94645
18.9219 6.02184 -5.84946
-4.06758 13.6317 -4.17576
-7.45819 14.4599 -4.76628
4.43938 -9.52878 -3.08478
4.86661 -12.1762 -3.82807
20.8868 -14.928 -7.56275
-12.2816 2.16377 -3.58384
-28.1113 -39.8254 -14.037
5.40368 -14.3999 -4.42115
-14.1863 17.0624 -6.37219
7.32125 -11.6559 -3.95688
2.65552 -9.85805 -2.8969
13.5298 -10.9499 -4.94974
-8.28912 -2.41232 -2.44882
22.9079 29.5567 -10.6114
-8.41399 -2.21754 -2.45964
-2.20994 -22.6788 -6.40912
-12.6703 1.94173 -3.56935
52.784 -16.9777 -15.4237
4.63004 -11.9387 -3.54769
-8.72885 15.0051 -4.7591
-12.2081 16.2779 -5.5823
-5.07104 13.5174 -3.93894
-7.1311 -34.703 -9.70921
10.134 -9.23595 -3.7284
-19.8558 18.5273 -7.29453
-9.1202 15.1175 -4.72505
-24.5696 18.8727 -8.23617
11.8773 11.9567 -4.45423
4.57696 -11.9327 -3.37936
52.5723 -15.2827 -14.5007
-6.79749 -32.1264 -8.64768
2.58298 -9.46067 -2.55287
4.28914 -9.07477 -2.63804
11.668 -10.377 -4.08158
-13.4637 16.8549 -5.60318
6.83555 -10.895 -3.3246
-25.6447 -35.0407 -11.2328
3.33069 -10.091 -2.74221
-25.763 -37.7357 -11.8072
-3.7021 -24.3404 -6.38513
3.73249 -10.9152 -2.96881
4.27098 -9.8462 -2.75359
16.4721 -12.3854 -5.25466
-6.68369 14.2308 -3.97261
-27.2129 -36.294 -11.5106
4.56102 -11.7737 -3.1896
4.44355 -8.04379 -2.33478
6.87784 -11.2148 -3.27601
49.7881 -15.0532 -12.9656
-25.8831 19.527 -8.01022
-10.7701 15.8194 -4.71199
-23.9861 -34.9951 -10.4388
-8.25648 -32.5313 -8.29321
-22.5357 18.9271 -7.22657
4.57838 -10.8629 -2.89117
-7.69949 -33.2847 -8.39055
-11.2642 16.1307 -4.76464
-7.35069 14.3149 -3.87261
10.7017 -9.65196 -3.448
44.3239 -14.7231 -11.1738
15.6526 7.82883 -4.17137
-5.25413 -30.1546 -7.30606
4.15385 -9.51006 -2.45474
52.3671 -14.0157 -12.8643
-24.7826 -37.02 -10.5652
-9.92412 -36.5722 -8.99188
4.4452 -9.50822 -2.49859
-23.024 -33.4069 -9.5187
4.15398 -11.9024 -2.96354
5.13872 -9.09827 -2.4542
-11.9169 16.237 -4.68188
3.41394 -10.0672 -2.43984
44.2415 -10.5006 -10.5477
-6.36099 -30.0371 -7.11863
11.4888 -10.0673 -3.48868
-5.29078 -26.8769 -6.26221
-24.921 19.2467 -7.13276
-9.53301 -34.3337 -8.06787
45.5562 -9.96315 -10.5821
-27.8024 20.1851 -7.69783
-32.2263 -21.1187 -8.63447
-4.76073 -22.7076 -5.18271
44.8061 -13.851 -10.528
5.72211 -9.9353 -2.55583
-12.0777 2.75604 -2.71804
44.6377 -13.0814 -10.2757
46.9868 -13.4068 -10.7485
31.6238 44.5475 -11.9886
-5.01517 13.1471 -3.0704
14.0736 -11.3246 -3.97325
41.6252 -13.3768 -9.60999
-21.5374 18.7703 -6.19222
-22.1879 -54.7152 -12.827
4.55838 -10.2536 -2.4285
13.3698 -11.0234 -3.79437
4.78451 -9.67277 -2.32653
-13.5481 16.8777 -4.61714
-28.1363 20.4372 -7.42064
-28.8824 20.4967 -7.56574
-20.7763 -55.1355 -12.646
-20.0351 -54.8838 -12.5007
-9.95637 15.5546 -3.91089
-7.0624 -30.0108 -6.56806
3.39673 -10.2989 -2.30701
4.22034 -10.4521 -2.39798
50.7744 -11.7724 -11.1254
15.4772 7.75304 -3.67458
-14.0643 17.3111 -4.71746
5.4186 -9.4986 -2.29379
30.4003 43.9998 -11.1975
44.5165 -14.7544 -9.77814
-35.9278 23.6013 -9.00618
-25.1005 -24.5644 -7.29483
15.5328 8.12969 -3.64468
-27.5661 -21.2894 -7.22686
-23.5674 -60.4393 -13.4472
44.4385 -11.9592 -9.51639
-10.6564 15.6988 -3.85096
-14.4993 17.1415 -4.56617
-31.7159 21.2902 -7.75721
49.0705 -10.7037 -10.2418
-10.8096 -34.7936 -7.41697
4.38936 -10.3247 -2.27774
4.53913 -10.3334 -2.29545
12.1342 -10.0868 -3.20816
-11.1606 16.014 -3.89189
-15.5444 -44.6256 -9.45726
-7.19161 -27.8447 -5.76434
-6.6159 -27.0466 -5.59176
-10.8004 -33.5656 -6.99124
4.32493 -10.536 -2.25013
-31.062 -21.2399 -7.4189
-24.4992 19.2275 -6.12533
-30.1868 -21.5931 -7.23578
-6.39846 14.1319 -3.00575
-20.7414 -48.7446 -10.3008
-30.64 -20.3979 -7.09395
3.66365 -9.97536 -2.04708
50.8789 -11.7886 -10.0285
-11.8434 16.1687 -3.82712
4.23733 -9.92163 -2.05435
-33.1771 -20.1527 -7.34853
-18.6813 -30.349 -6.78255
-12.7027 -36.6609 -7.35175
41.4814 -13.6839 -8.25601
-32.3323 21.7155 -7.28448
-30.6956 -21.199 -7.00861
-29.7312 -21.7525 -6.91614
-17.1038 -42.3807 -8.60937
-13.8087 -37.517 -7.42518
4.03691 -9.72206 -1.9405
46.971 -12.6598 -9.03298
6.06503 -10.2293 -2.17604
-19.573 -44.3869 -8.89081
-16.5758 -41.1514 -8.03311
-13.4883 16.813 -3.81818
-28.2782 -22.807 -6.4586
-18.3872 -24.5025 -5.48104
-20.109 -52.5534 -9.99715
-35.2228 22.2261 -7.34418
-24.4901 19.2294 -5.41603
-22.9058 -19.9224 -5.29876
-30.7862 21.0668 -6.47312
4.17899 -10.7355 -1.99298
5.01566 -9.05113 -1.79531
14.486 7.77989 -2.84036
14.5801 8.36721 -2.88369
-28.0125 20.3701 -5.93408
14.4501 -11.5986 -3.14957
46.6298 -13.1929 -8.24965
46.3096 -11.9941 -8.14327
48.8984 -11.3492 -8.5976
-28.4364 -22.5839 -6.16085
-16.577 -27.1284 -5.41472
-19.3935 18.4696 -4.49387
-16.4404 -40.87 -7.45175
15.3897 7.71389 -2.89147
-28.7895 20.3809 -5.88861
7.00753 -11.6676 -2.2849
17.1031 -12.7359 -3.51312
-18.7327 -44.6691 -8.01195
42.7228 -13.4717 -7.3004
48.2168 -12.9896 -8.1162
-9.60787 15.2516 -2.90519
-16.6193 -41.2351 -7.09825
-31.6843 -21.8717 -6.06682
-20.9604 18.4155 -4.36607
-23.4395 -14.6946 -4.36914
-22.1831 18.9368 -4.5175
-35.8969 21.7344 -6.49921
-10.4115 15.5816 -2.88968
3.73287 -10.239 -1.68111
4.16917 -11.0192 -1.81961
-7.02677 14.2499 -2.42267
-28.19 20.5175 -5.32664
-28.9003 -22.3217 -5.55309
-25.3851 -23.745 -5.26661
-17.697 -41.1375 -6.82749
46.5571 -12.1037 -7.31203
49.6756 -10.8229 -7.74617
-6.04204 13.4544 -2.20274
-25.4549 -22.6405 -5.06582
10.1074 -5.29796 -1.69389
-30.4516 -21.9632 -5.59126
-20.1758 -51.0251 -8.14549
10.6414 -9.56776 -2.1312
49.8901 -11.5418 -7.60517
-33.2009 -22.1013 -5.8696
-28.571 -23.5665 -5.41799
-10.3187 -34.2006 -5.26374
17.9354 -12.9761 -3.24083
-23.2522 19.1443 -4.37443
-36.2952 22.3846 -6.21814
-19.7636 -44.2874 -6.99423
-7.03886 14.096 -2.24931
-11.7836 16.0658 -2.83787
6.46703 -12.353 -1.98864
7.36663 -11.4355 -1.93716
-12.404 16.5787 -2.90569
-31.2926 21.1391 -5.30631
-26.2164 -24.2764 -5.03449
7.18471 -11.7348 -1.9201
41.1895 -13.5936 -6.10009
-28.3281 -22.6992 -5.06626
-29.7901 21.4088 -5.07917
-26.6585 -22.5629 -4.86197
-16.6904 -40.2311 -6.02135
50.0617 -11.1997 -7.07446
-14.8234 2.77475 -2.07584
-6.31606 13.9655 -2.09078
-17.5506 -45.8101 -6.6708
8.11193 -9.81639 -1.70733
9.59118 -9.44206 -1.85513
-12.9635 16.5521 -2.83171
13.8981 -11.0851 -2.40403
-20.4254 18.5796 -3.71059
46.4744 -12.0164 -6.37324
49.7114 -10.8892 -6.7367
-7.34116 14.2998 -2.07163
-20.8074 18.3108 -3.62227
-29.7213 -22.2398 -4.84827
-13.7763 16.8696 -2.81385
-30.777 20.5422 -4.80151
-35.1536 -14.843 -4.92582
7.41848 -11.0323 -1.70344
9.19939 -9.45729 -1.72614
11.1213 9.10638 -1.85004
-30.7879 -21.2168 -4.78436
-28.4802 20.7914 -4.45818
-32.415 -20.227 -4.78829
-26.0233 -53.1892 -7.39896
46.3061 -11.9758 -5.98613
7.19141 -10.9705 -1.6368
-7.05832 14.1166 -1.95123
-22.9001 19.229 -3.65957
-30.1545 21.2521 -4.54831
6.76873 -12.9792 -1.77993
49.6434 -10.5917 -6.21851
15.5587 8.1518 -2.11596
-14.8767 -36.034 -4.70463
7.49691 -11.1416 -1.61476
-19.5174 8.65016 -2.52635
-11.6338 -35.198 -4.36371
-35.2688 -14.0832 -4.47751
-28.9768 -22.3404 -4.27772
-28.4819 -22.7781 -4.26717
46.4385 -12.4398 -5.65099
11.7557 -10.1238 -1.79644
-27.121 20.5647 -3.91393
7.05627 -11.4964 -1.54197
7.83534 -9.64631 -1.42029
-19.4497 -46.7504 -5.70516
12.1304 -10.1833 -1.79802
9.69948 -4.73193 -1.22265
15.5313 7.98159 -1.97203
-9.57101 15.2367 -2.02857
-29.0944 21.2596 -4.03487
-14.4434 2.06273 -1.59797
42.775 -14.0814 -5.05021
9.7662 -9.41795 -1.50017
-10.2457 15.3664 -2.00588
7.33724 -13.8117 -1.69096
49.8406 -10.8325 -5.53058
11.1292 9.1462 -1.55674
17.807 -13.2276 -2.37959
46.6643 -12.1031 -5.16648
10.0384 -9.37021 -1.45413
8.72464 -8.81328 -1.29848
-28.1241 -22.5057 -3.7499
-23.8321 -47.804 -5.57425
15.5267 7.78718 -1.77858
-28.9267 -22.3041 -3.74681
-11.8881 16.2062 -2.03931
-11.8365 15.8585 -1.9656
10.6573 -9.48857 -1.39731
-16.5353 -41.9963 -4.42753
6.82842 -13.0764 -1.42506
9.89671 -9.34358 -1.28685
-47.8428 26.6491 -5.28692
17.6514 -12.9142 -2.10146
46.5633 -12.5125 -4.62262
-24.1007 -48.7181 -5.16807
-16.3361 -42.8735 -4.35983
-21.3982 18.7172 -2.65666
50.7294 -11.2857 -4.85558
10.1412 -9.38001 -1.27828
43.7825 -14.443 -4.29652
-13.8643 16.9958 -1.98526
-27.7044 -12.6311 -2.77446
-25.3802 -49.4783 -5.12632
16.7909 -12.568 -1.90718
9.00595 -9.10093 -1.15891
-33.1305 -18.79 -3.335
13.5614 -11.1944 -1.53069
50.2491 -11.6472 -4.4202
9.81634 -9.42608 -1.14359
11.4644 -10.0959 -1.2836
-30.8049 21.1558 -3.10875
17.8725 -13.0333 -1.83151
-13.8465 -36.0327 -3.09301
15.5126 -12.13 -1.56977
-32.0313 -62.5961 -5.58392
-10.0007 -27.9996 -2.3481
-27.0588 20.5749 -2.6281
-29.8958 21.1318 -2.82549
-18.2598 -41.7118 -3.51553
7.96807 -9.75046 -1.00441
-44.7651 24.3637 -3.85799
-19.6542 18.4982 -1.96298
-30.0645 21.2662 -2.66823
17.3803 -12.9868 -1.5867
46.6077 -12.4727 -3.51646
-29.8084 -56.4019 -4.60219
14.7381 -11.6611 -1.34465
-25.8924 -16.0654 -2.09795
-12.8389 -34.0597 -2.51265
11.2717 -10.0666 -1.03522
-21.4116 18.7484 -1.9219
13.541 -11.1737 -1.17498
19.1245 -13.871 -1.57465
-18.6524 -42.9768 -3.09584
17.0129 -12.8686 -1.40847
-12.0805 -33.4959 -2.30357
48.7526 -12.6798 -3.15041
-24.7595 -50.1679 -3.4119
38.9734 -9.45527 -2.46293
47.6452 -10.9056 -3.0026
6.65206 -14.3794 -0.945062
34.2788 -22.6826 -2.45865
-9.06757 15.1376 -1.03705
-12.913 -33.6864 -2.05366
17.6413 -13.1844 -1.23644
-9.21753 -11.949 -0.826915
15.5277 7.9665 -0.94717
14.6578 -11.6034 -1.00108
-11.8207 16.0196 -1.04009
-13.6939 -33.9422 -1.94278
15.4186 8.10785 -0.857358
-13.477 -34.4503 -1.8138
-13.0723 16.5698 -1.00968
9.98791 -9.42137 -0.629955
-19.0175 -43.6248 -2.15081
13.0778 -10.7513 -0.78505
-12.9391 -36.07 -1.69973
-14.2209 -35.038 -1.617
7.44601 -13.7502 -0.692783
-11.2712 -34.361 -1.53896
-45.8509 24.9361 -2.11413
19.5633 -14.0551 -0.977764
17.857 -13.2734 -0.866733
-30.6327 -59.455 -2.51777
-14.6389 -38.3887 -1.51057
-30.3801 20.8746 -1.34859
47.1854 -12.1583 -1.7567
-26.4143 -52.5427 -1.96252
-20.4758 -44.8734 -1.65681
22.036 25.4869 -1.12584
-19.6984 18.46 -0.88042
8.87928 -15.6722 -0.604244
9.83951 -9.39355 -0.441381
11.8518 -10.434 -0.513661
19.8381 -14.0274 -0.798845
38.1008 -14.3706 -1.35269
24.3462 29.4719 -1.23376
-25.6268 -12.854 -0.897046
-21.0106 18.7107 -0.858267
-28.7363 20.3531 -1.0996
-19.5976 -45.0557 -1.51766
-11.4508 -32.3969 -1.05606
-16.9198 -43.1635 -1.4
-13.444 -36.4366 -1.10966
-31.1576 -18.8913 -0.967884
11.9955 -10.1764 -0.421928
17.3366 -12.895 -0.570065
-36.5803 22.6304 -1.13489
-27.4319 20.8738 -0.853666
-28.3211 20.1248 -0.889474
-27.935 20.4736 -0.819653
9.99234 -9.40682 -0.318486
-37.6599 13.0167 -0.880649
-18.3491 -29.5052 -0.812834
-25.8685 -43.3189 -1.13136
22.8417 -15.277 -0.60462
33.6031 -20.3764 -0.887505
14.6698 4.05425 -0.313084
-44.332 15.9832 -0.920363
33.8002 59.0718 -1.26467
25.1164 -11.6933 -0.489152
52.712 -12.1382 -1.00889
-28.099 -20.1931 -0.62823
-26.6026 -26.1288 -0.587842
-15.4606 -37.9383 -0.677944
13.3774 -11.0009 -0.28564
-24.2747 -11.4822 -0.410592
19.7811 -14.294 -0.373647
-27.3539 -12.1579 -0.391122
-29.845 -22.3351 -0.515458
-25.6283 -51.6644 -0.771824
-21.8302 -46.4623 -0.697527
-30.9166 -21.1143 -0.485666
-27.45 20.8844 -0.407304
18.0855 -13.5062 -0.268764
32.2158 -19.9758 -0.446891
-27.9069 20.4883 -0.386682
-34.5596 -19.3104 -0.442518
-15.796 -36.2282 -0.418334
-10.0403 -30.2238 -0.317189
-26.8007 -47.2237 -0.493712
-13.2168 16.7661 -0.165434
-25.0481 -12.6285 -0.224647
-13.8562 16.8914 -0.150994
-20.7326 18.5167 -0.144617
-19.3295 18.1311 -0.122162
-28.0315 -13.2799 -0.100945
-10.0152 -12.8754 -0.0561082
15.2817 8.02796 -0.0239611
11.6415 -10.2369 -0.00906994
-31.7165 -17.3721 0.058152
-9.55497 -28.3984 0.101802
18.0168 -13.0901 0.0955829
-15.5948 -35.8033 0.179172
20.0473 -14.125 0.129145
7.74127 -13.3076 0.111421
27.8353 -11.4202 0.18334
-48.9182 17.4678 0.495017
17.2358 -12.7738 0.203682
40.8494 -8.34015 0.390629
-27.3538 -7.71293 0.333962
-33.0713 -19.9611 0.42965
-9.63453 -27.6051 0.318202
-47.2838 25.9149 0.657989
-10.7242 -29.7191 0.381206
-8.73448 -26.8497 0.343347
6.93355 -14.1729 0.200186
7.68534 -11.8401 0.184527
-25.6614 20.1441 0.497507
11.8643 -10.3618 0.235653
-22.1165 18.9142 0.47824
11.4218 -10.1984 0.239165
13.6568 -11.2429 0.277504
39.6072 -8.47655 0.671109
-31.4734 -21.0865 0.692975
-28.3556 20.2751 0.682464
6.73376 -14.0696 0.301138
7.48452 -11.7788 0.267611
8.41583 -9.87559 0.252188
8.31803 -8.63581 0.285504
36.3375 74.7247 1.79572
8.10939 -9.90865 0.288238
10.5864 -9.58864 0.343299
-27.0973 -8.68893 0.687185
-21.4104 18.6887 0.766527
-25.1552 19.8356 0.857456
-27.2263 -8.17497 0.750774
9.59286 -9.28578 0.359338
10.0487 -9.33968 0.372617
-23.3763 19.7025 0.828244
26.8818 -5.43837 0.761225
13.6657 -11.2108 0.525105
16.3566 26.647 0.959995
-31.2914 22.1881 1.1513
6.77397 -13.9748 0.486674
7.97061 -12.4251 0.461647
-26.8207 -7.56412 0.915934
-11.6927 -17.9031 0.707532
-26.515 -8.28704 0.962195
16.8701 11.5467 0.735633
-27.6088 -17.1082 1.13859
17.6764 30.7075 1.25962
-28.2447 -15.4063 1.19533
24.8095 -4.48005 0.908451
-25.7437 -18.3094 1.17409
-7.07042 -7.70916 0.39548
9.44434 -9.20965 0.488876
13.0736 14.3013 0.743948
33.8232 69.78 2.92814
32.562 69.3296 2.87581
-11.1415 -8.81895 0.56137
9.09631 -9.0397 0.505794
-23.4946 19.3546 1.233
22.8995 -3.10346 0.933835
-26.7466 -16.246 1.28522
9.82667 -9.31763 0.553687
13.1429 15.1368 0.859329
7.13108 -13.5047 0.646272
16.0015 20.7915 1.14974
23.2843 32.1626 1.73402
-8.99582 -13.0805 0.699891
-9.38008 -14.6705 0.775513
8.05886 -11.6148 0.621034
8.99682 -9.0902 0.576353
25.5164 -3.90901 1.163
-28.0636 -8.17806 1.3361
7.19646 -11.8309 0.635098
-8.01375 -7.88642 0.53002
26.0942 52.651 2.80549
-26.5239 -16.3927 1.47724
-9.26394 -12.9949 0.761729
10.084 -9.35622 0.646254
19.7087 54.7739 2.81293
-28.2577 -12.5163 1.47778
-6.5458 -7.98036 0.508794
17.2126 40.0292 2.21929
-27.8664 -10.9125 1.50424
-7.38565 -6.79136 0.507801
-6.50262 -7.3715 0.498028
18.295 33.1418 1.96157
22.4614 31.883 2.07176
11.0248 12.8915 0.914067
15.3106 20.8353 1.38491
9.75392 -9.31607 0.720932
15.932 20.7298 1.44026
16.7863 25.9265 1.69712
-25.3182 17.8271 1.6945
-6.75186 -7.93492 0.578747
-24.2843 18.6338 1.69882
6.66456 -14.0709 0.8681
-6.85478 -8.83415 0.638892
10.4115 13.0047 0.977235
16.5237 27.8408 1.88795
7.04416 -14.1468 0.906557
15.1498 24.7168 1.70914
-8.0017 -7.86529 0.677041
12.0191 12.1023 1.01453
15.7883 20.9988 1.57526
-7.11002 -9.625 0.745748
7.46658 -11.8982 0.853664
11.7915 -10.1708 0.942119
6.2754 -11.5035 0.810519
-7.00848 -6.47805 0.597023
15.6436 22.1921 1.71484
16.7506 7.43542 1.18728
-6.86521 -5.99813 0.598753
7.06901 -14.7049 1.08393
10.3555 23.3913 1.72358
10.8863 13.1217 1.16317
14.4969 19.4935 1.69163
13.4407 22.2851 1.79814
11.8366 12.5036 1.20607
6.96314 -10.3843 0.882986
11.9861 12.2629 1.23856
10.1355 -7.15448 0.880921
12.8997 12.488 1.31616
10.3258 -8.72004 0.988104
-6.00135 6.50443 0.65853
10.7743 9.48716 1.07618
12.7441 19.0548 1.7224
12.3053 19.605 1.74176
-6.73875 -7.46944 0.781172
11.6841 20.1668 1.78612
9.92285 -9.3423 1.05113
11.0119 14.7821 1.4429
-6.29575 -4.21852 0.597865
9.9174 19.8696 1.77286
10.4218 -7.13147 1.0092
12.9778 12.041 1.42873
10.5343 20.4536 1.85077
-6.99626 -9.28014 0.948344
7.05167 -9.84595 0.98303
12.7607 12.2074 1.44464
12.6671 12.4578 1.47302
11.9096 12.4483 1.42401
-4.78719 -10.9274 1.00626
10.7916 13.5018 1.46865
-6.79307 -5.93601 0.777722
-6.64211 -6.52428 0.78727
-4.94942 -10.8568 1.01731
-7.08569 -7.51894 0.89088
9.60633 -7.50732 1.05134
-6.90271 -7.8113 0.913539
-6.8119 -7.46586 0.889995
9.81128 13.0963 1.44888
-6.73057 -8.10552 0.942664
11.1693 9.37176 1.32672
10.976 14.1365 1.61505
10.8685 9.54547 1.3221
8.15258 14.7989 1.55268
-6.29472 -7.88126 0.925553
-6.66459 -8.70723 1.01372
11.6283 11.2151 1.48855
11.6264 9.48592 1.40206
11.2849 11.217 1.4895
6.92757 16.0091 1.63827
-11.1622 2.85975 1.07948
-6.24435 -4.09413 0.69974
-6.64113 -6.14192 0.839638
9.89239 13.9513 1.64814
-5.88108 6.39038 0.85279
8.20987 -6.81608 1.0379
8.33478 13.8975 1.60836
-6.8635 -7.39659 1.01783
9.69159 12.1183 1.56342
7.34623 13.0438 1.5181
7.43072 13.6897 1.58683
9.83636 9.38162 1.40494
6.23666 14.868 1.67058
9.55449 12.9948 1.68007
-5.99138 -4.37215 0.777771
6.32599 14.5363 1.66931
6.59008 14.4356 1.66761
-6.83358 -4.34075 0.866273
9.03854 9.29697 1.38066
9.46018 10.5389 1.53858
7.62404 11.4477 1.4935
6.09643 12.008 1.4633
-6.11988 -7.19966 1.03415
10.5293 6.6174 1.37409
9.2457 8.36816 1.37292
7.63161 12.1989 1.58772
7.15164 12.1551 1.55816
5.63253 12.5079 1.52566
5.13902 12.7747 1.54023
5.03339 14.6391 1.70314
10.1258 7.23998 1.3881
9.03977 9.60917 1.47262
5.64413 12.0769 1.50058
-6.66411 -6.54932 1.04106
7.13839 11.142 1.4895
4.61399 14.0768 1.67454
9.97776 -3.26942 1.16879
-5.97059 -5.29549 0.924679
7.4986 -6.29534 1.10928
10.6668 5.85267 1.39357
-7.26874 -0.970642 0.839854
-6.12239 -5.24062 0.928311
5.38646 -5.70281 0.901643
5.3258 12.2162 1.5477
-6.74614 -4.46848 0.938132
4.63363 -7.55432 1.02207
10.65 5.26854 1.39245
9.12785 8.10139 1.43106
-5.89036 -4.28691 0.849415
-6.34704 -5.16067 0.967054
4.29356 -8.25177 1.10286
5.10873 -6.01714 0.94471
10.3929 4.85963 1.37349
8.7595 8.50577 1.47733
5.53311 12.0546 1.61873
9.25544 6.41176 1.37687
8.23814 8.57356 1.48801
-6.34257 -5.61653 1.0555
3.88281 -7.93063 1.10252
8.88232 6.84866 1.40878
-6.32787 -5.22878 1.03966
9.29789 6.15008 1.42158
8.38466 7.31616 1.41823
8.32188 7.69972 1.44612
5.92285 -5.48016 1.0338
-6.83532 -4.35603 1.0409
8.32247 8.21708 1.51555
-7.24564 -1.02643 0.945108
-6.80962 -2.77996 0.960592
9.14926 4.18043 1.31561
8.59974 6.7845 1.43641
5.14436 -6.20332 1.05689
5.06635 -6.38054 1.07636
7.01722 -4.37411 1.09867
-7.02429 -1.69187 0.968364
-6.89993 -2.18515 0.967527
-5.91293 -4.3398 0.981056
8.32507 6.81393 1.45696
8.776 4.52525 1.34456
8.809 5.27336 1.40069
8.22555 7.31343 1.49671
-6.68669 -3.66669 1.0358
9.03251 4.23986 1.36412
8.44241 5.95865 1.41351
7.84138 5.96867 1.34173
-6.27785 -4.24775 1.0377
-5.8449 -4.43958 1.00295
5.53671 9.33021 1.49787
3.81125 10.5447 1.55743
-7.25542 -1.07618 1.01538
-6.77677 -3.85451 1.08235
5.07992 -5.68971 1.05178
5.36051 -5.53424 1.06707
7.61385 -3.60806 1.17632
3.55261 10.6554 1.57442
8.56447 4.68734 1.37949
7.52508 -3.75277 1.19091
7.73683 -3.40055 1.20292
7.91646 -3.37131 1.21896
9.09972 2.8653 1.37143
4.96456 -5.78717 1.09354
7.48871 -2.90527 1.16753
-6.83823 -3.24303 1.10339
8.06952 -2.83258 1.24498
8.8286 -1.85438 1.32229
5.16694 8.84655 1.51173
3.0892 9.8759 1.54019
7.86527 -1.92026 1.19138
7.37666 5.87468 1.40366
3.60803 9.98218 1.56945
3.33853 10.2648 1.60048
-7.25798 -1.02735 1.08652
-6.96426 -1.99143 1.07938
7.09762 6.42502 1.44416
-6.17193 -2.2385 0.985194
-7.12981 -1.35422 1.09524
8.09166 4.91015 1.44044
5.85322 7.5422 1.44764
5.43384 7.83488 1.45038
5.20231 8.24432 1.47322
6.88192 -3.2838 1.15124
7.38273 -3.18337 1.22926
7.77825 -2.80662 1.25816
-7.20724 -0.721868 1.10571
-6.9869 -1.92397 1.11841
6.91122 -3.14827 1.17254
3.86301 -5.95957 1.09543
-6.94288 -2.04345 1.13457
-7.23426 -1.07614 1.1481
7.49602 4.86209 1.40971
-7.089 -1.42142 1.15008
-7.16067 -1.28113 1.16691
-6.98658 -1.98736 1.18116
7.19635 4.84846 1.41507
-6.99078 -1.91509 1.1906
7.13625 4.95293 1.44152
6.73089 4.93698 1.3917
5.3145 6.37293 1.38146
4.79061 7.35241 1.46503
3.94061 8.17919 1.50909
-7.13864 -1.35244 1.21265
2.88998 -5.97571 1.11559
7.26583 4.50542 1.43884
6.6333 5.33457 1.4348
3.97864 -5.50944 1.14305
4.03346 -5.14334 1.10393
-7.16183 -1.23328 1.23254
-6.49484 -2.58396 1.18607
7.53101 2.8918 1.3667
7.14395 3.95426 1.39003
-6.31435 -2.71002 1.16922
6.88401 4.16483 1.37984
5.78394 -3.58216 1.16895
-7.28323 -1.02362 1.27159
-6.26314 -2.24671 1.14395
5.63565 -3.7137 1.16131
5.41657 -3.84288 1.162
3.69324 7.35439 1.44758
-6.69895 -1.7094 1.21404
4.57459 -4.56107 1.13452
-6.98853 -0.901144 1.25489
4.82408 -4.55038 1.17125
4.42477 6.63715 1.42288
6.68346 3.52525 1.36317
6.72617 3.7384 1.38102
-6.35169 -1.47955 1.17278
3.70671 -5.46916 1.19899
5.17132 5.71633 1.41054
-6.06725 -2.15199 1.17983
3.5022 -5.29136 1.17722
3.47249 6.941 1.45202
-1.64172 -5.59496 1.11
6.53181 2.76886 1.34864
-2.08067 -5.56287 1.14386
6.39328 2.83334 1.34487
-2.71881 -5.245 1.15935
-3.46021 5.25282 1.35956
4.52789 3.94321 1.3694
4.20921 -2.91848 1.19134
4.68701 -2.21351 1.25051
4.24578 3.32798 1.33534
3.7587 -2.97012 1.23847
4.05582 2.59859 1.34468
-1.41341 -4.03611 1.19914
-2.28474 -3.52425 1.19468
3.8937 2.38499 1.32184
-2.8341 3.49132 1.34559
-2.4492 -2.87967 1.17498
-2.34842 -2.90133 1.18014
1.86348 -2.84038 1.19198
1.88618 -2.81753 1.22197
2.01144 -2.54905 1.20716
-2.03173 2.78891 1.30982
2.81993 -0.558573 1.26471
2.79833 -0.338426 1.24605
-2.07284 -1.60633 1.20343
-2.06181 -1.44051 1.22887
-1.84668 -1.78092 1.27299
-1.98189 -1.124 1.1965
-1.97379 -1.06352 1.22335
-1.93485 -0.875138 1.22409
-1.9201 -0.704452 1.21482
-1.91902 -0.697601 1.24192
-1.89646 -0.46726 1.21534
-1.86256 -0.343986 1.21282
-1.84734 -0.39916 1.21946
2.36183 -19.3914 -9.8592
-7.33354 -8.65809 0.449625
8.20603 -8.99887 -10.7005
8.44448 -8.81086 -10.7214
8.39772 -8.46778 -10.0947
7.11777 -12.2138 -11.6508
8.73245 -9.1948 -9.9777
8.03877 -9.14433 -9.34359
5.97479 -13.0451 -10.9325
9.68468 -9.07011 -10.0012
6.27544 -14.3568 -11.788
8.49885 -8.89459 -9.24269
8.22441 -9.39806 -9.33198
7.47575 -9.47057 -8.98226
6.04223 -14.4369 -11.4112
7.92225 -9.54431 -8.94334
8.05909 -9.34579 -8.88277
7.30733 -10.8332 -9.2964
6.9965 -11.345 -9.44151
10.3656 -9.47402 -9.85555
6.71175 -11.4545 -9.08123
8.24515 -8.84985 -8.04842
7.56331 -9.52908 -8.07791
8.74733 -8.91171 -8.29427
7.94368 -9.73988 -8.25003
6.66627 -13.1059 -9.59363
8.15633 -9.43247 -8.12644
5.07586 -16.2223 -10.9281
-0.483879 13.803 -8.83174
7.94327 -9.49551 -7.93207
7.55538 -11.1785 -8.58313
8.6145 -8.80336 -7.84106
11.2414 -9.94026 -9.51128
9.24433 -9.0638 -8.1137
12.2027 -10.4022 -10.0418
8.30853 -8.78075 -7.43108
4.07548 -16.9129 -10.6598
4.31463 -15.559 -9.90956
0.0931563 14.1264 -8.58239
8.07981 -9.63332 -7.52844
3.99296 -15.7252 -9.6719
11.9019 -10.1859 -9.37555
7.07549 -11.4055 -7.9623
7.97886 -9.04776 -7.14071
5.62627 -14.3188 -9.08295
6.67779 -13.0567 -8.5752
8.60173 -8.83607 -7.18081
10.002 -9.37171 -7.9861
2.85389 -12.0149 -7.07336
5.66878 -14.3509 -8.72779
9.91511 -9.40576 -7.71965
6.82006 -11.3954 -7.47073
3.31794 -20.3807 -11.5747
9.15327 -9.21099 -7.27376
12.6655 -10.6227 -9.25406
7.03241 -11.3302 -7.4222
4.80588 -14.9523 -8.67334
6.41975 -13.0033 -7.97005
0.878379 18.6105 -10.1463
15.0815 7.97111 -9.27464
4.31458 -14.5729 -8.20208
15.401 -12.1838 -10.5782
15.4576 7.68283 -9.20056
14.4445 7.96032 -8.76937
4.87509 -15.1455 -8.44856
12.5432 -10.5331 -8.6134
1.79969 -20.0995 -10.3848
11.8451 -10.2192 -8.00891
2.06805 -19.8891 -10.1492
14.5951 -11.5824 -9.41763
-0.010524 14.1652 -7.11102
-6.95347 14.436 -8.022
10.9816 -9.94842 -7.43984
7.772 -9.74319 -6.20339
18.3044 5.69683 -9.35606
-8.07945 15.3005 -8.35419
12.1072 -10.166 -7.64615
10.8792 -9.93314 -7.06854
15.473 -11.86 -9.39687
17.4801 16.5655 -11.4521
7.7777 -11.4876 -6.60242
15.5084 7.66395 -8.12222
14.5303 -11.5026 -8.65558
-11.2446 16.0931 -8.9865
16.6134 -12.5853 -9.51533
9.98573 -2.50372 -4.72874
-8.92678 -1.62278 -4.12689
19.7989 19.1115 -12.4291
4.03738 -9.3734 -4.62656
-9.63927 15.735 -8.27869
-5.25068 4.36587 -3.06956
7.13725 -11.7406 -6.17826
9.75414 -9.39788 -5.96924
16.5776 7.5635 -8.04419
-6.29694 14.2834 -6.81043
1.50705 -18.593 -8.06841
-10.5104 15.9824 -8.22804
9.79765 -3.44619 -4.44787
-9.1782 -1.71356 -4.0095
7.30408 -11.4883 -5.74829
16.5912 -12.5387 -8.69965
15.1292 7.99903 -7.1837
19.8697 20.6806 -11.9985
1.00062 -21.7153 -9.0559
-4.35384 13.2881 -5.75619
-9.72077 -1.08714 -4.05444
14.5408 8.03046 -6.78774
21.9181 23.8498 -13.2178
-12.6953 2.37924 -5.26102
15.624 7.42426 -7.00108
-4.97376 13.607 -5.82035
3.76768 -9.10854 -3.91789
12.8952 -10.6837 -6.55571
14.5996 -11.526 -7.26415
20.542 23.0008 -11.9757
19.5467 6.0281 -7.93615
1.53979 19.4925 -7.58705
-8.22668 14.813 -6.5253
11.8591 -10.4535 -6.0762
20.5491 23.834 -12.1358
0.667848 15.3972 -5.9051
-1.62204 12.3591 -4.79227
2.75796 -12.3892 -4.86744
-8.60286 -1.22862 -3.30393
3.43816 24.2035 -9.27946
0.683895 -22.3055 -8.42867
15.9586 -12.2283 -7.57702
9.70696 -3.5419 -3.89732
-13.648 16.8186 -8.06615
-7.7361 -3.4366 -3.10618
1.09181 -10.3167 -3.81749
7.33237 -11.7146 -5.04793
14.6656 8.18994 -6.06954
-8.132 -2.79201 -3.09295
0.776013 15.3275 -5.47561
-3.75255 12.6641 -4.6668
5.98689 -11.4539 -4.54225
16.6678 -12.595 -7.3944
19.8489 6.13086 -7.31295
2.18298 21.4898 -7.58566
23.5244 28.4481 -12.8449
-9.15705 -1.32659 -3.16204
-13.8455 17.0865 -7.5424
3.07851 -13.7647 -4.84953
-8.3279 15.0354 -5.86734
19.5909 -13.8749 -8.22278
-4.76821 13.6773 -4.91962
14.5741 -11.7425 -6.27611
1.30566 -21.0164 -6.98461
1.77075 19.9535 -6.62353
1.45882 -10.3187 -3.44406
43.4504 -22.2099 -16.007
-3.08304 -22.8272 -7.43789
6.41766 -10.4453 -3.91943
18.5739 -13.1141 -7.2778
2.13614 21.0462 -6.73859
-12.4354 16.5971 -6.53323
1.37178 -21.158 -6.61444
-4.06203 13.8749 -4.48719
-10.2151 15.4732 -5.61382
-2.39816 -24.5518 -7.50894
3.19051 -9.83978 -3.13886
0.749794 -22.2901 -6.71657
19.033 11.0015 -6.50753
20.3483 -14.4428 -7.39957
18.2586 5.77671 -5.62326
-7.38332 14.2854 -4.67619
4.42673 -10.9703 -3.43271
3.805 -11.0877 -3.33058
4.46594 -11.51 -3.45977
-12.3536 16.5092 -5.73074
-8.65287 14.7874 -4.65599
-12.8692 1.92924 -3.56794
-15.6271 17.9517 -6.45775
28.4921 -18.7556 -9.2375
-3.32316 -23.7565 -6.44905
3.95457 -9.54988 -2.76097
-9.13212 15.1757 -4.7097
33.1209 -15.74 -9.78335
52.7059 -15.3888 -14.5574
10.976 -9.78862 -3.89008
-6.0004 13.884 -3.94591
-13.3738 16.765 -5.62321
-6.69032 -31.7037 -8.45502
5.19719 -10.0272 -2.91875
6.86817 -10.9869 -3.33838
-6.6927 14.1979 -3.98468
-9.82674 15.3018 -4.64218
-8.18344 -32.4579 -8.33916
50.1398 -12.7058 -12.8296
-7.38491 -31.9086 -8.01342
11.4242 -10.0704 -3.742
-7.41584 14.3871 -3.92039
-10.8871 15.8216 -4.64491
15.124 7.98949 -4.0644
-25.1933 -37.8789 -10.868
4.24104 -9.68843 -2.49887
15.7452 7.79876 -4.1454
3.93367 -9.34519 -2.37915
-5.54914 -27.6927 -6.55211
5.8985 -10.3579 -2.75869
49.5124 -11.9821 -11.8396
-11.8791 16.1788 -4.61626
15.3903 7.8825 -3.91658
48.2837 -10.4453 -11.1908
-9.08911 15.1366 -3.94787
-26.6723 -65.5484 -15.389
3.93561 -9.79715 -2.29216
47.3799 -12.155 -10.6754
15.6633 7.77114 -3.74873
-9.86643 15.399 -3.91359
-19.2723 -30.3 -7.72026
-15.0919 -47.1794 -10.685
5.0845 -10.2795 -2.46982
9.827 -9.28999 -2.84951
49.8698 -11.6771 -10.9584
-13.6674 16.9321 -4.57459
-29.3342 -21.6513 -7.72926
46.0312 -15.4016 -10.2673
15.3827 8.12908 -3.63304
-31.8789 21.5579 -7.865
-6.94132 -28.4077 -5.93369
4.22864 -12.2964 -2.60829
49.252 -10.6268 -10.2484
7.84964 -8.93677 -2.3405
12.321 -10.1988 -3.20559
47.4214 -12.2081 -9.75771
-24.6946 18.6348 -6.1373
-31.5527 -19.9637 -7.38278
6.48269 -10.8483 -2.51227
50.9758 -11.9208 -10.2249
-11.8367 16.1492 -3.86619
-24.5286 19.2224 -6.05224
-17.7936 -41.9262 -8.81394
16.7952 12.7052 -4.03129
-6.35404 13.9824 -2.94427
-30.111 -21.7795 -7.11391
-28.7367 -22.5028 -7.01541
-32.0962 21.3874 -7.25908
-30.6769 -20.2363 -6.9454
18.7268 5.88782 -3.6678
-31.2388 -18.8484 -6.81386
-12.3136 -35.5086 -7.01117
4.02446 -10.4753 -2.1082
-19.0596 -47.4588 -9.52229
-13.7418 -37.0281 -7.23331
4.22089 -10.2242 -1.99111
13.6938 -10.7 -3.13234
50.317 -11.1973 -9.25978
-13.6084 16.8775 -3.87089
-24.6446 19.3289 -5.52658
15.6372 8.27824 -3.08605
-27.445 -23.9165 -6.34614
-16.5559 17.8582 -4.18952
47.2669 -12.1076 -8.37745
-7.34446 14.1457 -2.69679
-8.92529 16.4344 -3.15555
49.467 -11.6449 -8.59397
-27.9042 20.325 -5.80891
-27.6483 -21.2711 -5.83101
-17.9894 -30.3817 -5.9328
-19.1212 18.283 -4.39874
-29.2716 20.6722 -5.97517
16.8217 -12.5508 -3.43751
-9.568 15.189 -2.85322
-38.5284 22.6713 -7.0888
-28.8304 -21.6584 -5.77309
-30.4964 -21.0353 -5.83501
3.67906 -10.1686 -1.68707
-21.8056 18.6272 -4.42662
-13.0783 -14.6751 -3.0391
17.9136 -12.664 -3.39657
-10.344 15.4803 -2.82615
51.1832 -11.9958 -7.9799
-25.4196 -22.6348 -5.11434
-18.3435 -42.5131 -7.00278
-26.7977 20.0978 -5.00597
-34.432 21.4692 -6.01985
-28.7902 -22.3479 -5.43749
49.4221 -10.5912 -7.52706
-30.6483 -22.165 -5.52642
-43.7929 24.4515 -7.20831
-32.276 -21.5283 -5.58417
7.267 -13.9432 -2.27892
-33.0456 -19.2061 -5.4087
-6.35873 14.0177 -2.13457
-12.1143 16.3531 -2.82946
-29.0926 20.9454 -5.00819
-24.9563 -21.4019 -4.53352
-19.684 -43.84 -6.63181
-12.9357 -37.8208 -5.50377
40.118 -13.3418 -5.79831
-21.2612 18.6836 -3.76416
-29.3774 -22.0002 -4.79129
-27.856 -22.8521 -4.7635
-30.8701 -21.2602 -4.80073
7.80087 -9.88036 -1.62627
47.3598 -12.1234 -6.27381
-30.2956 20.6158 -4.65676
-27.6701 -14.7648 -3.99728
6.28704 -8.14214 -1.31287
49.676 -11.6762 -6.47071
-28.1668 20.7012 -4.35984
18.726 -13.5839 -2.88847
15.3017 -11.9214 -2.38204
-14.7786 16.9066 -2.68388
-27.2215 20.5029 -4.12058
-29.4845 20.8431 -4.34535
-9.56322 15.2101 -2.07407
-28.8116 -20.7215 -4.17471
-18.3013 -44.0616 -5.55418
13.6502 -11.0402 -2.05425
39.0634 -12.9085 -4.76089
6.72534 -10.967 -1.47667
11.7164 -10.1531 -1.746
17.4355 -12.9817 -2.44852
-10.2371 15.3503 -2.04146
7.28899 -13.5795 -1.68602
12.1473 -10.1444 -1.75196
47.1726 -12.0968 -5.34773
-34.9628 21.8001 -4.42014
49.7597 -11.6278 -5.50343
15.7512 -12.0952 -2.112
-11.9702 16.1722 -2.06537
15.3096 8.10362 -1.73488
-16.1094 -40.8534 -4.45106
14.7611 -11.6448 -1.87745
-12.9403 16.5503 -2.03659
6.91873 -13.2584 -1.4371
9.81056 -9.3058 -1.30648
18.0634 -13.2083 -2.1832
-26.9774 -12.891 -2.81571
-13.8246 16.9294 -2.03651
-28.2718 -55.0806 -5.76378
-31.082 -19.4492 -3.24518
17.1005 -12.8141 -1.92236
42.3057 -14.0767 -3.99127
11.6447 -10.3514 -1.28722
47.6827 -12.1874 -4.10633
-13.3854 -34.8348 -2.99874
-29.8812 -58.4298 -5.11137
18.7461 -13.6605 -1.83144
-27.3834 20.7251 -2.626
7.80479 -9.6146 -0.958004
-29.7092 21.0308 -2.70314
-13.8127 -34.1714 -2.75526
-19.5097 -44.6297 -3.52023
-28.4292 -53.4979 -4.30703
-27.1735 -54.425 -4.1658
13.2143 -10.9974 -1.15708
18.1234 -13.2001 -1.51549
-35.333 21.9964 -2.72053
48.0096 -12.2919 -3.25489
-26.8144 -12.6087 -1.77319
-30.2461 -58.4359 -3.98224
15.3161 -11.9405 -1.17018
34.5218 -22.7416 -2.25856
34.3772 -21.6669 -2.22081
15.9176 7.86162 -0.92458
15.329 8.1286 -0.895583
-11.8857 16.2204 -1.0206
-19.7524 -43.5888 -2.45681
-11.3283 -30.8351 -1.62762
-25.338 -14.6337 -1.38717
-31.5542 -59.4698 -3.2837
10.0861 -9.49936 -0.693194
14.1576 -11.2591 -0.888675
16.6614 10.5996 -0.936907
17.0368 11.9413 -0.972944
7.40181 -13.5765 -0.734409
-19.1962 -5.66399 -0.858843
-24.5021 -43.6668 -2.20614
11.0033 -14.8556 -0.7551
19.2349 -13.8715 -0.969468
47.0717 -12.0243 -1.93556
-8.94527 -11.8312 -0.571857
48.8685 -11.4436 -1.97599
24.5308 29.4927 -1.3164
-29.7067 20.3079 -1.2475
-33.3811 -18.7186 -1.24329
-14.9368 -37.2281 -1.2862
17.4893 -13.0481 -0.712407
18.9789 -13.3569 -0.728241
14.835 4.01838 -0.455938
-20.2488 -46.5302 -1.51763
-20.9689 18.6796 -0.803011
-10.2283 -31.0162 -0.876026
47.4613 -10.0825 -1.35944
-37.4566 23.2987 -1.19284
-48.3773 17.396 -1.23105
-20.3749 -33.9791 -0.861008
48.3543 -11.2286 -1.07037
-28.1124 21.2465 -0.705129
-28.5068 9.06746 -0.625565
40.0214 70.0768 -1.4988
-27.5558 20.3377 -0.656768
13.6486 -11.1836 -0.306448
-31.7066 -19.7317 -0.575963
-24.0881 -48.4439 -0.799458
18.5961 -13.4113 -0.333912
-14.8937 1.87819 -0.19467
-10.4311 -31.5374 -0.425362
-13.182 16.7346 -0.218555
-16.5101 -37.9444 -0.445213
33.3282 -20.875 -0.355639
-20.9654 18.7064 -0.191995
-9.44684 -12.1246 -0.0454419
7.52642 -12.5554 -0.0260101
15.1431 7.91925 -0.00248908
-32.5774 -20.1164 0.207479
-20.4497 -34.9514 0.303764
-46.8142 25.6458 0.544774
7.20265 -12.7801 0.150893
8.37586 -9.52348 0.125723
-37.4017 -19.8847 0.46945
-9.80144 -27.7585 0.332711
11.6243 -10.1332 0.201031
-21.3623 18.2536 0.368168
-11.5153 -17.8674 0.311428
-28.4625 20.2543 0.620749
-32.1671 -21.5654 0.697027
-31.5917 -23.3384 0.689527
11.1252 -9.99783 0.242909
8.17748 -10.0801 0.277709
8.26671 -9.64891 0.272945
-61.3212 21.2346 1.51712
19.2921 -14.0045 0.578991
-27.1064 -8.14336 0.759289
-25.6164 20.089 0.935822
-54.1972 20.5224 1.57893
12.1421 -10.403 0.434755
18.0635 -7.83013 0.558865
-22.9794 19.4899 0.895133
-7.63277 -8.9506 0.375334
13.344 14.5081 0.697865
-25.7977 -18.3533 1.0967
6.70444 -13.8142 0.53817
9.28887 -9.1405 0.443925
25.876 -4.58536 0.876516
19.7578 18.8686 0.982625
15.2439 26.3894 1.14206
-80.6803 28.7937 3.14626
-50.5762 16.6248 1.91656
25.68 -4.98869 0.988673
-23.4445 19.152 1.14226
9.78424 -9.30804 0.52063
23.4572 -3.23174 0.892209
12.8392 14.8705 0.801272
15.8346 20.4599 1.05593
-28.8626 -15.882 1.32479
7.05222 -13.371 0.618401
21.7209 50.2101 2.27853
8.1112 -11.6884 0.598026
-7.34436 -7.22967 0.456052
-7.92793 -10.9687 0.606354
-27.8027 -11.0061 1.42663
17.0984 11.0997 1.01305
-7.52128 -6.99822 0.492729
16.7325 25.996 1.59396
-6.74384 -7.93894 0.573639
15.6351 21.4104 1.4497
-24.0883 18.5492 1.67869
15.775 25.6914 1.74266
-6.88797 -8.87957 0.643439
7.44713 -14.7576 0.945935
10.3341 12.9988 0.980582
15.778 20.9631 1.6421
16.6996 29.7219 2.09618
11.9697 33.5705 2.26491
-7.03339 -9.59978 0.762911
10.4408 23.7942 1.74228
11.8261 10.4026 1.12044
11.9345 12.6204 1.22392
14.4761 16.7273 1.58062
8.76381 -13.5088 1.13406
11.0993 9.26513 1.06168
13.5406 15.1873 1.52017
-13.863 8.17545 1.21538
-10.8975 2.05307 0.838186
13.1501 17.1177 1.67303
12.3811 19.7322 1.80706
10.4297 -7.13746 0.98495
-7.44625 -7.87711 0.868423
13.2591 12.0024 1.45662
12.3215 12.0541 1.4288
-6.84781 -6.02514 0.741909
-6.88221 -6.72985 0.799378
-12.9066 1.82744 1.07656
-6.80956 -8.62311 0.948142
11.9296 12.4527 1.48506
9.37412 -7.36612 1.03606
10.9717 9.66504 1.32731
-11.1508 2.85547 1.05692
-7.42721 -6.91807 0.912934
12.0053 9.26337 1.45004
9.62199 13.6067 1.59877
7.53809 13.8705 1.54623
8.79847 13.68 1.62988
-6.58012 -6.55724 0.924414
8.09927 -6.73198 1.02887
10.0674 12.6098 1.6156
10.2608 10.4814 1.51325
-6.74041 -5.2912 0.89243
9.89705 9.42427 1.4553
8.49058 11.5435 1.50075
7.08765 13.7432 1.64674
9.84443 8.59056 1.38132
9.48079 10.5596 1.54444
5.96398 13.1375 1.56134
-6.21213 -7.31627 1.03859
6.94704 11.8237 1.5079
5.53007 13.8567 1.64586
-6.70858 -3.91256 0.857943
-6.54634 -5.94139 0.974946
4.1126 -8.14874 1.00733
5.60114 -6.27501 0.942858
9.58486 7.71605 1.38133
9.338 9.93764 1.53627
8.20985 11.6934 1.59597
9.39901 -7.70553 1.33142
7.01265 11.0672 1.49309
-6.75133 -4.48433 0.919721
4.90762 -8.00608 1.08216
-10.3436 6.93413 1.44334
-6.98652 -2.1019 0.848947
9.19741 6.21313 1.31891
6.14814 12.5484 1.65096
5.19624 12.0171 1.5439
-6.56101 -5.04501 0.999231
4.9068 -6.02615 0.912512
9.11693 9.24506 1.54356
4.30987 -8.26157 1.12974
8.4708 3.92348 1.16852
11.2069 5.58982 1.53745
4.80479 13.3696 1.7688
-6.0327 -5.27808 0.983965
-8.9875 1.28124 1.1308
8.44462 7.72351 1.44695
-6.3069 -5.21243 1.03573
7.98038 8.38185 1.48663
-6.77356 -3.51409 0.988389
5.10959 -6.1357 1.02853
5.1493 -5.56261 0.986202
8.5794 7.05871 1.47026
8.12715 8.0363 1.51937
-7.1013 -1.6994 0.983717
-6.92954 -2.17742 0.973323
-6.37136 -4.29586 1.02139
4.97343 -6.26843 1.06238
8.5519 6.48143 1.45807
-6.72857 -4.14329 1.06529
-5.9427 -4.36659 0.992401
5.07808 -5.68054 1.044
7.55317 -3.58734 1.16194
8.4977 4.31427 1.35208
8.46403 4.65102 1.36885
-6.83363 -2.86251 1.05958
7.62701 -3.80647 1.21525
7.13955 -3.10834 1.09663
5.07633 -5.94667 1.1262
8.32779 -1.76193 1.23096
-6.84828 -3.20576 1.12183
7.51158 5.66016 1.41129
5.87136 7.58042 1.44737
8.1047 3.9714 1.37756
8.02662 4.25675 1.37986
5.55226 7.97273 1.47642
5.21044 8.90042 1.55783
3.62388 9.91323 1.59287
-6.90122 -2.78345 1.1347
7.81715 -2.84364 1.2723
7.97835 -2.27351 1.27843
7.92373 -2.04977 1.26286
7.57156 4.2646 1.39982
7.17108 4.82195 1.41868
6.83911 4.98463 1.40594
5.47482 6.56065 1.42116
-7.10776 -1.34216 1.19756
5.09115 7.47668 1.50911
4.81659 7.372 1.47775
-7.12517 -0.793574 1.20018
2.96884 -6.13957 1.14632
6.78723 4.14168 1.35718
6.60259 5.30372 1.43703
3.92796 8.12927 1.51531
-6.29334 -2.26966 1.13516
-6.19758 -2.64446 1.14938
3.87014 -5.37466 1.12503
-6.87871 -1.77125 1.24125
4.32809 -4.74307 1.12607
6.74837 3.55355 1.37601
5.13277 5.67733 1.39794
3.73064 -5.50417 1.2081
3.42454 6.86724 1.43068
6.57276 3.08428 1.37797
6.50207 2.74554 1.34612
-1.59587 -5.52703 1.10684
-2.10837 -5.59947 1.16875
6.32247 2.40373 1.35062
4.02293 -4.6768 1.22457
-2.93408 5.47485 1.32115
-3.55291 5.10964 1.35342
4.26832 -2.96853 1.22004
4.82126 4.00647 1.47531
-4.21803 3.87372 1.39312
4.64405 -2.21403 1.24679
4.52528 -1.28224 1.16782
3.75973 -2.97527 1.24685
3.72375 -2.61571 1.20532
3.47155 -3.01745 1.23919
-2.28391 -3.55939 1.18906
-2.46663 -2.88909 1.18252
1.89106 -2.51464 1.14012
1.95379 -2.67463 1.20563
-2.0282 2.78182 1.30236
-2.0557 -1.45247 1.18796
-1.80854 -1.81447 1.29156
-1.96264 -1.16367 1.20126
7.01516 -7.02055 -9.01301
9.94806 -9.30079 -9.63318
9.50592 -9.17875 -7.8689
2.43289 -19.7859 -10.5884
3.77186 -9.53477 -4.61874
29.3658 36.4974 -15.7524
2.08112 20.8167 -6.20892
-20.021 -27.8902 -6.41379
-25.7829 -23.9798 -5.42935
9.89746 -9.13135 -1.68251
9.12007 -8.98659 -1.28327
9.28369 -9.15666 -0.96645
20.4394 -14.4724 -1.36945
48.0823 -12.9151 -2.57963
-29.3265 -12.4029 0.323482
10.3221 7.10427 1.32862
-3.42814 5.21449 1.33731
8.14433 -8.40196 -10.491
8.00634 -8.43289 -10.2299
8.56715 -8.65357 -10.078
6.98001 -12.034 -11.4222
8.15535 -8.41606 -9.26427
8.20008 -8.90967 -9.29948
9.74637 -9.09366 -10.0619
6.32578 -14.3726 -11.8084
5.9817 -14.4215 -11.4255
9.3195 -9.05459 -9.51958
7.8132 -9.42272 -8.86539
8.04672 -9.32313 -8.79816
7.3918 -10.9408 -9.38841
10.5359 -9.5875 -9.97907
6.58465 -11.3349 -8.94951
8.39517 -9.31663 -8.40316
7.5266 -9.5594 -8.11456
8.16526 -9.435 -8.19742
5.09343 -16.106 -10.8932
-0.533901 14.2018 -9.12248
7.50261 -11.0718 -8.57252
10.6428 -9.76915 -9.35773
7.80727 -9.36824 -7.79672
11.3445 -10.1181 -9.64446
7.24693 -11.2117 -8.31406
8.41275 -8.82698 -7.56986
0.095175 14.1988 -8.65286
7.95803 -8.94432 -7.20796
11.8853 -10.0869 -9.40053
9.25102 -9.17357 -7.69383
6.75443 -13.1696 -8.72437
5.63536 -14.2545 -9.00228
8.4652 -9.1623 -7.21151
7.25483 -11.4038 -7.75177
5.21599 -13.067 -7.89572
9.14463 -9.28373 -7.30652
3.17828 -19.2963 -10.9643
6.81161 -11.4184 -7.44358
8.0766 -9.30418 -6.90361
12.6474 -10.5907 -9.21858
-0.503374 14.3568 -7.88783
10.0224 -9.81431 -7.68631
13.822 -11.0779 -9.54801
15.6097 10.6943 -10.1746
15.5252 7.62978 -9.25108
14.2814 7.87592 -8.63272
11.8314 -10.2074 -8.0235
-0.0800901 15.3021 -7.74583
2.35233 -19.2172 -9.78205
11.0495 -9.90234 -7.45915
7.57903 -9.56731 -6.11757
14.7424 -11.6904 -9.46748
18.9932 -13.5777 -11.3523
19.3333 5.97016 -9.83704
2.63084 -19.1709 -9.40017
13.348 -11.023 -8.36465
16.1494 -12.2935 -9.83932
7.56343 -11.1414 -6.47912
15.5009 7.59992 -8.04067
7.34091 -11.2837 -6.26788
6.44708 -11.0025 -5.89941
10.2171 -2.56377 -4.84288
18.2927 -13.3632 -10.4024
-11.0968 15.9187 -8.83496
3.63994 -9.26634 -4.50532
-9.62346 15.7208 -8.27371
16.5455 7.48465 -8.13209
-10.5605 16.0559 -8.27876
-6.87167 6.66248 -4.11927
-6.31383 6.29626 -3.79295
1.21717 -15.487 -6.60244
21.2498 22.0245 -12.8596
17.0409 -12.8762 -8.97517
15.6694 7.70186 -7.30253
13.4871 -10.6825 -7.17338
-9.84429 -1.07412 -4.1128
21.3351 23.2322 -12.9686
14.5601 8.04618 -6.77749
16.9923 7.65493 -7.49336
15.518 7.98645 -7.00709
18.2949 16.97 -9.82903
1.4922 -17.7535 -6.95785
19.4103 5.98958 -7.86699
20.7261 23.1402 -12.0304
0.753591 16.3216 -6.28159
-9.04708 -1.31204 -3.54257
3.48914 24.4776 -9.37054
0.690258 -22.7105 -8.65001
17.809 -13.17 -8.27999
14.63 8.17077 -6.06365
0.521777 -21.1272 -7.45763
-3.84878 12.9129 -4.72108
-9.93712 15.2642 -6.36714
-0.76714 -20.7755 -7.32123
-13.9278 17.1825 -7.64113
-8.32892 15.0359 -5.89035
-4.75081 13.5088 -4.82039
17.1164 7.68406 -6.24192
1.27206 17.8577 -5.97176
-5.03527 13.3972 -4.7107
42.8748 -22.0287 -15.906
13.0439 -10.7882 -5.45125
8.32284 -9.53282 -4.05091
15.3408 -12.0064 -6.23654
18.9678 17.5508 -8.0164
7.67356 -9.11174 -3.684
-3.95458 13.2854 -4.16271
12.039 -10.2096 -4.76117
25.5931 32.4954 -12.4813
15.7041 9.88523 -5.32062
14.3278 -11.1873 -5.21238
-5.1308 13.663 -4.10015
-12.4495 16.7044 -5.87222
16.3371 11.0439 -5.43836
49.3715 -15.7969 -13.9901
-8.97253 15.0709 -4.65524
-24.7261 19.1492 -8.1607
-21.9293 18.4193 -7.40258
-6.63499 14.0761 -3.97218
-7.38252 14.3171 -3.92197
-23.8179 18.7953 -7.38805
-3.08961 12.6051 -3.10182
-10.8892 15.7958 -4.57958
3.26955 -10.0248 -2.48896
15.2965 8.16042 -4.09766
-30.0804 -23.6151 -8.97037
5.72251 -12.3297 -3.19699
55.3453 -13.3484 -13.2307
-5.97128 -29.2458 -6.87387
-9.01869 15.1215 -4.01896
15.6056 7.64739 -3.94174
-27.3498 19.8835 -7.50148
-9.90436 -35.466 -8.10146
3.95098 -9.97493 -2.35792
46.9647 -11.9003 -10.4659
-31.617 -20.7657 -8.06345
-13.6542 16.9415 -4.51375
15.1628 8.09946 -3.57509
-29.008 -21.9502 -7.48999
9.69345 -9.5956 -2.82638
47.8764 -12.1716 -10.133
51.1302 -10.8439 -10.5489
-25.8937 19.4348 -6.38139
-18.5862 -30.2155 -6.97892
5.81612 -10.9358 -2.36918
-30.1038 -21.7495 -7.02291
-31.4504 -20.7528 -7.03744
19.568 6.07303 -3.77553
-18.6619 -46.4664 -9.3021
-8.55435 -34.6651 -6.63236
-13.6131 16.9215 -3.94025
14.3356 -11.1628 -3.24607
15.8894 7.7915 -3.12257
-4.83061 12.8828 -2.41542
-17.0272 18.2185 -4.40479
-17.5379 -41.7624 -7.90712
-19.4897 -31.4418 -6.38817
-30.5576 20.7025 -6.25706
9.52328 -9.36696 -2.26533
-28.1423 20.4999 -5.66277
-29.1076 -21.87 -5.81451
-15.9541 -42.4708 -7.25425
47.123 -11.9648 -7.75552
-39.2519 23.1834 -7.17954
-33.5406 -20.9985 -6.13609
6.84852 -11.5581 -2.09545
-26.467 -23.5933 -5.3575
-27.7459 -22.7654 -5.38008
-16.3232 -40.2213 -6.45486
6.9817 -13.3701 -2.24823
-30.0456 -21.6082 -5.29697
-28.2329 -22.225 -5.09917
-29.0593 20.8047 -4.99556
-28.4554 -15.9948 -4.56745
-12.0243 16.2336 -2.74707
-29.7762 -22.2612 -5.03381
-27.3342 -23.5162 -4.89474
-29.1671 -18.1391 -4.50982
-30.6464 -21.1247 -4.90943
-30.1561 20.4542 -4.58935
-27.6419 20.5735 -4.21136
-36.3031 21.4434 -5.17987
13.6108 -11.0049 -2.05172
10.1347 -9.48908 -1.59591
-26.5685 -12.1221 -3.1853
11.0168 -9.63825 -1.61175
-12.0363 16.274 -2.13037
-17.0708 -37.8098 -4.43509
15.9722 -12.2824 -2.15015
-28.0933 -22.2174 -3.63143
51.0061 -10.8408 -5.21445
18.201 -13.2805 -2.21731
46.8621 -12.5956 -4.57741
-25.5893 -52.4971 -5.18054
-21.3566 18.6868 -2.48557
-27.0145 -12.1233 -2.57179
7.38281 -11.3484 -1.18765
18.0976 -13.077 -1.9332
-26.5382 -23.6779 -2.99956
10.2761 -9.33058 -1.14555
14.461 -11.498 -1.48639
-30.8725 20.9308 -2.85162
-27.1259 20.3249 -2.50647
17.7704 -12.9624 -1.60728
-14.3298 -35.1365 -2.72185
7.69429 -9.54588 -0.893631
-20.0453 -46.01 -3.4546
9.99355 -9.41378 -0.911217
9.98223 -4.86107 -0.701431
11.8544 -10.2708 -0.988005
-12.2248 -33.5658 -2.10298
15.7927 7.75749 -0.967238
15.2029 8.14006 -0.941351
12.367 -10.5007 -0.837921
17.9734 -13.4617 -1.07391
-11.5772 15.8596 -0.94498
-28.4352 -50.8063 -2.79364
-21.7346 -43.5164 -2.32939
-22.9585 19.4096 -1.36322
-32.0492 -18.0845 -1.2354
-14.795 -36.6192 -1.31503
-19.5613 -45.2394 -1.42269
-16.879 -45.5319 -1.40542
-46.0553 16.5687 -1.15052
16.2528 14.1806 -0.42068
12.0397 11.7138 -0.318845
26.6188 32.5037 -0.72455
13.9477 -11.4771 -0.333899
-27.7685 -14.7547 -0.483918
-17.8917 -39.2925 -0.704704
-18.6669 5.41064 -0.102576
-26.7986 -51.4373 -0.303887
32.8485 -20.7211 -0.258952
19.8352 -13.7836 -0.0269785
15.3404 7.93831 0.0319933
-47.0228 25.7468 0.336985
-29.3468 -12.3116 0.223824
7.04947 -13.1709 0.16964
11.9417 -10.4352 0.172226
-11.3972 -17.6024 0.279735
27.602 -5.35717 0.794714
26.7335 54.7761 1.9057
-7.56785 -8.92923 0.405582
-28.4801 -13.5776 1.19054
18.2699 32.9675 1.6244
-10.1095 -15.7912 0.794548
15.9343 21.1463 1.2093
22.3506 43.6827 2.21368
19.3315 37.0645 1.95605
7.1025 -13.4478 0.715207
-6.73145 -8.18105 0.545124
17.255 28.5396 1.78052
6.9311 -15.0951 0.858186
8.82321 -7.93666 0.693616
-6.60353 -4.45807 0.471535
-11.2173 -8.56328 0.836341
-7.22821 -9.98047 0.821404
11.3494 9.40253 1.0468
6.83016 -14.1678 1.10137
-6.98272 -6.18699 0.665291
7.50403 -11.4715 0.974034
9.3665 -8.05115 0.904743
13.9519 21.7739 1.98002
-14.4255 8.06317 1.26917
11.3191 -5.06285 0.940964
9.87235 -9.26524 1.07877
10.8721 13.0864 1.53235
-6.54228 -7.31119 0.876441
6.70449 -6.37905 0.855305
11.3929 9.4159 1.38692
6.82961 14.2116 1.5028
10.3911 7.60594 1.25984
4.87211 13.4816 1.40012
10.1751 12.7749 1.64142
7.9206 10.8423 1.3988
6.96226 13.4929 1.61596
8.47181 -6.83745 1.14242
10.4735 9.9051 1.53883
7.40265 11.1684 1.44132
9.0816 9.65018 1.49708
4.8818 -6.02651 0.871363
10.1383 5.59128 1.32072
7.32356 11.6319 1.60161
6.17384 11.0896 1.50298
-6.91423 -2.06372 0.837818
8.72022 8.86111 1.47265
-7.08472 -0.805434 0.853063
-6.74917 -3.89043 0.926521
4.69005 12.9538 1.67725
-6.9164 -2.29424 0.878179
-7.34048 -0.971298 0.910769
-8.996 1.31596 1.13594
8.56121 7.81581 1.47076
4.96744 -5.4029 0.956419
7.97964 8.42535 1.52545
5.86377 -5.73269 1.05841
-7.11534 -4.4176 1.13103
7.41804 -3.9522 1.16402
7.61833 -3.61243 1.174
7.61618 -3.33539 1.15938
8.29921 4.22137 1.32904
7.57812 -3.78349 1.20783
8.5045 4.67231 1.38769
7.85976 -3.07971 1.22282
8.06736 -1.95463 1.19199
5.84796 7.55981 1.44072
5.34774 -5.76317 1.20166
-7.02957 -1.8003 1.13647
-7.07472 -1.30955 1.14417
6.22019 4.52397 1.27601
5.40859 6.49873 1.3993
-6.31641 -2.28021 1.12107
6.93498 4.26144 1.38351
-7.22225 -0.94226 1.235
3.08418 -6.36835 1.18792
-6.85778 -1.74058 1.24361
4.09621 -5.23481 1.154
-6.66309 -2.54228 1.2618
4.80482 -4.57149 1.17299
3.64708 -5.37525 1.18958
5.10753 5.65255 1.39107
-7.13881 -1.13993 1.31937
3.94344 -5.35454 1.23583
-6.95195 -0.797436 1.32726
6.41724 2.87092 1.35117
3.77389 -4.67139 1.15796
-2.189 -5.23237 1.14146
5.0869 -6.62361 1.64213
3.89079 -4.51193 1.17665
4.24252 -4.41418 1.25147
-6.32734 1.45977 1.34649
-2.83796 4.74965 1.15776
-1.30226 -4.84419 1.11437
4.10818 -3.82439 1.2409
4.52516 -2.79541 1.22849
-4.39698 3.86998 1.36001
4.85917 -1.9627 1.25931
-2.68755 4.61769 1.25727
4.40084 -2.71461 1.2455
-0.991952 -4.12019 1.14266
-1.39621 -3.92213 1.15734
-2.11199 -3.7517 1.19739
4.0369 2.57983 1.34382
1.86839 -3.2201 1.2318
-2.0215 -2.40503 1.25982
2.59836 -1.83042 1.32964
2.49467 -1.93141 1.33058
-2.14991 -1.76305 1.20311
2.37756 -1.30876 1.20183
-1.98858 -1.47763 1.1939
