ply
format ascii 1.0 
element vertex 1873
comment /media/mkaihara/Seagate Backup Plus Drive/model_iterations/model_14.ply
property float32 x 
property float32 y 
property float32 z 
end_header 
-31.793 21.553 -1.84564
-13.9232 -35.69 -1.81978
-11.8652 -38.5908 -1.90433
19.6837 -13.9661 -1.15641
-14.0975 -40.8865 -2.01635
39.4477 -9.68882 -1.90427
-27.1897 -13.9032 -1.36553
-19.9702 -45.7602 -2.21216
-14.1824 -34.8956 -1.67562
9.96894 -9.40735 -0.611117
13.0775 -10.734 -0.759291
48.1679 -11.0218 -2.19845
-11.7635 -35.7846 -1.60226
-29.9396 21.1654 -1.52754
-47.4452 25.768 -2.154
-30.8684 21.2438 -1.37563
-15.6054 -40.8104 -1.63787
-32.016 -20.1609 -1.35077
10.0573 -9.35991 -0.505218
6.91527 -11.3398 -0.460567
-11.1036 -33.1019 -1.15408
7.91589 -13.8949 -0.545538
19.5664 -13.8587 -0.80973
-21.7736 -47.6892 -1.72297
-11.4584 -32.5089 -1.11515
22.8844 26.3941 -1.12767
-21.387 18.9875 -0.90161
-19.1702 -48.0292 -1.65177
-37.8882 -72.2643 -2.52593
-17.1294 -43.865 -1.45744
22.2325 -15.1615 -0.817878
-26.0898 -13.4261 -0.888425
-10.8657 -34.7751 -1.08121
-22.2847 18.9359 -0.840894
-19.4953 -44.8668 -1.38821
-14.564 -39.4175 -1.20956
23.6546 -10.6452 -0.783322
-31.9416 -19.4621 -1.03281
-9.40695 -12.342 -0.442822
-18.8541 -44.4643 -1.35996
18.9563 -14.1222 -0.601645
36.6564 61.1768 -1.86001
-27.5523 21.0227 -0.89203
-28.6062 20.9239 -0.877561
-25.7709 -12.3826 -0.699697
9.86799 -9.28633 -0.328188
-18.7278 -30.1652 -0.825508
-37.1448 12.8851 -0.860148
22.4381 -15.0138 -0.5732
-47.9529 17.2955 -0.941443
19.3886 -13.9784 -0.448475
13.3064 -10.9318 -0.287112
-6.61767 14.3254 -0.276961
-31.0557 9.82159 -0.538995
-26.7303 -12.7289 -0.4676
-34.2646 -19.5133 -0.596987
-15.3569 -37.6473 -0.625505
-7.1849 15.1113 -0.228218
-30.0375 -22.4388 -0.517618
-13.5636 -38.5988 -0.557154
-31.328 -21.3565 -0.483085
-27.5835 -55.7343 -0.764526
18.1513 -13.5428 -0.274883
19.1539 -13.7909 -0.2994
31.1497 -19.2081 -0.488263
-17.4148 -44.6038 -0.576214
-27.7111 21.1278 -0.373152
-34.7073 -19.4011 -0.436967
-22.7191 -48.4804 -0.564783
-15.9577 -36.6018 -0.423688
-47.1791 25.8564 -0.44904
-27.9054 -49.2272 -0.515889
-16.4444 -43.1301 -0.433783
40.2742 -9.73011 -0.38202
-13.2823 16.8595 -0.152302
-27.0085 -60.146 -0.444
-15.2628 -37.0207 -0.268627
-23.0089 -44.3464 -0.246694
-27.8167 -8.64975 -0.167863
9.87734 -9.29444 -0.0426528
13.6462 15.6178 -0.0458124
15.255 8.03076 -0.0316588
-27.7693 -12.388 -0.0537872
-26.5291 -19.4076 0.0085066
-11.0784 -16.1303 0.0251603
-27.4953 -8.31903 0.0756227
-12.1125 -18.2316 0.0433332
-16.0022 -36.7335 0.170109
9.73778 -9.27129 0.0607781
-29.9797 21.2173 0.188934
-17.7328 -44.7677 0.2393
-28.4507 -13.2044 0.18976
17.6181 -12.8551 0.121496
-12.311 -18.8762 0.148915
15.3286 -11.9407 0.15242
-47.8981 17.1616 0.449167
7.47266 -12.8401 0.124218
16.7041 -12.3782 0.176017
-33.6879 -20.3855 0.415597
41.0177 -8.43084 0.434514
-32.6516 -20.4619 0.441466
-10.9549 -30.259 0.379742
-11.3945 -30.6437 0.400354
-9.83209 -28.3139 0.368606
-8.48622 -26.2581 0.337595
31.9502 64.6955 0.93099
9.89006 -9.30258 0.174937
-12.022 -18.6293 0.303861
-9.47638 -28.7676 0.419037
8.81973 -8.7618 0.187833
6.70471 -13.7169 0.2216
7.47149 -11.5134 0.208884
9.63952 -9.34497 0.193295
8.28766 -9.4039 0.199834
10.0294 -9.28673 0.224513
40.4268 -8.66166 0.676849
-22.1687 19.0115 0.520905
-30.7877 -20.7139 0.64112
-31.764 -23.3048 0.692974
13.4021 -11.01 0.283585
13.7314 -11.0756 0.329956
-9.54091 -12.0972 0.291841
7.15223 -11.722 0.267016
8.25335 -9.69999 0.249759
32.6681 67.2227 1.48958
7.29108 -11.4605 0.272351
9.45213 -8.94352 0.275763
11.9277 -10.2523 0.343978
17.8449 -7.97059 0.392552
7.529 -11.4235 0.308885
-9.09956 -11.7471 0.376853
-12.0372 -18.4788 0.529024
7.89908 -9.61708 0.282782
8.09083 -9.67589 0.292104
-23.7232 19.9396 0.802476
-27.4733 -8.81009 0.724968
9.91627 -9.22665 0.347705
18.3229 -13.3855 0.571375
19.2298 -13.8468 0.588645
-21.3637 18.7049 0.73737
-25.6091 20.2399 0.849652
-27.4954 -8.25216 0.752447
-30.9969 -16.5275 0.956182
-12.553 -18.9561 0.606592
15.3686 -11.9415 0.518589
23.6199 -3.43678 0.670288
-25.9708 -18.4721 0.907851
-11.499 -17.9307 0.618427
26.0664 -4.93815 0.770802
17.7835 27.5987 0.980414
-26.226 -19.3202 0.96637
7.56015 -11.8427 0.420948
7.26424 -11.1556 0.404545
15.9749 26.0238 0.934126
-7.42202 -8.57639 0.347309
13.5195 -11.0626 0.53267
-7.11124 -9.24275 0.357782
-27.1723 -7.66938 0.940435
-11.271 -16.4759 0.670485
8.13028 -9.65731 0.416877
16.7464 11.4414 0.724118
11.2099 -9.76112 0.539154
12.307 -10.3983 0.586245
27.2545 54.882 2.29613
-58.3807 21.3165 2.31098
-7.26773 -7.93467 0.402611
9.94395 -9.23097 0.505705
23.6927 -3.3266 0.917065
33.155 68.5397 2.94193
-7.22532 -9.59028 0.470425
10.768 -9.82101 0.570859
13.1945 -10.8976 0.690542
22.3402 -2.73807 0.916198
14.5996 19.8292 1.04589
-27.4011 -16.6236 1.31272
-11.9142 -18.9225 0.948134
8.99506 -8.9547 0.52369
-6.74788 -8.2509 0.458708
9.72148 -9.19632 0.558578
13.2492 15.2093 0.888623
-27.4752 -8.06339 1.25929
15.6327 20.3617 1.15117
16.4154 28.264 1.45349
25.3453 49.8411 2.46861
6.64374 -14.8027 0.721621
11.196 -9.82249 0.672684
19.0377 -1.68963 0.873018
22.2409 42.348 2.23982
16.3842 28.8682 1.55355
-10.9584 2.71816 0.542698
-7.03528 -9.27338 0.562139
9.4452 -9.25764 0.625456
11.7396 -9.00689 0.692011
20.7737 -2.38068 1.00587
12.0522 12.2828 0.852658
18.8522 45.3386 2.4107
7.95792 -9.42807 0.594698
8.01787 -9.77208 0.621163
10.5046 -9.56741 0.702665
15.8419 26.8637 1.55906
23.1655 44.9236 2.56207
21.7321 -2.70733 1.11218
-7.21909 -8.29388 0.571075
9.66821 -9.20532 0.694163
18.0745 26.5052 1.68268
18.3305 33.2313 1.97801
13.4924 -11.1214 0.928027
10.9551 12.8065 0.899535
15.1006 20.4979 1.36538
11.4379 -9.91797 0.81762
15.9441 20.7737 1.44189
-24.4221 18.7215 1.67867
-6.7999 -7.97778 0.5805
10.6423 12.8664 0.933327
-7.06014 -9.11431 0.646551
10.3742 12.9234 0.959425
-25.7985 18.1635 1.78874
6.49759 -13.7217 0.867323
11.5932 12.5325 0.979468
-6.74379 -6.65564 0.549844
11.6854 12.4607 1.0041
-6.63937 -8.20426 0.632342
6.62524 -13.3171 0.86728
15.5553 20.6966 1.55465
15.2417 24.9201 1.74041
15.1328 34.9737 2.28495
-5.98784 6.37761 0.535298
-7.98039 -7.56181 0.665524
-6.94663 -7.96913 0.649892
6.08193 -13.226 0.878267
-7.32742 -6.74629 0.619996
7.31902 -11.6611 0.849851
7.27209 -10.9902 0.821145
11.7186 -10.1156 0.955012
12.5532 -10.5014 1.01315
16.7099 7.40043 1.16269
15.801 20.4692 1.63392
-7.0993 -6.18708 0.611053
10.5909 -9.67294 0.924579
-7.23842 -6.14082 0.62293
11.901 12.5579 1.1772
10.3535 23.3079 1.73527
-7.06571 -9.37922 0.785561
12.0835 13.1057 1.2212
-6.85064 -4.39019 0.559597
-6.5911 -8.00526 0.707864
-6.6012 -4.36853 0.545916
9.55072 -9.13113 0.918743
10.2671 -8.05531 0.918188
13.3473 16.8224 1.55096
-6.54262 -6.53551 0.642894
10.0877 -8.51867 0.964351
12.1055 18.1007 1.63551
12.0857 19.2682 1.69754
10.2227 19.457 1.65616
9.68641 20.9339 1.73372
8.08728 24.1044 1.91083
11.459 19.779 1.74005
10.2777 -7.79784 0.98531
-6.88062 -7.03835 0.75474
-16.672 -6.04699 1.38722
9.72057 -7.8805 0.979821
9.97137 19.916 1.7568
-6.29119 -4.20073 0.599641
-6.66729 -8.02455 0.827864
4.927 -5.84255 0.60656
9.70525 21.3526 1.85935
8.36511 20.4532 1.77604
5.12489 -5.90649 0.628954
13.237 11.9444 1.44316
12.208 12.2628 1.41539
6.964 -9.71497 0.970141
12.6773 12.1255 1.44049
7.27569 21.3593 1.84672
-6.26666 -4.32602 0.620532
-6.96332 -9.21612 0.949199
11.9758 12.5466 1.43361
10.7714 9.423 1.21727
-4.84089 -11.0454 1.02072
5.47997 -5.88256 0.713692
6.24923 -6.16765 0.765294
9.44394 -7.35712 1.02846
-6.66408 -6.56391 0.795139
10.8302 12.8348 1.46472
9.01477 -7.51154 1.01884
11.2348 12.6647 1.4803
-7.14616 -7.59096 0.914705
8.39054 -7.46963 0.996211
10.6036 12.9607 1.50419
-6.91439 -7.56991 0.909762
-6.77106 -8.1398 0.951128
11.003 12.7902 1.53078
10.9495 14.1242 1.61793
-6.94582 -8.12816 0.974833
11.5954 11.2003 1.48153
-6.22728 -4.17274 0.689218
-6.69066 -8.37999 0.982096
-6.23916 -4.33242 0.700143
11.3887 8.789 1.34865
10.9517 9.60079 1.35668
6.89018 16.3679 1.67002
11.4409 11.3744 1.50449
10.876 11.7005 1.51039
-11.0026 2.81949 1.07199
6.27916 -6.08305 0.832315
8.18455 -6.785 1.01993
11.0522 9.46428 1.41131
9.90602 13.0343 1.58417
10.0935 12.9532 1.61685
7.97892 12.7607 1.49422
8.26683 13.8198 1.60225
11.5248 8.27592 1.44478
7.45406 13.2644 1.53498
9.38373 11.7597 1.52986
7.33965 14.2096 1.63634
6.19572 14.7225 1.63973
9.49721 10.8273 1.48755
9.3882 12.79 1.64761
11.6857 7.85798 1.4678
9.53848 10.3155 1.46178
5.07091 -5.93371 0.836672
-6.74309 -4.58615 0.860299
5.89565 14.6888 1.68012
-6.95306 -4.43898 0.879794
9.22639 11.0552 1.54516
-6.63478 -6.64438 1.00501
6.02312 -5.94486 0.912923
9.95145 8.76167 1.42809
9.22058 9.63064 1.43305
9.5545 10.651 1.55041
5.08001 14.7236 1.6815
4.38025 -8.3295 1.01749
6.7037 11.2153 1.43735
-6.70766 -3.87078 0.852385
6.61648 12.4062 1.55974
-6.80007 -3.80975 0.86344
9.94134 7.37635 1.38325
6.93021 11.8277 1.52632
10.0356 7.19539 1.38619
5.67317 12.0943 1.51044
5.69462 12.6628 1.56824
4.94435 12.868 1.56009
10.059 6.83684 1.38506
-6.78938 -4.49576 0.932689
7.55992 -6.35863 1.12477
-7.24223 -0.77594 0.834516
-6.17557 -5.30528 0.937966
5.34566 -5.67019 0.897963
9.09837 8.08861 1.41738
4.53955 -7.37994 1.00202
10.6303 5.26267 1.38799
9.18244 7.9882 1.42975
5.29741 -5.71601 0.919453
8.81852 8.11732 1.4213
9.1549 9.31361 1.52707
-6.92805 -5.55509 1.05112
10.3425 4.84286 1.35956
-6.82347 -3.79876 0.940958
9.33483 6.27522 1.36322
5.44219 11.9295 1.58968
-6.80539 -3.02648 0.90478
-6.78867 -3.2095 0.907924
4.97986 -6.0729 0.957204
6.09621 -6.2543 1.06206
9.56559 5.73756 1.37788
8.65958 7.39301 1.40691
-6.84991 -4.24819 0.993009
-6.78026 -4.46806 1.00093
8.48283 8.81831 1.51731
5.25601 11.8208 1.60665
-6.44252 -5.52541 1.05669
3.82942 -7.81926 1.08291
8.71353 7.93432 1.47377
6.19087 -5.7216 1.05565
9.36086 6.18937 1.42117
-6.03864 -5.3285 1.0166
8.73634 6.75847 1.40771
8.28184 7.68935 1.4368
-7.01532 -1.76136 0.92472
-6.92773 -2.27777 0.931037
-6.3443 -5.23528 1.04982
9.0058 5.77369 1.37048
8.36334 8.25102 1.51347
-7.17546 -1.238 0.93318
-6.80069 -4.06088 1.02412
7.58097 6.34611 1.27967
8.26161 7.20066 1.42028
8.1741 8.33453 1.51205
-6.82375 -2.79075 0.959603
-6.82407 -2.92849 0.959875
4.73148 10.4784 1.51126
9.15479 4.18268 1.32384
-7.15884 -1.58641 0.963177
6.94478 -4.32456 1.08617
5.02604 -6.06112 1.04252
-7.2433 -1.10342 0.980205
-6.92865 -2.17247 0.971003
-6.96455 -2.24063 0.977111
-5.91366 -4.3386 0.980361
5.30396 -6.71044 1.13843
7.01598 -4.23977 1.10248
8.25875 7.33476 1.49564
-7.06433 -1.69728 0.976336
-6.99639 -1.93185 0.975844
8.95575 4.94431 1.3885
8.49799 5.99017 1.41277
-6.82812 -3.57043 1.04995
9.02112 4.23386 1.36591
3.51112 11.0367 1.58669
-7.22314 -1.18519 1.00148
-5.92819 -4.38092 1.01398
-5.90791 -4.4776 1.01506
7.25579 -3.9934 1.13722
8.24273 6.62312 1.46163
5.52442 9.33749 1.50231
-6.29424 -4.26189 1.04225
5.02277 -5.6261 1.04635
7.29303 -3.88705 1.14905
7.67467 -3.74234 1.18033
3.77801 10.4822 1.55237
3.5971 10.8248 1.59139
-7.27834 -1.06873 1.02648
-6.98726 -1.97927 1.01168
5.05808 -5.37851 1.03082
7.35494 -3.79332 1.1615
7.47334 -3.72716 1.18335
7.99217 -3.40747 1.23403
-7.06685 -1.85164 1.03859
-6.918 -2.90794 1.08737
-5.92677 -4.31434 1.05453
8.02135 -2.82309 1.2431
8.37727 4.70189 1.40665
5.14301 8.81065 1.4953
8.51669 4.5863 1.42878
7.94065 -2.37362 1.22066
7.2812 5.79623 1.393
3.09301 9.87476 1.54847
-7.00666 -1.99463 1.09151
7.59285 -3.1549 1.23844
8.37255 4.62715 1.44923
5.92721 7.62289 1.46602
5.42701 7.8295 1.45154
5.26667 8.15996 1.4752
5.22179 8.27626 1.4811
7.43963 -3.21544 1.23679
7.7903 -2.79586 1.25933
-6.67789 -1.66327 1.03619
7.94236 -2.28865 1.26645
7.36882 5.52655 1.41373
-7.01625 -1.92838 1.12884
-6.83267 -2.75072 1.14467
6.9407 5.62976 1.40121
-7.26458 -1.08217 1.1467
-7.05657 -1.80171 1.14027
-6.96014 -2.04212 1.13623
-7.03362 -1.84947 1.14095
-6.80741 -2.89691 1.16131
4.93486 7.65197 1.44812
3.52112 -6.16163 1.13138
-7.18659 -1.28344 1.16902
3.59802 -5.81986 1.10055
3.63346 -5.72 1.08913
7.19967 4.85308 1.41421
4.78406 7.57203 1.45784
-6.98448 -1.99866 1.18368
-7.00633 -1.92307 1.19191
7.09361 4.91551 1.4267
3.93851 8.1826 1.50409
6.13133 -3.36196 1.16372
6.75421 4.96184 1.39682
4.78191 7.34994 1.46281
3.90258 -5.39127 1.11705
7.23121 4.50296 1.43372
7.59007 2.90232 1.37252
6.44096 5.38443 1.4224
-7.19022 -1.24035 1.24206
6.86551 4.15089 1.3772
-6.37402 -2.73891 1.18362
5.57973 -3.67576 1.14664
5.76338 -3.56327 1.16224
2.85477 8.13748 1.49219
-7.28195 -1.02671 1.27444
5.4022 -3.83171 1.15335
-6.24012 -2.23427 1.14908
-6.20052 -2.38938 1.16331
4.34286 -4.73145 1.12171
4.5564 -4.53893 1.12684
4.65531 -4.51027 1.13584
-6.72208 -1.71241 1.22161
4.43484 6.65379 1.42662
-7.07441 -0.917202 1.2746
-6.0768 -2.23296 1.15294
6.74439 3.75033 1.38274
6.2016 4.43453 1.38239
3.67116 -5.41873 1.18863
5.25132 5.79977 1.43093
2.59907 7.43962 1.48171
6.5787 3.09628 1.37413
-1.67164 -5.66675 1.11972
6.49884 -1.40143 1.26044
6.35913 2.81601 1.33836
6.29917 2.41249 1.34514
-4.39353 3.88718 1.37679
4.38126 3.58038 1.3532
4.26206 3.33219 1.33918
4.70205 -1.69081 1.25378
4.85694 -1.39171 1.26305
-2.10616 4.71471 1.28624
3.75794 -2.9771 1.23137
3.69947 -2.56745 1.20112
3.43288 -2.98406 1.23406
4.04225 2.5939 1.34203
-2.57099 -3.50227 1.23985
-2.30499 -3.53843 1.20563
3.78451 2.07416 1.31187
3.76024 1.9955 1.31104
-2.81414 3.44917 1.37039
-2.28266 -2.40472 1.18002
1.96434 -2.79262 1.21706
-2.10987 2.74739 1.31307
-2.01611 2.7362 1.3195
2.25774 -1.87495 1.22826
2.38699 -1.50213 1.22514
-2.00751 1.86789 1.28802
-2.0563 -1.43709 1.22286
1.45161 -2.07197 1.24636
-1.98569 -1.08388 1.20945
-1.91936 -0.705454 1.21534
-1.92108 -0.701247 1.24084
-1.95049 -0.343361 1.22426
-1.88772 -0.563006 1.22532
-1.88738 -0.529331 1.2304
8.39649 -8.88274 -7.61971
12.4805 -10.5858 -9.05165
-8.33485 14.8682 -6.60621
21.8534 26.6219 -12.3875
-8.66552 -2.48168 -2.54033
-22.5618 -57.2271 -13.4571
-31.9095 -21.3157 -7.0894
-31.5972 -20.6636 -5.57056
-31.3166 -21.2821 -5.62294
-29.141 -18.6892 -2.60241
9.58046 -9.1253 -0.404426
-7.02798 15.1495 -0.412432
-27.917 -10.8028 0.690945
-6.75363 -8.07184 0.450105
18.0764 25.9574 1.71576
12.0062 16.8854 1.71225
-6.56866 -6.54248 0.86741
4.46475 12.9566 1.57984
8.98774 9.36203 1.51714
8.11735 -8.91832 -10.5596
8.28535 -8.19152 -10.0876
9.00036 -8.69817 -10.6898
7.07922 -12.1334 -11.7003
6.99346 -11.5378 -11.073
8.30413 -8.41448 -9.70292
7.13928 -12.2158 -11.4997
7.19468 -11.162 -10.6334
8.15463 -8.53325 -9.37204
8.25017 -8.25816 -9.22558
6.85041 -11.4789 -10.4628
6.56138 -11.8942 -10.3821
7.90705 -9.01645 -9.1375
6.31352 -14.5416 -11.9907
8.46693 -8.87328 -9.27872
6.41306 -12.1083 -10.3425
6.25258 -12.2787 -10.2694
7.64516 -9.63367 -9.17727
8.06307 -9.22666 -9.09237
10.7296 -9.68321 -10.7435
6.21339 -14.3047 -11.5224
6.18297 -13.8279 -11.1323
6.2377 -12.7774 -10.4525
9.40117 -9.01878 -9.5518
9.49155 -9.27115 -9.672
5.96764 -12.7062 -10.1921
9.56909 -9.18605 -9.46165
7.00701 -11.3515 -9.46137
5.71138 -13.1703 -10.155
9.92389 -9.2953 -9.63103
7.76458 -9.52962 -8.6376
10.2398 -9.40641 -9.76313
11.1865 -9.72385 -10.3952
11.7475 -9.95553 -10.336
8.56209 -8.78638 -8.118
7.59141 -9.49459 -8.02714
8.34795 -8.90752 -8.0645
12.4962 -10.7074 -10.7632
7.79467 -9.55117 -8.06062
8.00841 -9.60271 -8.00914
8.50242 -8.71854 -7.78062
0.341349 15.7866 -10.0761
7.69509 -9.52656 -7.7883
11.1999 -9.85873 -9.4818
7.39926 -10.9511 -8.35897
8.33378 -8.68017 -7.58444
4.67144 -15.5612 -10.2143
8.89563 -8.87838 -7.77213
9.08142 -8.86794 -7.83933
8.09557 -9.22674 -7.56702
4.08891 -18.1343 -11.4477
8.37733 -8.81299 -7.42933
4.11138 -17.3546 -10.8806
0.129277 14.7884 -8.99943
6.81128 -11.5178 -8.14105
7.91159 -9.4654 -7.48072
10.4032 -9.56553 -8.57019
6.97949 -11.5035 -8.07201
8.24488 -9.41072 -7.50572
11.5871 -9.96805 -9.13338
5.50558 -14.1009 -8.9727
7.91011 -9.47138 -7.3136
9.57709 -9.24873 -7.8848
7.06776 -11.3726 -7.91929
8.16541 -9.33193 -7.27155
10.0037 -9.42108 -8.00379
15.2641 7.62876 -9.91705
8.87871 -9.04363 -7.3188
7.09712 -11.2154 -7.62251
2.68308 -11.3621 -6.71044
8.04165 -9.27744 -7.02736
7.58377 -9.02578 -6.68891
9.85551 -9.37586 -7.72254
11.0825 -9.74721 -8.32141
0.114413 15.2376 -8.59594
3.26973 -20.4284 -11.6349
6.95639 -11.2236 -7.39761
10.3751 -9.53598 -7.88714
12.7366 -10.6851 -9.31772
9.47037 -9.2288 -7.38483
4.70845 -14.5484 -8.5198
8.2013 -9.44011 -6.94057
15.1881 7.76639 -9.37167
9.95068 -9.34234 -7.49174
0.817276 17.4314 -9.53216
2.72511 -19.6173 -10.8009
11.4435 -9.91398 -8.21619
4.3349 -14.7336 -8.30749
15.0967 7.89648 -9.18335
15.553 10.741 -10.1566
14.4056 7.94882 -8.79777
11.2626 -9.8895 -7.96586
13.7135 -11.1653 -9.40163
3.02668 -19.1205 -10.1779
11.6899 -10.1117 -7.86015
2.15808 -20.1259 -10.2176
10.5584 -9.61107 -7.17518
14.763 -11.674 -9.44457
14.3041 -11.5678 -9.20405
11.3395 -9.94422 -7.50957
7.69951 -9.57155 -6.07896
3.62662 -8.60868 -4.60032
-8.56512 -1.88056 -4.31157
2.19875 -19.7888 -9.76814
4.60731 -9.44282 -5.13543
0.38867 13.6308 -6.67747
7.7995 -9.50004 -5.99378
-8.13258 15.5021 -8.4697
-9.04779 -2.39187 -4.50961
15.5662 -12.0189 -9.44539
20.03 5.73149 -9.96811
-10.1231 -2.50634 -4.93295
1.90054 -20.2797 -9.68667
17.9443 16.8687 -11.6756
1.99008 -16.7368 -7.95046
7.79985 -11.5245 -6.56102
20.7267 5.5949 -10.1148
14.5136 -11.4882 -8.60297
2.97889 -17.5452 -8.27119
20.0155 5.92252 -9.64783
18.6193 -13.5669 -10.6357
10.0287 -2.53322 -4.7797
20.9968 5.32222 -9.99834
18.0854 17.0127 -11.4526
1.79263 -19.8481 -9.12301
9.92678 -9.28013 -6.21896
-9.06069 -1.64459 -4.19981
9.61171 -3.5269 -4.66297
6.9154 -11.6502 -6.1568
10.0787 -2.66223 -4.72871
20.7981 20.1199 -13.053
19.9061 6.07035 -9.37402
18.5517 18.4076 -11.7604
9.52196 -3.13674 -4.51273
16.0548 -12.3527 -9.0852
7.25307 -11.9092 -6.2314
7.35183 -11.2162 -5.97284
9.72107 -3.46243 -4.59856
-9.57239 15.6751 -8.16911
18.429 -13.4479 -10.1321
20.2066 5.82136 -9.32513
16.5968 7.52885 -8.07585
18.6777 18.8722 -11.7548
12.6459 -10.6697 -7.27177
17.0977 -12.714 -9.38554
-10.6764 16.2248 -8.52772
-6.28695 14.3473 -6.85983
-5.14612 4.82542 -3.07124
20.844 5.65985 -9.39461
9.72017 -3.46277 -4.45315
19.1226 19.3884 -11.7165
16.4623 -12.6667 -8.93292
15.2898 7.64592 -7.30139
3.92691 -9.50522 -4.36562
-10.6232 16.146 -8.17366
7.14691 -11.2181 -5.60388
-13.2365 3.24381 -5.74018
0.737815 -21.7116 -9.15888
16.4115 -12.4235 -8.60349
-5.06476 5.57517 -3.14847
0.984611 -21.5589 -9.05099
1.22923 -20.4608 -8.58855
14.5663 7.81356 -6.91927
19.5156 20.3447 -11.7914
3.86558 -9.14078 -4.13513
15.2008 7.95571 -7.14723
18.8247 20.1125 -11.4443
-9.35478 -1.07363 -3.88693
4.08042 -8.64858 -3.91523
14.4313 7.96981 -6.77325
7.04841 -11.3086 -5.44303
-13.2851 2.48162 -5.52738
-7.59851 14.7064 -6.71852
20.3506 22.1206 -12.1904
15.5173 7.45694 -6.94188
-5.06999 13.82 -5.89487
14.4778 -11.4449 -7.22422
4.0553 -9.35262 -3.99725
1.53897 19.5605 -7.6275
-8.32691 15.0269 -6.66798
19.6366 5.98894 -7.95888
-1.71833 12.92 -5.04449
5.43461 -9.6345 -4.26199
-2.32637 13.0993 -5.10563
20.7904 24.0591 -12.2065
4.76561 -8.7016 -3.76462
20.0922 5.76438 -7.95836
0.842566 -24.9216 -9.48491
15.499 -11.9425 -7.35925
20.6845 5.60421 -8.02497
9.60386 -3.49908 -3.8216
0.517229 -21.3341 -7.96124
3.34996 -11.1122 -4.33103
21.4715 24.9894 -12.2493
0.90622 -8.62934 -3.2194
14.5525 -11.5234 -6.84073
21.1203 5.37204 -8.01688
6.57746 -10.4491 -4.51516
18.7895 18.571 -9.665
-12.7288 2.22999 -4.69723
22.2467 26.5761 -12.5849
2.33832 -13.4992 -4.93218
13.4975 -10.914 -6.24247
0.78561 15.5329 -5.56905
-8.07693 -2.7563 -3.05304
0.403826 -20.7171 -7.41403
-4.04239 13.2365 -4.91581
0.626639 -20.9857 -7.46641
16.5265 -12.4808 -7.33603
-14.83 17.1403 -7.98023
6.0934 -11.6435 -4.6167
-10.4424 15.7512 -6.59302
0.101719 -17.6623 -6.21489
14.8043 -11.7311 -6.60096
21.0735 5.5503 -7.61051
0.642072 -21.9254 -7.58125
-9.28347 -1.19122 -3.19816
-4.78106 13.8548 -5.01424
3.72941 -8.6498 -3.2392
5.00123 -9.25812 -3.60257
-13.6774 16.9759 -7.45454
2.31522 -11.0421 -3.864
-8.4224 15.2685 -5.93629
3.14369 -14.1823 -4.94673
-14.124 17.3303 -7.57179
20.8863 5.67898 -7.27918
23.7828 29.4297 -12.6622
39.1432 -22.0947 -15.0133
-5.05283 13.3831 -4.74364
1.93862 21.2134 -7.07595
1.2737 -10.2379 -3.41113
20.1163 -14.6216 -8.25441
35.1051 -22.0672 -13.6286
-5.00682 13.7647 -4.75017
-11.8903 16.2727 -6.53086
19.488 -13.8866 -7.76638
3.63364 -8.84208 -3.06251
6.4073 -10.4126 -3.91453
12.7646 -10.4031 -5.28688
2.34542 -11.1221 -3.61551
-4.0716 -30.6999 -9.85545
-1.04089 -22.0933 -7.04949
15.5502 10.7106 -5.96522
-12.469 16.5872 -6.55222
-16.8678 18.1904 -7.7914
3.11797 -10.0443 -3.313
13.7477 -10.8401 -5.50579
7.20921 -11.4844 -4.18789
1.3446 -20.9924 -6.51161
-2.33393 -25.0009 -7.71787
7.61393 35.2777 -11.0289
0.760138 15.1064 -4.59801
-10.5078 15.849 -5.72462
-2.43598 -24.033 -7.28566
-13.5088 16.8863 -6.4459
-4.7523 -31.263 -9.42628
0.797188 -23.3111 -6.9819
-5.10764 14.0285 -4.4336
2.11024 21.1803 -6.27866
-19.9052 18.5577 -8.02291
18.8207 5.98948 -5.81755
-4.08987 13.7073 -4.19927
-7.50234 14.5457 -4.79493
4.38575 -9.41628 -3.0496
4.80441 -12.0252 -3.7819
20.6233 -14.7398 -7.46827
-12.3285 2.17191 -3.59725
-28.871 -40.9008 -14.4143
5.31557 -14.1699 -4.35233
-14.2985 17.1975 -6.42315
7.22865 -11.5097 -3.90855
2.62746 -9.76249 -2.86977
13.3979 -10.8435 -4.90231
-8.32219 -2.422 -2.45808
22.6786 29.2587 -10.5025
-8.44688 -2.22627 -2.46876
-2.27567 -23.3256 -6.58856
-12.7203 1.9493 -3.58319
51.779 -16.6546 -15.1301
4.56457 -11.7742 -3.50021
-8.78452 15.1009 -4.78986
-12.2978 16.3977 -5.62382
-5.09939 13.5933 -3.96135
-7.37175 -35.8614 -10.0299
10.0374 -9.1481 -3.69369
-20.0483 18.707 -7.36595
-9.179 15.2151 -4.7559
-24.8367 19.078 -8.32648
11.8339 11.9127 -4.43709
4.50912 -11.76 -3.33186
51.5898 -14.9972 -14.2296
-7.03502 -33.2398 -8.94392
4.2303 -8.95201 -2.60365
11.5533 -10.2753 -4.04224
-13.5699 16.9879 -5.64787
6.75485 -10.7678 -3.28679
-26.2601 -35.8809 -11.5009
3.28526 -9.95862 -2.70747
-26.4466 -38.7365 -12.1189
-3.82237 -25.1186 -6.58592
3.67806 -10.7609 -2.92821
4.21169 -9.7121 -2.71735
16.2908 -12.2492 -5.19753
-6.72498 14.3188 -3.99749
-27.8957 -37.2042 -11.7981
4.4925 -11.6007 -3.14411
4.3866 -7.9415 -2.30625
6.7876 -11.0687 -3.23448
48.897 -14.7839 -12.7334
-26.1802 19.7511 -8.10294
-10.8455 15.9303 -4.7454
-24.5752 -35.8538 -10.6936
-8.53424 -33.6194 -8.5676
-22.7713 19.125 -7.30283
4.51305 -10.711 -2.85197
-7.9882 -34.5264 -8.70015
-11.3445 16.2458 -4.799
-7.39395 14.3993 -3.89568
10.5999 -9.5604 -3.41587
43.5895 -14.4792 -10.9886
15.5852 7.79494 -4.15275
-5.4412 -31.2159 -7.55999
4.09665 -9.38157 -2.4227
51.4043 -13.7581 -12.6275
-25.4384 -37.9992 -10.8433
-10.287 -37.9039 -9.31627
4.37506 -9.35936 -2.46087
-23.5666 -34.1935 -9.74168
4.07438 -11.6778 -2.90934
5.07175 -8.98063 -2.42353
-12.0044 16.3562 -4.71662
3.37367 -9.95413 -2.4133
-6.5971 -31.1458 -7.37812
11.3764 -9.96905 -3.45518
-5.45662 -27.7102 -6.45366
-25.1942 19.4578 -7.21165
-9.89034 -35.6173 -8.36648
44.848 -9.80839 -10.4172
-28.1369 20.428 -7.79124
-32.7477 -21.4604 -8.77405
-4.87908 -23.2632 -5.30747
44.0655 -13.6221 -10.3538
5.64644 -9.80491 -2.52329
-12.1213 2.7659 -2.72767
43.9141 -12.8694 -10.1088
46.1893 -13.1792 -10.5657
30.992 43.6559 -11.7454
-5.04334 13.221 -3.08786
13.9243 -11.2046 -3.93166
40.9757 -13.1681 -9.45986
-21.7567 18.9615 -6.25587
-23.2052 -57.2215 -13.4118
4.4863 -10.0932 -2.39175
13.2291 -10.9075 -3.75501
4.71298 -9.52933 -2.29317
-13.6555 17.0116 -4.65412
-28.4836 20.6895 -7.51301
-29.2487 20.7566 -7.66248
-21.7813 -57.8 -13.2541
-10.025 15.6619 -3.93814
-7.30166 -31.0215 -6.78665
3.33586 -10.1182 -2.26793
4.14716 -10.273 -2.35824
49.8883 -11.5671 -10.9308
15.4111 7.71972 -3.65821
-14.1789 17.4522 -4.75629
5.34521 -9.37074 -2.26388
29.8744 43.2357 -11.0002
-36.4622 23.9527 -9.1412
-25.5367 -24.9912 -7.42115
15.465 8.09406 -3.62809
-27.9971 -21.6223 -7.33965
-24.7929 -63.5798 -14.1429
43.736 -11.7702 -9.36559
-10.7316 15.8096 -3.87841
-14.6175 17.2813 -4.60378
-32.152 21.5829 -7.86474
48.2484 -10.5244 -10.0697
-11.2025 -36.056 -7.68362
4.31551 -10.1528 -2.24104
4.458 -10.1498 -2.25601
12.013 -9.9861 -3.17659
-11.241 16.1294 -3.92019
-16.1923 -46.4831 -9.84839
-7.43701 -28.7921 -5.95798
-6.84046 -27.9614 -5.77838
-11.1613 -34.6845 -7.22215
4.25046 -10.3567 -2.21304
-31.5619 -21.5817 -7.53827
-24.7676 19.4382 -6.19304
-30.6744 -21.9419 -7.3526
-6.43714 14.2174 -3.02411
-21.5888 -50.7344 -10.7192
-31.1197 -20.7173 -7.20502
3.59548 -9.79211 -2.01077
49.9795 -11.5802 -9.8506
-11.9312 16.2885 -3.85577
4.1639 -9.75111 -2.02022
-33.7081 -20.4753 -7.46625
-19.1197 -31.0607 -6.94065
-13.1597 -37.9782 -7.61381
40.8286 -13.4685 -8.12581
-32.7849 22.0194 -7.3873
-31.1869 -21.5383 -7.12081
-30.2113 -22.1038 -7.02778
-17.7449 -43.9679 -8.92987
-14.2968 -38.8413 -7.68536
3.97042 -9.56387 -1.90997
46.1803 -12.4468 -8.88045
5.97923 -10.0851 -2.14622
-20.312 -46.0618 -9.22456
-17.1778 -42.6444 -8.32281
-13.5964 16.9476 -3.84904
-28.7481 -23.186 -6.56584
-18.7275 -24.9558 -5.58184
-21.0257 -54.9466 -10.4504
-35.7432 22.5545 -7.45356
-24.7601 19.4414 -5.47627
-23.2415 -20.2143 -5.37622
-31.1934 21.3455 -6.55949
4.09979 -10.534 -1.95674
4.94328 -8.92099 -1.77031
14.4276 7.74837 -2.82824
14.5199 8.33253 -2.87109
-28.3536 20.6182 -6.00699
14.2916 -11.4714 -3.11537
45.8396 -12.9694 -8.10936
45.5425 -11.7954 -8.00784
48.0771 -11.1588 -8.45256
-28.9059 -22.9567 -6.26254
-16.935 -27.7141 -5.53083
-19.5804 18.6476 -4.53759
-17.0476 -42.3783 -7.72511
15.3237 7.68067 -2.87839
-29.1432 20.6314 -5.9616
6.8956 -11.4814 -2.24935
16.9072 -12.5901 -3.47315
-19.4572 -46.3952 -8.32003
42.0351 -13.2549 -7.18246
47.3833 -12.7651 -7.97534
-9.67227 15.3537 -2.9248
-17.2401 -42.7744 -7.36173
-32.2069 -22.2325 -6.16707
-21.167 18.597 -4.40951
-23.7177 -14.869 -4.42103
-22.4127 19.1328 -4.5647
-36.4207 22.0516 -6.59486
-10.4836 15.6894 -2.90983
3.65428 -10.0251 -1.64713
4.08175 -10.7898 -1.78287
-7.07142 14.3403 -2.43814
-28.5369 20.77 -5.39279
-29.375 -22.6884 -5.6444
-25.82 -24.1518 -5.35678
-18.3362 -42.6227 -7.07271
45.7796 -11.9016 -7.1893
48.8216 -10.6369 -7.61226
-6.07668 13.5314 -2.21539
10.042 -5.26373 -1.68292
-30.9507 -22.3232 -5.68308
-21.0794 -53.3086 -8.50856
10.5342 -9.47145 -2.11001
49.0201 -11.3406 -7.47181
-33.7596 -22.4734 -5.96867
-29.0601 -23.97 -5.51085
-10.7046 -35.4778 -5.45868
17.7237 -12.823 -3.20277
-23.5004 19.3487 -4.42155
-36.8206 22.7089 -6.30896
-20.5063 -45.9507 -7.25583
-7.08159 14.1814 -2.26301
-11.8696 16.183 -2.85872
6.35143 -12.1328 -1.95402
-12.4994 16.7062 -2.9282
-31.7103 21.4213 -5.37779
7.07238 -11.5516 -1.89079
40.5396 -13.3792 -6.00338
-28.7988 -23.0764 -5.15058
-30.1784 21.6879 -5.14599
-27.091 -22.9289 -4.94092
-17.2965 -41.6913 -6.23881
49.1899 -11.0048 -6.95048
-14.8893 2.78702 -2.08501
-6.35509 14.0517 -2.10374
-18.2984 -47.761 -6.95361
8.01706 -9.7017 -1.68773
9.49065 -9.34308 -1.83595
-13.0634 16.6796 -2.85368
13.7483 -10.9656 -2.37828
-20.6269 18.7628 -3.74753
45.7022 -11.8168 -6.26665
48.8544 -10.7015 -6.61974
-21.0094 18.4885 -3.65775
-30.2114 -22.6066 -4.92846
-13.8861 17.0039 -2.83642
-31.1735 20.8069 -4.86396
-35.6585 -15.0563 -4.99706
7.31204 -10.8741 -1.67952
9.10052 -9.35562 -1.70785
11.0886 9.07938 -1.84395
-31.2824 -21.5576 -4.86151
-28.8346 21.0501 -4.51418
-32.9285 -20.5475 -4.86453
-27.1133 -55.4159 -7.70813
45.5329 -11.7759 -5.88545
7.08598 -10.8098 -1.61332
-7.10138 14.2026 -1.96313
-23.1432 19.4331 -3.69879
-30.5455 21.5277 -4.60785
6.643 -12.7386 -1.74764
48.7906 -10.4098 -6.11082
15.4901 8.11569 -2.1059
-15.3763 -37.2436 -4.86175
7.38845 -10.9805 -1.59187
-19.641 8.70488 -2.54247
-12.0675 -36.5089 -4.52518
-35.7526 -14.2763 -4.53945
-29.4531 -22.7077 -4.34833
-28.9575 -23.1586 -4.33872
45.6566 -12.2304 -5.5551
11.6336 -10.0187 -1.7779
-27.4485 20.813 -3.96165
6.94545 -11.3161 -1.51826
7.74288 -9.53257 -1.4038
-20.2455 -48.662 -5.93777
12.0047 -10.0778 -1.77946
9.64014 -4.70299 -1.21505
15.4633 7.94645 -1.96267
-9.63544 15.3392 -2.04225
-29.4633 21.5292 -4.08654
-14.5077 2.07182 -1.60506
42.0743 -13.8508 -4.96687
9.66487 -9.32024 -1.48473
-10.3155 15.4711 -2.01958
7.19588 -13.546 -1.65905
48.9743 -10.6443 -5.43354
11.095 9.11792 -1.55129
17.591 -13.0672 -2.35074
45.8801 -11.8997 -5.07886
9.93564 -9.27431 -1.43933
8.63544 -8.72318 -1.28531
-28.5873 -22.8763 -3.812
-24.7589 -49.6626 -5.79069
15.4582 7.75268 -1.77001
-29.4038 -22.6721 -3.80898
-11.9761 16.3259 -2.05445
-11.9215 15.9722 -1.97975
10.5492 -9.39228 -1.38316
-17.1922 -43.6642 -4.60282
6.69357 -12.8183 -1.39747
9.79595 -9.2485 -1.27378
-48.7535 27.1565 -5.38852
17.4407 -12.76 -2.07632
45.775 -12.3007 -4.54354
-25.0604 -50.6577 -5.3737
-17.0099 -44.6414 -4.53907
-21.6125 18.9046 -2.68351
49.8307 -11.0858 -4.76859
10.0374 -9.28396 -1.26522
43.0501 -14.2014 -4.22394
-13.976 17.1327 -2.00133
-28.0327 -12.7808 -2.80774
-26.3838 -51.4344 -5.32897
16.5936 -12.4203 -1.8847
8.9117 -9.00567 -1.14682
-33.6384 -19.0781 -3.38671
13.4117 -11.0708 -1.51375
49.366 -11.4426 -4.34153
9.71378 -9.32758 -1.13164
11.3437 -9.98962 -1.27005
-31.2096 21.4336 -3.15005
17.6571 -12.8763 -1.80932
-14.3414 -37.3203 -3.20324
15.3335 -11.9899 -1.55154
-33.5933 -65.6481 -5.85656
-10.3059 -28.8536 -2.41933
-27.3834 20.8216 -2.65997
-30.2764 21.4009 -2.86188
-18.9448 -43.2763 -3.64733
7.8712 -9.63188 -0.992284
-45.5605 24.7966 -3.92733
-19.8429 18.6757 -1.98199
-30.4567 21.5435 -2.70344
17.1704 -12.83 -1.56739
45.8199 -12.2619 -3.45609
-31.1151 -58.8739 -4.80436
14.5719 -11.5296 -1.32935
-26.2326 -16.2766 -2.12597
-13.2835 -35.2388 -2.59949
11.1522 -9.95986 -1.02415
-21.6267 18.9367 -1.94139
13.3911 -11.0499 -1.16183
18.8825 -13.6954 -1.55451
-19.3587 -44.6032 -3.21315
16.8086 -12.714 -1.39137
-12.505 -34.6723 -2.38435
47.8957 -12.457 -3.09402
-25.779 -52.2333 -3.55284
38.4222 -9.32157 -2.42723
46.8407 -10.7215 -2.95086
6.49389 -14.0374 -0.922895
33.634 -22.256 -2.41202
-9.12721 15.237 -1.04376
-13.3489 -34.8231 -2.123
17.4253 -13.0229 -1.22106
-9.32143 -12.0838 -0.836226
15.4583 7.93077 -0.942188
14.4924 -11.4724 -0.989567
-11.9061 16.1352 -1.04753
-14.1498 -35.072 -2.00759
15.3502 8.07177 -0.852805
-13.937 -35.626 -1.87589
-13.1717 16.6957 -1.0173
9.88411 -9.32345 -0.623223
-19.7636 -45.3359 -2.23568
12.9371 -10.6356 -0.77637
-13.429 -37.4354 -1.76432
-14.7063 -36.2338 -1.67252
7.29442 -13.4701 -0.678743
-11.6988 -35.6638 -1.59751
-46.686 25.3902 -2.15332
19.3129 -13.8752 -0.964899
17.6372 -13.11 -0.855731
-32.0928 -62.2892 -2.63895
-15.2003 -39.861 -1.56896
-30.7704 21.1427 -1.36623
46.371 -11.9484 -1.72528
-27.5517 -54.8052 -2.04807
-21.2785 -46.6323 -1.72253
21.7929 25.2054 -1.11204
-19.8858 18.6355 -0.888846
8.69193 -15.3414 -0.591458
9.73617 -9.29485 -0.436497
11.7233 -10.3209 -0.507815
19.5841 -13.8477 -0.788215
37.5056 -14.1461 -1.33072
24.026 29.0841 -1.216
-25.9237 -13.003 -0.907988
-21.2178 18.8951 -0.866807
-29.0857 20.6005 -1.11323
-20.3976 -46.8949 -1.58041
-11.8442 -33.5093 -1.09272
-17.6104 -44.9247 -1.45782
-13.9487 -37.8044 -1.15185
-31.6273 -19.1762 -0.983278
11.8692 -10.0693 -0.417176
17.127 -12.739 -0.562778
-37.1208 22.9648 -1.15209
-27.7649 21.1272 -0.864233
-28.6582 20.3643 -0.900292
-28.2721 20.7206 -0.829759
9.88781 -9.30839 -0.314859
-38.1391 13.1823 -0.892388
-18.7645 -30.1727 -0.831874
-26.7181 -44.7414 -1.1696
22.5284 -15.0674 -0.595819
33.0141 -20.0192 -0.871278
14.6077 4.03701 -0.311095
-45.0112 16.228 -0.935133
32.8183 57.3539 -1.22546
24.8169 -11.5539 -0.482671
51.7401 -11.9145 -0.988977
-28.5231 -20.4979 -0.638493
-27.1022 -26.6196 -0.599752
-16.0178 -39.3053 -0.703188
13.23 -10.8796 -0.282111
19.5242 -14.1084 -0.36831
-27.6715 -12.2991 -0.396311
-30.3376 -22.7038 -0.524856
-26.7271 -53.8795 -0.806305
-22.7014 -48.3165 -0.726551
-31.4105 -21.4516 -0.494323
-27.7815 21.1365 -0.412389
17.8587 -13.3368 -0.264918
31.6594 -19.6307 -0.438459
-28.2435 20.7353 -0.391526
-35.1093 -19.6176 -0.450525
-16.3277 -37.4473 -0.433295
-10.3808 -31.2483 -0.328586
-27.774 -48.9382 -0.51302
-13.3184 16.8948 -0.16656
-25.3305 -12.7709 -0.227792
-13.9641 17.0229 -0.152036
-20.9325 18.695 -0.146019
-19.5076 18.2981 -0.123264
-28.3678 -13.4393 -0.102872
-10.1332 -13.0271 -0.0570525
15.2138 7.99223 -0.0230855
11.5174 -10.1277 -0.00854895
-32.1652 -17.6177 0.0580657
-9.86786 -29.3281 0.104331
17.797 -12.9303 0.0949775
-16.1164 -37.0006 0.184062
19.7892 -13.9431 0.128084
7.59647 -13.0586 0.109754
27.4967 -11.2813 0.181924
-49.7504 17.7649 0.502726
17.0299 -12.6212 0.20182
40.2593 -8.21975 0.386172
-27.6318 -7.79136 0.336727
-33.5905 -20.2745 0.435346
-9.93632 -28.4696 0.327282
-48.1778 26.4048 0.669911
-11.0687 -30.6734 0.392473
-9.01364 -27.7075 0.353438
6.77725 -13.8533 0.19616
7.56279 -11.6513 0.182034
-25.9529 20.3728 0.503101
11.7364 -10.2501 0.233618
-22.339 19.1044 0.483067
11.2998 -10.0895 0.237109
13.5051 -11.118 0.274957
39.0539 -8.35828 0.662909
-31.9786 -21.425 0.703021
-28.6951 20.5178 0.690524
6.57972 -13.7477 0.29481
7.36349 -11.5883 0.263779
8.31497 -9.75723 0.249644
34.8547 71.6736 1.72466
8.01012 -9.78737 0.285201
10.4768 -9.48936 0.340268
-27.376 -8.7783 0.693577
-21.6203 18.8718 0.774096
-25.4338 20.0551 0.866933
-27.5043 -8.25849 0.757767
9.4928 -9.18895 0.356113
9.94485 -9.24314 0.369297
-23.6255 19.9125 0.837097
26.614 -5.38421 0.754571
13.5143 -11.0867 0.519893
16.1676 26.3388 0.949946
-31.7049 22.4813 1.16639
6.62118 -13.6595 0.476384
7.83905 -12.2201 0.454624
-27.0871 -7.63928 0.924367
-11.8774 -18.1858 0.71801
-26.7829 -8.37084 0.971236
16.7765 11.4826 0.732427
-27.9834 -17.3403 1.15309
17.4351 30.2876 1.24352
-28.615 -15.6084 1.21007
24.5831 -4.43921 0.901071
-26.1039 -18.5656 1.18956
-7.12814 -7.77214 0.398458
9.34643 -9.11423 0.484375
13.0051 14.2263 0.740858
32.5326 67.116 2.81823
31.2614 66.5599 2.76274
-11.2313 -8.89007 0.565535
9.00191 -8.94593 0.50112
-23.7409 19.5574 1.24597
22.7141 -3.07842 0.927153
-27.0957 -16.458 1.30106
9.72518 -9.22145 0.54856
13.0687 15.0513 0.855293
6.98725 -13.2324 0.633989
15.8648 20.6139 1.14086
22.9443 31.6927 1.70993
-9.10731 -13.2425 0.708032
-9.51039 -14.8742 0.78567
7.94053 -11.4444 0.612571
8.90185 -8.99427 0.570875
25.2821 -3.87315 1.15327
-28.3548 -8.26295 1.34922
7.07648 -11.6337 0.625218
-8.07753 -7.94923 0.533935
25.3634 51.1757 2.72829
-26.8712 -16.6074 1.49562
-9.37611 -13.1522 0.770403
9.98067 -9.26038 0.640253
19.0448 52.9274 2.71928
-28.5897 -12.6633 1.49427
-6.60279 -8.04986 0.512921
16.83 39.1393 2.17098
-28.1759 -11.0337 1.52011
-7.43838 -6.83989 0.51117
-6.55513 -7.43105 0.501771
18.0022 32.6113 1.93122
22.1344 31.4187 2.04276
10.9778 12.8365 0.910902
15.1817 20.6599 1.37415
9.65273 -9.21947 0.714104
15.7976 20.5548 1.42902
16.5954 25.6315 1.67878
-25.5772 18.0095 1.71183
-6.80954 -8.00273 0.583364
-24.5343 18.8256 1.71636
6.51607 -13.7577 0.849703
-6.91915 -8.91711 0.644512
10.3679 12.9502 0.973853
16.3171 27.4926 1.86529
6.89445 -13.8465 0.888223
14.9881 24.4529 1.69179
-8.06526 -7.92781 0.682069
11.9693 12.0521 1.01107
15.6532 20.819 1.56268
-7.18209 -9.72259 0.752858
7.34688 -11.7077 0.840788
11.6679 -10.0643 0.93296
6.16385 -11.2992 0.796976
-7.05731 -6.52321 0.600907
15.5035 21.9932 1.70037
16.6678 7.39859 1.18225
-6.91065 -6.03789 0.602454
6.91308 -14.3811 1.06108
10.2441 23.1399 1.70575
10.8407 13.0666 1.15902
14.3861 19.3444 1.67953
13.3184 22.0821 1.78258
11.7852 12.4493 1.20158
6.86359 -10.2359 0.871186
11.9332 12.2088 1.23384
10.0541 -7.09713 0.874534
12.8393 12.4295 1.31077
10.2271 -8.63671 0.979389
-6.00631 6.50973 0.659234
10.7395 9.45649 1.07341
12.6519 18.9168 1.7107
12.212 19.4563 1.72932
-6.79343 -7.53011 0.787124
11.5912 20.0063 1.77264
9.82066 -9.24616 1.04107
10.9576 14.7091 1.43651
-6.32853 -4.24055 0.600776
9.8389 19.7123 1.75949
10.3387 -7.07467 1.00187
12.9195 11.9869 1.42308
10.4476 20.2854 1.83623
-7.06455 -9.3707 0.957084
6.95976 -9.71781 0.971069
12.7035 12.1526 1.43894
12.6106 12.4022 1.46722
11.858 12.3943 1.41859
-4.85628 -11.0848 1.02002
10.7438 13.442 1.46285
-6.83782 -5.97517 0.782523
-6.68909 -6.57042 0.792492
-5.01825 -11.0074 1.03072
-7.14158 -7.57826 0.89749
9.52489 -7.44376 1.04317
-6.95979 -7.87588 0.92065
-6.86606 -7.5252 0.896649
9.77213 13.044 1.44379
-6.78884 -8.17567 0.950353
11.1314 9.33998 1.32294
10.9235 14.0689 1.60805
10.8332 9.51436 1.31851
8.11335 14.7277 1.54584
-6.34962 -7.94998 0.933154
-6.72687 -8.78857 1.02267
11.5828 11.1713 1.48347
11.5848 9.45196 1.39778
11.2414 11.1737 1.48448
6.88863 15.9192 1.62962
-11.1965 2.86846 1.08271
-6.27634 -4.11517 0.703092
-6.68543 -6.18286 0.84489
9.8484 13.8892 1.64149
-5.88532 6.39492 0.853545
8.14306 -6.76073 1.03021
8.29937 13.8385 1.60216
-6.91753 -7.45482 1.02538
9.65578 12.0735 1.55833
7.3192 12.9958 1.51312
7.40036 13.6338 1.58095
9.80708 9.35368 1.40144
6.20632 14.7957 1.66299
9.51497 12.9411 1.6738
-6.02379 -4.39587 0.781703
6.2968 14.4693 1.66216
6.56092 14.3717 1.66079
-6.8691 -4.36336 0.870489
9.01464 9.27236 1.37768
9.43042 10.5057 1.53442
7.60081 11.4129 1.48957
6.07762 11.9711 1.45936
-6.16904 -7.25746 1.04196
10.4993 6.59852 1.37088
9.22197 8.34667 1.37008
7.60646 12.1588 1.58311
7.12815 12.1152 1.55365
5.61355 12.4659 1.52107
5.12064 12.7292 1.53525
5.0098 14.5705 1.69563
10.0981 7.22017 1.38501
9.01461 9.58244 1.46919
5.62677 12.0399 1.49652
-6.71144 -6.59582 1.04801
7.11832 11.1107 1.48592
4.59251 14.0115 1.66722
9.92676 -3.25281 1.16354
-6.00814 -5.32885 0.930123
7.44039 -6.24662 1.10146
10.6366 5.83608 1.39034
-7.29075 -0.97366 0.842253
-6.15974 -5.27261 0.933615
5.34121 -5.65504 0.894875
5.30921 12.1783 1.54343
-6.78189 -4.49221 0.942789
4.5757 -7.46032 1.01032
10.6197 5.25348 1.38919
9.10491 8.08104 1.42815
-5.92169 -4.30975 0.853634
-6.38476 -5.19136 0.972438
4.22952 -8.12926 1.08761
5.0618 -5.96203 0.936897
10.3642 4.84617 1.37041
8.73826 8.48515 1.47442
5.51664 12.0188 1.61447
9.23359 6.39661 1.37431
8.21936 8.55403 1.48528
-6.38266 -5.65201 1.06176
3.8251 -7.81363 1.08741
8.86248 6.83335 1.40632
-6.36605 -5.26035 1.04554
9.27583 6.13547 1.4189
8.36678 7.30056 1.41587
8.30402 7.6832 1.44368
5.8771 -5.43794 1.02665
-6.87072 -4.37863 1.04596
8.3037 8.19856 1.5128
-7.26774 -1.02964 0.947821
-6.83719 -2.79129 0.964231
9.1276 4.17051 1.31319
8.58111 6.76981 1.43397
5.09682 -6.14627 1.04805
5.01757 -6.3194 1.06695
6.97523 -4.34803 1.09287
-7.048 -1.69766 0.971427
-6.92518 -2.19322 0.970843
-5.94452 -4.36302 0.985952
8.30782 6.79983 1.45462
8.7566 4.51524 1.34228
8.78967 5.26178 1.3983
8.2085 7.29828 1.49428
-6.7179 -3.68385 1.04032
9.01147 4.22997 1.36165
8.42506 5.94641 1.41129
7.8274 5.95802 1.34001
-6.31039 -4.26981 1.04273
-5.87675 -4.4638 1.00805
5.52747 9.31475 1.49597
3.8036 10.5238 1.55484
-7.27774 -1.07957 1.01832
-6.8094 -3.87312 1.08723
5.0365 -5.64132 1.0437
5.31754 -5.49009 1.0594
7.57392 -3.58922 1.17092
3.54519 10.6335 1.57166
8.54618 4.67733 1.37723
7.48483 -3.73279 1.18531
7.69778 -3.38347 1.19761
7.87677 -3.3545 1.21362
9.07667 2.85801 1.36866
4.92098 -5.73664 1.0849
7.45349 -2.89168 1.16279
-6.86801 -3.25722 1.10788
8.03192 -2.81946 1.23994
8.79174 -1.8467 1.31753
5.1597 8.83429 1.51021
3.08433 9.8608 1.53831
7.83358 -1.9126 1.18731
7.36436 5.86491 1.40199
3.60231 9.96663 1.56751
3.33246 10.2465 1.59811
-7.28009 -1.03056 1.08963
-6.98892 -1.99856 1.08296
7.08616 6.4147 1.44249
-6.19443 -2.24673 0.98854
-7.15257 -1.35862 1.09852
8.07609 4.9007 1.43836
5.84581 7.53273 1.44644
5.42745 7.82577 1.44929
5.19614 8.23466 1.47208
6.84801 -3.26774 1.14634
7.34649 -3.16782 1.224
7.74229 -2.79372 1.25312
-7.22801 -0.724029 1.1087
-7.01136 -1.93078 1.12207
6.87759 -3.13304 1.16761
3.82289 -5.89828 1.08519
-6.96766 -2.05081 1.13836
-7.25643 -1.07951 1.1514
7.48331 4.85385 1.40801
-7.11179 -1.42606 1.15355
-7.18329 -1.28526 1.17036
-7.01129 -1.99446 1.18506
7.18497 4.84081 1.41352
-7.0152 -1.92185 1.19449
7.125 4.94515 1.43993
6.72164 4.93021 1.39046
5.31003 6.36766 1.38095
4.78673 7.34659 1.46448
3.93758 8.17315 1.50854
-7.16142 -1.35683 1.21627
2.85321 -5.90084 1.10286
7.25399 4.49808 1.43718
6.62421 5.3273 1.43351
3.94116 -5.458 1.1334
3.99844 -5.09909 1.0954
-7.18424 -1.23721 1.23615
-6.52016 -2.5941 1.19038
7.51628 2.88613 1.36473
7.13223 3.94778 1.38844
-6.3394 -2.72083 1.17354
6.8736 4.15855 1.37844
5.75273 -3.56296 1.16348
-7.30544 -1.02682 1.27522
-6.28595 -2.25495 1.14783
5.60422 -3.69312 1.15567
5.38524 -3.82081 1.15614
3.69161 7.35144 1.44757
-6.72121 -1.71515 1.2178
4.54164 -4.52847 1.12731
-7.00903 -0.903871 1.25833
4.79053 -4.51898 1.16406
4.42238 6.63373 1.42276
6.6733 3.51989 1.36179
6.7161 3.73281 1.37965
-6.37172 -1.48429 1.17622
3.67103 -5.41712 1.18866
5.16751 5.71221 1.41016
-6.08895 -2.15975 1.18375
3.46879 -5.24157 1.16722
3.47165 6.93964 1.45232
-1.66268 -5.66472 1.1228
6.52133 2.76441 1.34718
-2.10372 -5.62345 1.15541
6.3834 2.82896 1.34349
-2.74359 -5.29237 1.16904
-3.45676 5.24743 1.35816
4.52544 3.94117 1.36938
4.18777 -2.90383 1.18623
4.66753 -2.20444 1.24621
4.24352 3.32631 1.33537
3.73845 -2.95439 1.23285
4.05311 2.59695 1.34456
-1.42672 -4.07223 1.20888
-2.30039 -3.54796 1.20195
3.89107 2.38348 1.32174
-2.83144 3.48778 1.34407
-2.46313 -2.89584 1.18088
-2.36178 -2.91751 1.18603
1.85109 -2.82284 1.18577
1.87398 -2.80066 1.21579
1.99959 -2.53505 1.20163
-2.02961 2.78547 1.30793
2.81272 -0.557259 1.26257
2.79182 -0.337717 1.24423
-2.0813 -1.61274 1.20748
-2.06967 -1.44588 1.2327
-1.855 -1.78864 1.27766
-1.98868 -1.12779 1.19976
-1.98037 -1.06701 1.22656
-1.94082 -0.877809 1.22699
-1.92558 -0.706472 1.21743
-1.92444 -0.69958 1.24455
-1.90127 -0.46851 1.21757
-1.867 -0.344902 1.21487
-1.8519 -0.400227 1.2216
2.36545 -19.4583 -9.89223
-7.39985 -8.73645 0.453386
8.16429 -8.95522 -10.6496
8.40463 -8.77142 -10.6742
8.35693 -8.42857 -10.0488
7.08227 -12.1575 -11.598
8.68424 -9.14597 -9.92568
7.99552 -9.09731 -9.29647
5.94639 -12.9897 -10.8868
9.62851 -9.01908 -9.94595
6.24708 -14.2994 -11.7415
8.45084 -8.84615 -9.19336
8.17728 -9.34631 -9.28162
7.43294 -9.41875 -8.93418
6.01299 -14.3748 -11.3628
7.87511 -9.48973 -8.89328
8.01202 -9.2933 -8.83391
7.26563 -10.7747 -9.24722
6.95547 -11.2824 -9.39038
10.2979 -9.41348 -9.79372
6.67127 -11.3895 -9.03076
8.1954 -8.79817 -8.00243
7.5152 -9.47065 -8.02954
8.69393 -8.85889 -8.24612
7.89138 -9.67782 -8.19866
6.62515 -13.0304 -9.53943
8.10403 -9.37388 -8.07708
5.05916 -16.1811 -10.9006
-0.484012 13.832 -8.85047
7.89218 -9.43643 -7.88383
7.50395 -11.1055 -8.52825
8.55933 -8.74843 -7.79322
11.1624 -9.87159 -9.4467
9.18573 -9.00782 -8.06456
12.1103 -10.3245 -9.96796
8.25286 -8.72331 -7.38364
4.06738 -16.8961 -10.6491
4.29958 -15.5181 -9.88381
0.0943679 14.1606 -8.60345
8.02392 -9.56852 -7.47898
3.9829 -15.7007 -9.65686
11.8115 -10.1095 -9.30649
7.02495 -11.3274 -7.90902
7.92845 -8.99241 -7.09799
5.59406 -14.2449 -9.03691
6.63305 -12.9744 -8.52221
8.54485 -8.77905 -7.13551
9.93104 -9.30641 -7.93158
2.83873 -11.964 -7.04417
5.62553 -14.2487 -8.667
9.84247 -9.33794 -7.66516
6.77078 -11.3166 -7.42026
3.32406 -20.4473 -11.6114
9.08917 -9.14779 -7.22493
12.5644 -10.5389 -9.18223
6.98152 -11.2516 -7.37184
4.77807 -14.8763 -8.63006
6.3727 -12.9131 -7.91597
0.881508 18.6401 -10.1624
15.0225 7.93967 -9.23778
4.28907 -14.498 -8.16078
15.2627 -12.0752 -10.4852
15.3946 7.65128 -9.16248
14.3901 7.93011 -8.73578
4.84981 -15.0777 -8.41141
12.4435 -10.4503 -8.54682
1.80308 -20.1882 -10.4295
11.7506 -10.1386 -7.94678
2.07141 -19.9652 -10.187
14.4632 -11.4785 -9.33431
-0.00959955 14.1994 -7.12835
-6.98943 14.5114 -8.0645
10.8944 -9.87037 -7.38259
7.70867 -9.66535 -6.15511
18.2091 5.66709 -9.30685
-8.12455 15.3867 -8.40189
12.0052 -10.081 -7.58338
10.7919 -9.85429 -7.01351
15.3304 -11.7514 -9.31193
17.3879 16.4772 -11.3901
7.70661 -11.3848 -6.54478
15.4438 7.63184 -8.0878
14.4025 -11.4022 -8.58107
-11.3202 16.2018 -9.0479
16.4539 -12.4652 -9.42557
9.94202 -2.49285 -4.70852
-8.96033 -1.62895 -4.14168
19.6637 18.98 -12.3423
4.0029 -9.29776 -4.59049
-9.69882 15.8329 -8.33079
-5.25716 4.37088 -3.07271
7.06868 -11.6305 -6.12174
9.67681 -9.32429 -5.92349
16.5028 7.52918 -8.00729
-6.32998 14.3591 -6.84704
1.50695 -18.6453 -8.09052
-10.5795 16.088 -8.28304
9.75035 -3.42968 -4.42693
-9.21389 -1.72031 -4.02441
7.23279 -11.3785 -5.69471
16.4313 -12.4186 -8.61725
15.0685 7.96671 -7.15427
19.733 20.5371 -11.9138
1.00529 -21.918 -9.1387
-4.37156 13.3433 -5.78041
-9.7575 -1.09134 -4.06915
14.4847 7.99922 -6.76091
21.7306 23.6444 -13.1022
-12.7463 2.38868 -5.28181
15.5572 7.39238 -6.97059
-4.9974 13.6725 -5.84878
3.7306 -9.02305 -3.88245
12.7838 -10.5922 -6.50039
14.459 -11.4154 -7.1955
20.3931 22.8323 -11.8866
19.4396 5.99492 -7.8921
1.54393 19.5215 -7.59814
-8.2747 14.8999 -6.56407
11.7548 -10.3623 -6.02411
20.3888 23.6464 -12.0387
0.670674 15.4351 -5.91967
-1.62825 12.4097 -4.81224
2.74553 -12.3481 -4.85158
-8.63289 -1.23298 -3.31486
0.688313 -22.6006 -8.538
15.7958 -12.104 -7.501
9.65883 -3.52444 -3.87843
-13.7452 16.939 -8.12444
-7.77028 -3.45179 -3.11918
1.09218 -10.3502 -3.82919
7.25539 -11.5938 -4.99716
14.6077 8.15738 -6.04493
-8.1655 -2.80355 -3.10503
0.77919 15.3669 -5.48973
-3.77086 12.7264 -4.69018
5.92094 -11.3306 -4.4947
16.4936 -12.4637 -7.31827
19.7376 6.09634 -7.27134
2.18136 21.4552 -7.5726
23.2774 28.1477 -12.7072
-9.19041 -1.33148 -3.17303
-13.9532 17.2197 -7.6018
3.05247 -13.6627 -4.81449
-8.37968 15.1293 -5.90442
19.3661 -13.7159 -8.1295
-4.79236 13.7474 -4.94519
14.4339 -11.6302 -6.2168
1.3185 -21.2982 -7.07624
1.77579 19.9885 -6.63494
1.45531 -10.316 -3.44302
42.6508 -21.8015 -15.7134
-3.13455 -23.1826 -7.55176
6.34993 -10.3369 -3.87989
18.3671 -12.9683 -7.19776
2.14266 21.0891 -6.75214
-12.5267 16.7193 -6.58185
1.38994 -21.5107 -6.72234
-4.08393 13.9508 -4.51212
-10.2836 15.5772 -5.65199
-2.46566 -25.2111 -7.70719
3.15311 -9.73045 -3.10519
0.759997 -22.7292 -6.84628
18.9224 10.9374 -6.46876
20.1003 -14.2669 -7.31031
18.1645 5.7468 -5.5937
-7.42571 14.3677 -4.70343
4.37048 -10.8349 -3.39165
3.75324 -10.9422 -3.28825
4.40384 -11.3541 -3.41432
-12.4465 16.6335 -5.77438
-8.70744 14.8807 -4.68573
-12.9206 1.93686 -3.58197
-15.7614 18.1061 -6.51385
28.0654 -18.4749 -9.10001
-3.43117 -24.5144 -6.65128
3.90269 -9.4277 -2.72688
-9.19048 15.2729 -4.74019
32.6425 -15.5128 -9.64247
51.7178 -15.1004 -14.2844
10.8712 -9.69542 -3.85371
-6.0356 13.9656 -3.96941
-13.4764 16.8938 -5.66685
-6.91455 -32.7563 -8.73249
5.1286 -9.89654 -2.88192
6.78451 -10.8544 -3.29916
-6.73388 14.2853 -4.00953
-9.89108 15.4021 -4.67293
-8.46542 -33.5704 -8.62186
49.2628 -12.4836 -12.6049
-7.65507 -33.07 -8.30173
11.3113 -9.97101 -3.70572
-7.45995 14.4728 -3.944
-10.9634 15.9326 -4.67787
15.0595 7.95527 -4.0464
-25.8712 -38.8975 -11.1589
4.18192 -9.55582 -2.46581
15.6781 7.76528 -4.12706
3.87642 -9.21157 -2.34633
-5.72465 -28.5594 -6.75441
5.82109 -10.2232 -2.72386
48.6598 -11.7758 -11.6353
-11.9656 16.2967 -4.65025
15.3242 7.84852 -3.8991
47.4868 -10.273 -11.0057
-9.14816 15.235 -3.97381
-28.1342 -69.139 -16.2288
3.86955 -9.6348 -2.2555
46.5882 -11.9519 -10.4966
15.5949 7.73701 -3.73167
-9.93296 15.5029 -3.94026
-19.7134 -30.993 -7.89571
-15.7064 -49.0943 -11.116
5.0083 -10.1268 -2.43427
9.73228 -9.20065 -2.82261
49.008 -11.4753 -10.7685
-13.7761 17.0669 -4.61135
-29.8056 -21.9993 -7.85329
45.235 -15.1352 -10.0895
15.3161 8.09373 -3.61662
-32.3161 21.8536 -7.97375
-7.18237 -29.3905 -6.1364
4.1504 -12.0729 -2.56226
48.4228 -10.4479 -10.0753
12.1967 -10.096 -3.17371
46.625 -12.0031 -9.59338
-24.9603 18.8353 -6.20393
-32.0378 -20.2707 -7.49632
6.38979 -10.6935 -2.47738
50.0745 -11.7101 -10.0436
-11.9241 16.2685 -3.89503
-24.7976 19.4332 -6.11919
16.7054 12.6371 -4.00878
-6.39263 14.0673 -2.96232
-30.6 -22.1332 -7.2294
-29.2095 -22.8731 -7.13071
-32.5339 21.6791 -7.35891
-31.1546 -20.5515 -7.05358
18.6258 5.85596 -3.64735
-31.708 -19.1316 -6.91629
-12.7475 -36.7584 -7.25591
3.94936 -10.282 -2.07055
-19.8517 -49.4294 -9.91564
-14.2225 -38.3219 -7.48417
4.14709 -10.0472 -1.95775
13.5537 -10.5906 -3.10065
49.441 -11.0023 -9.09793
-13.7176 17.0128 -3.90224
-24.9171 19.5426 -5.58825
15.5689 8.24186 -3.07184
-27.9155 -24.3266 -6.45482
-16.702 18.0159 -4.22685
46.4751 -11.9048 -8.23655
-7.38778 14.2291 -2.7128
-8.99416 16.5613 -3.18016
48.6135 -11.444 -8.44504
-28.2395 20.5693 -5.87935
-28.0824 -21.6051 -5.92255
-19.3042 18.4579 -4.44123
-29.6404 20.9327 -6.05112
16.6297 -12.4076 -3.39856
-9.63114 15.2892 -2.87218
-39.1319 23.0264 -7.20075
