ply
format ascii 1.0 
element vertex 1872
comment /media/mkaihara/Seagate Backup Plus Drive/model_iterations/model_78.ply
property float32 x 
property float32 y 
property float32 z 
end_header 
18.1044 18.3493 -11.0779
15.7636 -12.131 -8.55963
14.8095 7.40459 -7.06585
3.83438 -9.29213 -4.27102
-11.2865 17.1667 -8.69831
6.93148 -10.8865 -5.44223
-13.6456 3.34419 -5.91944
0.743079 -22.4158 -9.45139
15.752 -11.927 -8.26325
-5.18593 5.71081 -3.22784
0.998863 -22.2805 -9.34909
1.23115 -20.7873 -8.72387
14.1215 7.57364 -6.70173
18.4286 19.2045 -11.1196
3.77902 -8.94617 -4.05004
14.7214 7.70343 -6.91551
17.8037 19.0141 -10.8086
-9.53704 -1.09457 -3.96277
4.00448 -8.49665 -3.84848
13.9885 7.72392 -6.55912
6.83094 -10.9663 -5.28233
-13.683 2.55607 -5.69443
-8.0494 15.5952 -7.1326
19.1177 20.773 -11.436
15.0225 7.21822 -6.71468
-5.32385 14.5416 -6.20943
13.9075 -10.9952 -6.94433
1.5289 19.1882 -7.47513
-8.84623 15.9779 -7.09797
18.9164 5.76883 -7.66222
-1.76097 13.3504 -5.21609
5.28866 -9.38166 -4.15343
-2.39705 13.5768 -5.29568
19.4353 22.4824 -11.394
4.65613 -8.50753 -3.68322
19.3403 5.54833 -7.65595
0.878206 -26.6234 -10.1228
14.8529 -11.4457 -7.05716
19.8959 5.39016 -7.71454
9.42611 -3.43425 -3.75068
0.534122 -22.7695 -8.48716
3.24275 -10.7759 -4.20443
20.0262 23.2982 -11.4078
0.909979 -8.72592 -3.25346
13.9824 -11.0734 -6.5772
20.3014 5.16343 -7.70172
17.7694 17.5579 -9.12789
-13.0932 2.29383 -4.83283
20.6641 24.6758 -11.6719
2.28304 -13.2377 -4.83977
12.9958 -10.5095 -6.01448
0.796104 15.4126 -5.52149
-8.21622 -2.80381 -3.10523
0.410078 -21.9209 -7.83704
-4.26074 13.9864 -5.20139
0.63852 -21.9805 -7.81428
15.7965 -11.9306 -7.01666
-15.9502 18.44 -8.59326
5.91931 -11.3213 -4.49215
-11.1703 16.8574 -7.06394
0.0930579 -18.5669 -6.52636
14.2182 -11.2682 -6.3439
20.2563 5.33468 -7.31111
0.658029 -23.11 -7.98407
-5.07435 14.7331 -5.33989
3.63613 -8.44102 -3.16381
4.87117 -9.0233 -3.51397
-14.7082 18.2608 -8.02667
2.27307 -10.878 -3.80851
-9.00623 16.3386 -6.36043
3.01985 -13.6645 -4.77159
-15.1902 18.6446 -8.15365
20.075 5.45811 -6.99218
21.8295 27.0039 -11.6039
35.7584 -20.1859 -13.7232
-5.37303 14.2531 -5.05989
1.90809 20.6611 -6.88382
1.26698 -10.2466 -3.4138
-5.31902 14.6481 -5.06247
-12.7635 17.4739 -7.02049
18.4784 -13.1675 -7.36882
3.55785 -8.66808 -3.00417
6.21009 -10.0972 -3.79914
2.31219 -11.0029 -3.578
-4.61559 -34.6615 -11.113
-1.14718 -24.0164 -7.65285
14.9545 10.2993 -5.72996
-13.397 17.8275 -7.04948
-18.2586 19.6938 -8.44287
6.94751 -11.0722 -4.04143
1.38681 -21.9422 -6.80121
-2.60013 -27.6834 -8.5341
7.11288 32.8416 -10.2525
0.771113 15.0019 -4.5622
-11.2929 17.0395 -6.16208
-2.7308 -26.8049 -8.11321
-14.5515 18.1942 -6.95221
-5.3612 -35.1463 -10.585
0.840609 -25.1734 -7.5307
-5.46711 15.0389 -4.76084
2.07294 20.608 -6.10149
-21.5942 20.135 -8.71148
18.1422 5.77325 -5.6037
-4.35091 14.617 -4.48499
-8.03779 15.5947 -5.14811
4.25094 -9.13295 -2.96094
4.62867 -11.5983 -3.65163
-12.6692 2.23187 -3.69731
-33.6493 -47.6641 -16.7875
-15.4158 18.5456 -6.93336
6.94345 -11.0589 -3.75954
2.56156 -9.53816 -2.80622
12.8991 -10.441 -4.72289
-8.46697 -2.46414 -2.50043
20.8712 26.9165 -9.64894
-8.59501 -2.26531 -2.51167
-2.58536 -26.3736 -7.43577
-13.0781 2.00406 -3.68452
4.37984 -11.3091 -3.36627
-9.44318 16.2405 -5.15843
-13.2454 17.6654 -6.06523
-5.46954 14.5994 -4.26211
-8.66334 -42.0659 -11.7496
-21.791 20.3352 -8.01327
-9.86957 16.3664 -5.12262
-27.1202 20.8333 -9.09851
11.3846 11.4582 -4.26145
4.3188 -11.2746 -3.19866
46.6348 -13.5568 -12.8662
-8.36882 -39.4897 -10.6086
4.08443 -8.64663 -2.51806
11.1452 -9.9132 -3.90219
-14.661 18.3571 -6.10949
6.52593 -10.4072 -3.17961
3.17441 -9.63529 -2.62272
-30.7142 -44.9839 -14.0641
-4.4318 -29.0649 -7.60568
3.5356 -10.3564 -2.82191
4.06303 -9.37532 -2.62638
15.5521 -11.6941 -4.96504
-7.26191 15.4719 -4.32693
-32.147 -42.8719 -13.5874
4.30393 -11.1242 -3.01903
4.25115 -7.6972 -2.23794
6.52394 -10.6417 -3.11315
44.3582 -13.4112 -11.5545
-28.7059 21.6575 -8.89072
-11.6952 17.1827 -5.12471
-28.0839 -40.9679 -12.2117
-10.0951 -39.7319 -10.1106
-24.8445 20.8675 -7.97377
4.34294 -10.3153 -2.75002
-12.236 17.527 -5.18346
-7.95749 15.5053 -4.20139
10.2539 -9.24914 -3.30656
39.9207 -13.2607 -10.0666
15.0622 7.5327 -4.00888
-6.43373 -36.84 -8.90733
3.96106 -9.07708 -2.34678
46.5097 -12.4479 -11.4276
-12.4429 -45.8117 -11.2442
3.84877 -11.039 -2.75552
4.90212 -8.68212 -2.34563
-12.9613 17.6634 -5.09933
10.9826 -9.62465 -3.33777
-6.28989 -31.893 -7.41635
-27.5573 21.284 -7.89339
41.1423 -8.99749 -9.55759
-30.9689 22.4851 -8.58085
-35.8665 -23.5042 -9.60792
40.347 -12.4725 -9.48242
5.44585 -9.45911 -2.43701
-12.4581 2.84267 -2.80379
40.2195 -11.7862 -9.26041
42.1681 -12.0318 -9.64801
-5.46033 14.3278 -3.35338
13.3505 -10.743 -3.77209
37.7301 -12.1252 -8.71278
-23.7265 20.679 -6.82738
-30.6765 -75.629 -17.7071
4.3019 -9.68259 -2.29775
4.53183 -9.1655 -2.2086
-14.7857 18.4216 -5.04508
-31.4163 22.8202 -8.29169
-32.3121 22.9307 -8.47014
-29.3316 -77.8194 -17.8236
-10.8428 16.9431 -4.26596
-8.60654 -36.5318 -7.97999
3.18442 -9.66754 -2.17062
3.9584 -9.80996 -2.25566
45.3067 -10.5043 -9.92837
14.8952 7.46074 -3.5315
-15.3703 18.9211 -5.16175
5.15609 -9.04099 -2.18673
26.2149 37.9285 -9.63358
14.9337 7.81551 -3.4991
-30.4906 -23.548 -7.99148
-11.6094 17.1053 -4.20157
-15.8374 18.7251 -4.99322
-35.7432 23.9934 -8.74808
43.9713 -9.591 -9.17811
-13.5817 -43.7014 -9.29965
4.12797 -9.71578 -2.14788
11.5742 -9.62134 -3.06242
-12.1636 17.4558 -4.24765
-20.5555 -58.993 -12.4836
-13.25 -41.1589 -8.55951
4.0619 -9.9022 -2.11923
-34.5186 -23.6035 -8.24312
-27.11 21.277 -6.78307
-33.5372 -23.9896 -8.03742
-6.99105 15.4492 -3.29222
-27.4379 -64.4692 -13.6078
-33.9433 -22.5971 -7.85759
3.4295 -9.34506 -1.92232
45.3883 -10.5161 -8.94692
-12.9196 17.6397 -4.18038
3.98205 -9.32829 -1.9357
-36.8729 -22.3976 -8.16637
-21.606 -35.0983 -7.83775
-15.9768 -46.0986 -9.23027
37.5629 -12.3911 -7.47774
-36.5218 24.529 -8.23374
-34.0866 -23.5409 -7.78173
-33.0274 -24.1641 -7.68155
-21.9122 -54.2848 -11.0137
-17.3027 -46.9982 -9.28875
3.81512 -9.19468 -1.8388
42.1543 -11.3613 -8.1077
5.74722 -9.69526 -2.0657
-25.2483 -57.2509 -11.4543
-20.9839 -52.0826 -10.1548
-14.7539 18.3912 -4.18117
-31.4633 -25.3758 -7.18461
-20.532 -27.3595 -6.11663
-40.012 25.248 -8.34784
-27.1211 21.2952 -6.00201
-34.5985 23.6755 -7.27932
3.90155 -10.0296 -1.86621
4.76539 -8.60088 -1.70885
13.9551 7.49425 -2.73171
14.0268 8.04918 -2.7695
-31.2674 22.7372 -6.62793
41.837 -11.8366 -7.40267
41.6406 -10.7845 -7.32284
-31.6204 -25.1125 -6.84952
-21.3392 20.3228 -4.94876
-20.9468 -52.0649 -9.48133
14.8074 7.42146 -2.77757
-32.152 22.7617 -6.58053
-24.2506 -57.8167 -10.3588
43.1373 -11.6208 -7.26188
-10.4872 16.6494 -3.1758
-21.2474 -52.7111 -9.06311
-35.3056 -24.3717 -6.75989
-23.0667 20.2661 -4.80824
-24.4914 20.9073 -4.99104
-40.7246 24.6573 -7.37737
-11.3662 17.0119 -3.15891
3.46549 -9.51087 -1.56563
3.8605 -10.2088 -1.69009
-7.7271 15.673 -2.66968
-31.5034 22.929 -5.95639
-32.126 -24.8132 -6.17235
-28.264 -26.4377 -5.86274
41.8258 -10.8734 -6.56927
44.4299 -9.67967 -6.92804
-6.63352 14.7758 -2.42406
9.81779 -5.14624 -1.64519
-33.8799 -24.436 -6.22049
10.1724 -9.1461 -2.03871
44.5672 -10.31 -6.79374
-37.0933 -24.6925 -6.55781
-31.8832 -26.2986 -6.04555
-12.9792 -43.0041 -6.60856
16.8531 -12.1932 -3.04725
-25.7198 21.1759 -4.84178
-25.4087 -56.9305 -8.98279
-7.72282 15.4685 -2.47277
-12.8703 17.5481 -3.10307
6.01907 -11.4994 -1.85487
-13.5819 18.1537 -3.1851
-35.208 23.7837 -5.97359
6.74346 -11.0151 -1.80531
37.2832 -12.3041 -5.52235
-31.5082 -25.2475 -5.6347
-33.4834 24.0628 -5.71219
-21.1254 -50.9153 -7.61289
44.7159 -10.0034 -6.31875
-6.96952 15.414 -2.31235
-23.3863 -61.0344 -8.87814
7.73787 -9.36423 -1.6303
-14.1788 18.1041 -3.10025
13.1781 -10.5105 -2.28096
-22.5042 20.4703 -4.09094
41.7469 -10.7937 -5.72495
44.445 -9.73524 -6.02259
-22.8866 20.1404 -3.98668
-33.063 -24.7405 -5.39353
-15.0812 18.4675 -3.08317
-34.5084 23.0325 -5.38643
-38.7491 -16.3614 -5.4306
7.00151 -10.4127 -1.61006
10.7357 8.78957 -1.78127
-34.189 -23.5608 -5.31328
-31.8792 23.2725 -4.99293
-35.9857 -22.4554 -5.31641
41.6154 -10.7624 -5.37962
6.78135 -10.3453 -1.54579
-7.7613 15.5244 -2.14956
-25.3396 21.2771 -4.05172
-33.8754 23.8743 -5.11221
6.27733 -12.0392 -1.65424
44.3984 -9.47227 -5.56087
14.9478 7.83126 -2.02865
-18.3639 -44.4763 -5.80171
7.07113 -10.5092 -1.52526
-20.6787 9.16452 -2.67707
-14.6727 -44.3837 -5.49597
-32.2119 -24.8349 -4.75578
-31.6926 -25.346 -4.7486
41.6951 -11.1689 -5.07363
11.2048 -9.64936 -1.71328
-30.2925 22.9691 -4.37383
6.62737 -10.7984 -1.45061
7.47652 -9.20499 -1.35657
11.5554 -9.70046 -1.71374
9.43699 -4.60378 -1.18901
14.9267 7.67039 -1.89115
-10.4824 16.6879 -2.22441
-32.643 23.8524 -4.52921
38.5638 -12.6947 -4.55334
9.33871 -9.00565 -1.4354
-11.2047 16.8048 -2.19594
6.77184 -12.7493 -1.56395
44.5381 -9.67968 -4.94139
10.7332 8.82004 -1.49695
16.7082 -12.4114 -2.23409
41.8876 -10.8638 -4.63723
9.60005 -8.96094 -1.39141
8.36532 -8.45029 -1.24571
-31.2478 -25.0055 -4.16715
-31.073 -62.3262 -7.26468
14.9239 7.4845 -1.70557
-32.1502 -24.7898 -4.16522
-13.0165 17.7442 -2.23474
-12.9305 17.3238 -2.14893
10.1863 -9.0691 -1.33618
-21.4502 -54.4753 -5.73934
6.29726 -12.0595 -1.31693
16.579 -12.1294 -1.97482
41.7772 -11.2261 -4.147
-31.6442 -63.9649 -6.78363
-21.4506 -56.2927 -5.72066
-23.6021 20.6444 -2.93144
45.2251 -10.0608 -4.32778
9.69715 -8.96912 -1.22287
39.3815 -12.9909 -3.86465
-15.205 18.6388 -2.17852
-29.9408 -13.6509 -2.99933
-33.3044 -64.9241 -6.72546
15.7999 -11.826 -1.79552
8.62085 -8.71165 -1.10991
12.8539 -10.6102 -1.45154
44.8151 -10.3873 -3.94122
9.3835 -9.01031 -1.09364
10.9261 -9.6218 -1.22385
-34.6372 23.787 -3.49656
16.7781 -12.2351 -1.72015
-17.3273 -45.0886 -3.86872
14.6332 -11.4422 -1.48145
-11.9327 -33.406 -2.79976
-30.2238 22.9808 -2.93623
-33.5564 23.7188 -3.17227
-23.3114 -53.2492 -4.48743
-52.0385 28.3215 -4.48627
-21.6517 20.3775 -2.16288
-33.7865 23.8982 -2.99918
16.3166 -12.1917 -1.49023
41.8019 -11.1862 -3.153
-40.6984 -77.0051 -6.28547
13.9301 -11.0215 -1.2714
-15.8968 -42.17 -3.11038
10.7412 -9.59257 -0.986777
-23.6267 20.6873 -2.12091
12.8323 -10.5886 -1.11384
17.8778 -12.9667 -1.47259
15.9812 -12.0879 -1.32356
-14.9897 -41.5604 -2.85785
43.5358 -11.3226 -2.8122
-32.849 -66.5573 -4.52925
35.5992 -8.63635 -2.24842
42.7243 -9.77886 -2.69111
6.02639 -13.0267 -0.858059
30.6667 -20.292 -2.20089
-9.9676 16.6395 -1.14043
-15.8916 -41.4545 -2.52794
16.5457 -12.3654 -1.15998
-9.72205 -12.6031 -0.87221
14.9141 7.65147 -0.906149
13.8577 -10.9697 -0.946576
-12.9387 17.5339 -1.13826
-16.8091 -41.6626 -2.38595
14.8085 7.78675 -0.819856
-16.6438 -42.5436 -2.24155
-14.3205 18.1512 -1.10567
9.54649 -9.00486 -0.601996
-24.6443 -56.5309 -2.79062
12.4164 -10.2072 -0.745299
-16.3909 -45.691 -2.15523
-17.5778 -43.3082 -2.00112
6.83146 -12.6143 -0.636584
-14.2443 -43.421 -1.94666
-53.4892 29.0892 -2.46621
18.2572 -13.1165 -0.912558
16.7352 -12.4392 -0.812275
-43.0351 -83.5272 -3.54508
-18.6867 -49.0028 -1.93169
-34.0879 23.4215 -1.51239
42.2787 -10.8936 -1.57247
-35.5801 -70.7751 -2.65056
-26.5766 -58.2427 -2.15572
19.9722 23.0988 -1.01347
-21.6952 20.3304 -0.968536
8.08193 -14.264 -0.550787
9.4031 -8.9767 -0.421474
11.271 -9.92246 -0.488218
18.5108 -13.0885 -0.745285
34.592 -13.0469 -1.22723
21.7271 26.3006 -1.09339
-27.5887 -13.8383 -0.96728
-23.1742 20.6366 -0.94545
-32.1098 22.7417 -1.22766
-25.6809 -59.041 -1.99437
-14.0887 -39.8563 -1.30228
-22.1104 -56.4006 -1.83452
-17.0111 -46.1037 -1.40814
-34.3665 -20.8372 -1.0703
11.42 -9.68804 -0.401285
16.2761 -12.1058 -0.534906
-41.6645 25.7749 -1.29161
-30.6861 23.3492 -0.953591
-31.2077 22.8713 -0.914326
9.54888 -8.98915 -0.303871
-41.823 14.455 -0.977581
-32.1212 -53.7873 -1.41129
21.1618 -14.153 -0.559842
30.2753 -18.358 -0.799495
14.1878 3.92093 -0.300157
26.8749 46.9627 -0.993825
23.43 -10.9079 -0.455363
46.7338 -10.7612 -0.892401
-30.9359 -22.2316 -0.694564
-29.9291 -29.3964 -0.665215
-19.4205 -47.653 -0.857301
12.684 -10.4304 -0.2703
18.4392 -13.324 -0.347866
-29.5003 -13.1122 -0.423618
-33.184 -24.8341 -0.576602
-34.4095 -69.3669 -1.046
-28.4914 -60.6388 -0.918593
-34.2911 -23.419 -0.542037
-30.7064 23.3609 -0.453767
16.9296 -12.6426 -0.251055
29.1121 -18.0509 -0.403425
-31.1632 22.8781 -0.429954
-19.4857 -44.6893 -0.522017
-12.2487 -36.8671 -0.391591
-34.2356 -60.3223 -0.639535
-14.4943 18.3856 -0.179365
-26.9057 -13.5651 -0.243101
-15.1919 18.5187 -0.163467
-22.8236 20.3835 -0.157045
-21.2444 19.9265 -0.132088
-10.6049 -13.6335 -0.0606022
14.6767 7.71004 -0.0198744
11.0806 -9.74342 -0.00783237
-34.8347 -19.0797 0.0607788
-11.5445 -34.3105 0.117441
16.8904 -12.2714 0.0904889
-19.196 -44.0702 0.21315
18.6991 -13.1749 0.121351
7.15377 -12.2971 0.103785
25.8749 -10.6159 0.171883
-56.207 20.0698 0.569931
16.1875 -11.9966 0.192266
37.2004 -7.59489 0.358118
-29.2942 -8.2603 0.356314
-36.6737 -22.1355 0.472582
-11.5208 -33.0084 0.374577
-12.9398 -35.8567 0.453373
-10.458 -32.1454 0.405173
6.30741 -12.8924 0.183208
7.19545 -11.085 0.173745
-28.5468 22.4084 0.556367
11.2847 -9.85538 0.225203
-24.4147 20.8788 0.530876
10.8738 -9.70897 0.228752
12.9337 -10.6474 0.263877
36.1617 -7.73907 0.615122
-34.9276 -23.4009 0.76483
-31.6473 22.6279 0.764656
6.12062 -12.788 0.275103
7.00452 -11.0231 0.251604
8.01064 -9.39994 0.24116
26.7851 55.0762 1.33267
7.71407 -9.42547 0.275353
10.1074 -9.15466 0.32897
-29.0293 -9.30854 0.734605
-23.5949 20.5947 0.848072
-27.9372 22.0283 0.955612
-29.1585 -8.7553 0.802551
9.17178 -8.87807 0.344806
9.60488 -8.927 0.357413
-25.9158 21.842 0.921633
25.2547 -5.10906 0.717338
12.9434 -10.6182 0.498667
14.6469 23.8609 0.86408
6.16805 -12.7244 0.444997
7.43668 -11.5926 0.432206
-28.6775 -8.08798 0.977937
-12.702 -19.4483 0.765207
-28.3572 -8.86303 1.0275
16.0285 10.9707 0.702132
-30.1018 -18.6529 1.23791
15.5597 27.0284 1.1133
-30.7182 -16.7559 1.29683
23.4308 -4.23099 0.860188
-28.0867 -19.9757 1.2772
-7.31231 -7.97293 0.408399
9.03366 -8.80914 0.46901
12.35 13.5097 0.705942
25.3461 52.2868 2.20106
24.2269 51.5815 2.14637
-11.5979 -9.18027 0.583388
8.7068 -8.65256 0.485566
-25.9987 21.4166 1.36826
21.7448 -2.94699 0.888994
-29.0566 -17.649 1.39285
9.39473 -8.90801 0.530804
12.3699 14.2466 0.811921
6.55484 -12.4135 0.596136
14.7192 19.1254 1.0612
20.5053 28.3232 1.53167
-9.53922 -13.8701 0.739916
-10.0355 -15.6951 0.826912
7.57818 -10.9222 0.585696
8.60795 -8.69721 0.552969
24.0725 -3.68768 1.09954
-30.1007 -8.77177 1.43141
6.72434 -11.0546 0.59535
-8.29556 -8.16381 0.547895
20.8547 42.0766 2.24706
-28.816 -17.8094 1.60138
-9.81375 -13.7656 0.804649
9.63953 -8.94378 0.619317
15.0558 41.8388 2.15268
-30.5157 -13.5163 1.59321
-6.77842 -8.26388 0.526058
14.2535 33.1468 1.84132
-29.9924 -11.7451 1.61669
-7.60966 -6.99734 0.522717
-6.71411 -7.61116 0.513573
15.8696 28.7476 1.70526
10.4716 12.2446 0.870862
14.0758 19.1548 1.27646
9.32487 -8.90624 0.690873
14.6608 19.0756 1.32858
15.0817 23.2935 1.52818
-27.8594 19.6158 1.86845
-6.98985 -8.21457 0.598274
-26.7849 20.552 1.87793
6.07033 -12.8171 0.793532
-7.12583 -9.1833 0.662978
9.88101 12.342 0.929958
14.6934 24.7566 1.68206
6.43715 -12.9285 0.831214
13.6552 22.2781 1.54359
-8.28234 -8.14121 0.699892
11.4548 11.5339 0.969508
14.5091 19.2972 1.45071
-7.42109 -10.046 0.776853
6.98865 -11.137 0.801294
11.228 -9.68476 0.898887
5.85032 -10.7246 0.75811
-7.21056 -6.66479 0.613747
14.3046 20.2921 1.57104
16.057 7.1275 1.14073
-7.05116 -6.16065 0.614592
6.4371 -13.3923 0.990313
9.25263 20.9 1.54198
10.3334 12.455 1.10648
13.4007 18.0193 1.56638
12.2344 20.2845 1.63925
11.2598 11.8943 1.14973
6.58132 -9.81499 0.836875
11.4087 11.6723 1.18129
9.78173 -6.90494 0.851943
12.2648 11.8734 1.25383
9.89778 -8.35853 0.949044
-6.19779 6.71727 0.682819
10.3658 9.12733 1.03761
11.7818 17.6157 1.59464
11.3333 18.0562 1.6064
-6.96244 -7.71746 0.806138
10.7118 18.4884 1.63953
9.48616 -8.9312 1.00689
-6.42611 -4.30595 0.610311
9.05738 18.1462 1.62074
10.0539 -6.87979 0.975443
12.3603 11.468 1.36309
9.60774 18.6543 1.68966
-7.28807 -9.66702 0.986219
6.70034 -9.35585 0.936436
12.1478 11.6211 1.37758
12.0511 11.8518 1.40367
11.3314 11.8439 1.3571
-5.07137 -11.5747 1.06302
10.2218 12.7888 1.39313
-6.97499 -6.09504 0.798043
-6.83181 -6.71044 0.809074
-5.23247 -11.476 1.07261
-7.31974 -7.7672 0.919259
9.26057 -7.23721 1.01545
-7.13991 -8.07961 0.943752
-7.03483 -7.71005 0.918066
9.30609 12.4217 1.37614
-6.97144 -8.39542 0.975073
10.7439 9.01484 1.27826
10.3663 13.3513 1.52726
10.4535 9.1809 1.27366
7.63549 13.8601 1.45554
-6.51519 -8.15716 0.956677
-6.92388 -9.04578 1.05154
11.1144 10.7195 1.42484
11.1747 9.11742 1.34967
10.7864 10.7215 1.42572
6.4049 14.8009 1.51545
-11.4794 2.94087 1.11174
-6.37103 -4.17728 0.713978
-6.81986 -6.307 0.861625
9.34333 13.1768 1.5583
-6.06746 6.59301 0.882857
7.94479 -6.59622 1.00639
7.85262 13.0934 1.51661
-7.08648 -7.6368 1.04973
9.23032 11.5414 1.49068
6.93947 12.3213 1.43517
6.99178 12.8809 1.49414
9.47023 9.03242 1.35445
5.79244 13.8085 1.55201
9.06011 12.3224 1.59464
-6.11569 -4.46295 0.793818
5.89226 13.5393 1.55533
6.15179 13.4751 1.5573
-6.98212 -4.43518 0.885001
8.70932 8.95824 1.33206
9.06946 10.1036 1.47665
7.26855 10.9139 1.4251
5.77205 11.3688 1.38621
-6.31289 -7.42652 1.06556
10.2126 6.41833 1.33463
8.93634 8.08814 1.3287
7.24808 11.5857 1.50905
6.78562 11.5329 1.47942
5.30419 11.7784 1.43718
4.81816 11.9763 1.44421
4.64442 13.5068 1.57123
9.81147 7.01525 1.34684
8.69839 9.2463 1.4186
5.33092 11.4065 1.41783
-6.8556 -6.7374 1.07006
6.81133 10.6315 1.42236
4.26591 13.0132 1.54765
9.73199 -3.18906 1.14189
-6.1131 -5.42198 0.946263
7.27758 -6.11017 1.07868
10.3623 5.68558 1.35568
-7.39403 -0.987486 0.855164
-6.26671 -5.36415 0.949745
5.24165 -5.54988 0.879506
5.01776 11.5092 1.45847
-6.89405 -4.56652 0.95852
4.44734 -7.25178 0.98382
10.3574 5.12376 1.35606
8.83034 7.83736 1.38606
-6.00975 -4.37384 0.866521
-6.49597 -5.28175 0.989311
4.08565 -7.85372 1.05287
4.96104 -5.84364 0.919666
10.1197 4.73186 1.33924
8.46491 8.21968 1.42919
5.22461 11.3822 1.52873
8.99792 6.23333 1.34027
7.96022 8.28432 1.43923
-6.5006 -5.75636 1.08115
3.70185 -7.56346 1.0547
8.62898 6.65329 1.37022
-6.47812 -5.35296 1.06383
9.04435 5.98237 1.38449
8.13722 7.10024 1.37789
8.06649 7.46341 1.40322
5.76973 -5.33874 1.00922
-6.9836 -4.45058 1.06329
8.0519 7.94994 1.46769
-7.37023 -1.0442 0.962181
-6.93393 -2.83082 0.978447
8.93903 4.08434 1.28711
8.35775 6.5936 1.39754
4.99284 -6.02134 1.02819
4.91091 -6.18553 1.04585
6.86066 -4.27673 1.07613
-7.1452 -1.72112 0.98567
-7.02082 -2.22355 0.984974
-6.03362 -4.42842 1.00087
8.09226 6.62339 1.4177
8.57439 4.42128 1.31533
8.59253 5.14377 1.3679
7.98374 7.09843 1.45413
-6.81887 -3.73925 1.0563
8.82567 4.14275 1.33458
8.22548 5.80554 1.37875
-6.40731 -4.33541 1.05891
-5.96552 -4.53123 1.02339
5.31955 8.96414 1.43971
3.60507 9.97307 1.47253
-7.38043 -1.09485 1.03368
-6.91489 -3.93316 1.10434
4.94428 -5.53839 1.02605
5.22319 -5.39304 1.04201
7.45301 -3.53201 1.1534
3.35017 10.0469 1.48378
8.36768 4.57964 1.3494
7.3649 -3.67309 1.1675
7.57607 -3.33009 1.17984
7.75018 -3.30071 1.19528
8.90795 2.80487 1.34424
4.82932 -5.63021 1.06621
7.34381 -2.84922 1.14681
-6.96906 -3.30518 1.12463
7.90581 -2.77528 1.22162
8.64818 -1.81661 1.29714
4.9741 8.51621 1.45573
2.92304 9.34262 1.4561
7.72043 -1.88506 1.17125
7.19752 5.73202 1.37094
3.42243 9.4677 1.48795
3.15392 9.69556 1.51082
-7.38279 -1.04514 1.10603
-7.08539 -2.02619 1.09869
6.91474 6.2595 1.4082
-6.27114 -2.27459 1.00151
-7.25189 -1.37753 1.11472
7.90809 4.79874 1.40926
5.6784 7.31691 1.40526
5.26235 7.58753 1.4053
5.02557 7.96411 1.42371
6.75197 -3.22208 1.13141
7.2369 -3.12066 1.2069
7.62506 -2.75151 1.23528
-7.32923 -0.734205 1.12534
-7.10815 -1.95748 1.13837
6.78147 -3.08937 1.15243
3.74942 -5.78596 1.06612
-7.06369 -2.07913 1.15482
-7.35836 -1.09472 1.16861
7.33333 4.75655 1.38054
-7.20993 -1.44579 1.17041
-7.28327 -1.30319 1.18763
-7.10827 -2.02209 1.20225
7.04331 4.74534 1.38635
-7.11198 -1.94841 1.21179
6.98287 4.84649 1.41186
6.59039 4.83391 1.36393
5.18264 6.21469 1.34802
4.64706 7.13197 1.42158
3.79546 7.8775 1.45332
-7.26082 -1.37571 1.23413
2.79321 -5.77854 1.08192
7.11645 4.41277 1.41064
6.48768 5.21747 1.40451
3.87358 -5.36518 1.11568
3.93689 -5.02128 1.08011
-7.28412 -1.25446 1.25434
-6.60694 -2.62868 1.20686
7.3953 2.83964 1.34361
7.00699 3.87843 1.3648
-6.42236 -2.75647 1.1895
6.75178 4.08482 1.3547
5.67947 -3.51778 1.14985
-7.40854 -1.04135 1.29429
-6.36487 -2.28331 1.16298
5.53267 -3.64619 1.14213
5.31686 -3.77254 1.14269
3.57365 7.11583 1.40056
-6.80922 -1.73766 1.23463
4.47971 -4.46713 1.11333
-7.10358 -0.916098 1.27642
4.72443 -4.45703 1.14938
4.30628 6.45927 1.38518
6.5662 3.46337 1.34063
6.60486 3.67095 1.35747
-6.44998 -1.50256 1.19163
3.60929 -5.32697 1.17049
5.05603 5.58887 1.3799
-6.16254 -2.1859 1.19883
3.41407 -5.15997 1.15061
3.36684 6.72933 1.40759
-1.69717 -5.78028 1.14453
6.42772 2.72469 1.32856
-2.14279 -5.72658 1.17564
6.29231 2.78856 1.32501
-2.7874 -5.37645 1.18699
-3.54278 5.38038 1.3967
4.45716 3.88159 1.34884
4.15199 -2.87934 1.17723
4.6284 -2.18617 1.23679
4.18862 3.28315 1.31822
3.70913 -2.93159 1.22435
4.01 2.56921 1.3304
-1.44233 -4.11575 1.22141
-2.32042 -3.57882 1.21248
3.85267 2.35983 1.30883
-2.87046 3.53811 1.36687
-2.48016 -2.91603 1.18952
-2.3776 -2.93714 1.19443
1.84509 -2.81483 1.18317
1.86806 -2.79293 1.21318
1.99405 -2.52887 1.19938
-2.04792 2.81393 1.32447
2.80417 -0.55575 1.25915
2.78325 -0.336854 1.24076
-2.08882 -1.6189 1.21312
-2.07664 -1.45108 1.23825
-1.8616 -1.79546 1.28344
-1.9943 -1.13127 1.20478
-1.98583 -1.07024 1.23163
-1.94572 -0.880281 1.23193
-1.93017 -0.708357 1.2223
-1.92905 -0.701463 1.24953
-1.90552 -0.469665 1.22246
-1.87097 -0.345682 1.21972
-1.85578 -0.401143 1.2264
2.3776 -19.6992 -10.0125
-7.61852 -8.99467 0.466198
8.00871 -8.78946 -10.4555
8.25513 -8.62053 -10.4926
8.20684 -8.2817 -9.87571
6.95012 -11.9444 -11.398
8.50599 -8.96292 -9.7299
7.84183 -8.92773 -9.12576
5.84459 -12.7873 -10.7202
9.41442 -8.82229 -9.73185
6.14175 -14.0826 -11.5663
8.27757 -8.66898 -9.01208
8.00849 -9.15851 -9.09817
7.28392 -9.23571 -8.76378
5.9038 -14.1388 -11.1796
7.70925 -9.2952 -8.71424
7.84656 -9.10647 -8.65931
7.12059 -10.5689 -9.07363
6.81191 -11.0602 -9.20899
10.037 -9.17806 -9.55247
6.53161 -11.1624 -8.85432
8.02383 -8.61805 -7.84131
7.35162 -9.2697 -7.86257
8.5055 -8.6707 -8.07368
7.71031 -9.46074 -8.01838
6.47867 -12.7586 -9.34439
7.92333 -9.16945 -7.90416
4.99841 -16.0291 -10.7997
-0.47188 13.9425 -8.9201
7.71822 -9.23333 -7.71731
7.32508 -10.849 -8.33528
8.36705 -8.5552 -7.62408
10.8554 -9.60323 -9.19349
8.97753 -8.80735 -7.88772
11.7401 -10.0114 -9.6701
8.06232 -8.52491 -7.21898
4.03937 -16.8393 -10.6137
4.24622 -15.3705 -9.79158
7.83431 -9.3469 -7.30917
3.95084 -15.6258 -9.6114
11.4555 -9.80724 -9.03232
6.85457 -11.062 -7.72769
7.76299 -8.80937 -6.95589
5.48105 -13.9828 -8.87406
6.47974 -12.6903 -8.33936
8.35149 -8.58376 -6.97948
9.67225 -9.06665 -7.73057
2.78787 -11.7853 -6.94231
5.46986 -13.8769 -8.44623
9.57916 -9.09063 -7.46567
6.60891 -11.0559 -7.25305
3.35015 -20.722 -11.7642
8.86637 -8.92673 -7.05333
12.1623 -10.204 -8.89452
6.81453 -10.9918 -7.20526
4.67716 -14.5956 -8.47099
6.2131 -12.6052 -7.73135
0.897403 18.556 -10.1116
14.5726 7.70005 -8.9536
4.19866 -14.2278 -8.01243
14.6791 -11.616 -10.0913
14.9247 7.41625 -8.87568
13.9667 7.69499 -8.47125
4.76032 -14.8347 -8.27874
12.0539 -10.1258 -8.28493
1.81415 -20.5099 -10.593
11.3894 -9.82927 -7.70794
2.0816 -20.2322 -10.321
0.00663383 14.2789 -7.16651
-7.34296 15.2669 -8.49236
10.5716 -9.58015 -7.16904
7.50297 -9.411 -5.99689
-8.56361 16.2379 -8.87464
11.6129 -9.75301 -7.34058
10.4725 -9.56498 -6.81096
14.7357 -11.2974 -8.95666
16.6115 15.735 -10.8678
7.46996 -11.0412 -6.35185
14.959 7.39109 -7.82738
13.8857 -10.9957 -8.27878
-12.0413 17.2449 -9.63922
15.7817 -11.9583 -9.04657
9.76276 -2.44776 -4.62301
-9.12863 -1.65957 -4.21947
18.6033 17.9509 -11.6621
3.90961 -9.09087 -4.49178
-10.2849 16.8039 -8.85004
-5.36014 4.45776 -3.13589
6.8452 -11.2699 -5.93665
9.41107 -9.07058 -5.76512
15.9577 7.27953 -7.73668
-6.67426 15.1625 -7.23811
1.49932 -18.748 -8.1349
-11.2582 17.1318 -8.82901
9.56939 -3.36595 -4.34465
7.00461 -11.0257 -5.52251
15.767 -11.9191 -8.27435
14.5964 7.71577 -6.92382
18.6299 19.3817 -11.2326
1.02065 -22.6687 -9.44678
-4.55317 13.9338 -6.04168
-9.956 -1.11356 -4.15208
14.0376 7.75102 -6.54596
20.2939 22.0742 -12.2191
-13.1144 2.45772 -5.43579
15.0591 7.15486 -6.74159
-5.25085 14.3949 -6.16485
3.63416 -8.79852 -3.78934
13.8957 -10.972 -6.91983
19.1671 21.4505 -11.1558
18.7322 5.77629 -7.60012
1.53713 19.1902 -7.46247
-8.79269 15.8459 -6.98887
11.3732 -10.028 -5.83269
19.0973 22.1397 -11.2594
0.683887 15.3545 -5.8847
-1.66459 12.7944 -4.96456
2.71208 -12.2401 -4.81031
-8.78678 -1.25496 -3.37391
0.703535 -23.7392 -8.96123
15.1258 -11.5916 -7.18762
9.4786 -3.45859 -3.80589
-7.90442 -3.51131 -3.17236
1.09658 -10.4685 -3.87107
7.01532 -11.2164 -4.83849
14.1436 7.8971 -5.847
-8.30796 -2.85242 -3.15873
0.790182 15.2587 -5.44681
-3.97676 13.4558 -4.9663
5.72735 -10.9682 -4.3549
15.7721 -11.9197 -7.0028
19.0026 5.86894 -6.996
2.10041 20.4838 -7.21798
21.4347 25.9116 -11.6832
-15.0003 18.518 -8.18266
2.96456 -13.3113 -4.69444
-8.957 16.1829 -6.32374
18.389 -13.0247 -7.72437
-5.06954 14.5713 -5.24862
1.3629 -22.3209 -7.41017
1.75471 19.5355 -6.47735
1.44792 -10.3196 -3.44402
38.7455 -19.8061 -14.2822
6.15897 -10.0313 -3.76824
17.4855 -12.3464 -6.85657
2.11142 20.5851 -6.58349
-13.4597 17.9707 -7.08174
1.45595 -22.8321 -7.128
-4.32875 14.8253 -4.80181
-11.0368 16.7246 -6.07565
-2.78432 -28.3178 -8.64312
3.06001 -9.45713 -3.02115
0.796731 -24.4151 -7.34577
19.0205 -13.5008 -6.92216
17.5319 5.54636 -5.39484
-7.94601 15.3852 -5.04369
4.2204 -10.4734 -3.28213
3.61319 -10.5472 -3.17357
4.23168 -10.9211 -3.28828
-13.4201 17.9389 -6.23442
-9.35979 16.0023 -5.04596
-13.2877 1.99188 -3.68429
-17.0679 19.6106 -7.06167
26.1122 -17.1903 -8.47231
-3.97894 -28.3633 -7.67981
3.77775 -9.13328 -2.64472
-9.87671 16.4203 -5.103
46.7573 -13.6523 -12.9176
10.5065 -9.3708 -3.72696
-6.49883 15.0506 -4.28531
-14.5345 18.224 -6.11926
-8.13898 -38.5005 -10.2484
4.94832 -9.55269 -2.785
6.54353 -10.4726 -3.18624
-7.26954 15.4314 -4.33875
-10.6378 16.5704 -5.03374
-10.0785 -39.9346 -10.2406
-9.22174 -39.8056 -9.9755
10.9116 -9.61893 -3.57716
-8.03085 15.5888 -4.2547
-11.8231 17.186 -5.05196
14.5535 7.68756 -3.90588
4.0395 -9.23643 -2.38621
15.1551 7.50544 -3.98491
3.74041 -8.89374 -2.26829
-6.62012 -32.977 -7.78728
5.61353 -9.86217 -2.6305
44.2999 -10.7204 -10.5946
-12.9161 17.5946 -5.02626
14.8092 7.58422 -3.76364
43.3585 -9.37948 -10.0501
-9.87206 16.4457 -4.29552
3.70581 -9.23144 -2.16452
42.5316 -10.9109 -9.58434
15.0665 7.4744 -3.60097
-10.7288 16.7488 -4.26253
-22.2186 -34.9294 -8.89265
4.80922 -9.72749 -2.3414
44.586 -10.4396 -9.79834
-14.9186 18.4842 -4.99942
-32.5524 -24.0265 -8.57518
41.2849 -13.8138 -9.2111
14.7923 7.81649 -3.48859
-35.9386 24.3035 -8.87261
-8.52371 -34.862 -7.26635
3.93872 -11.4684 -2.43802
44.1231 -9.51975 -9.1817
11.7427 -9.72008 -3.05746
42.553 -10.9544 -8.75703
-27.2626 20.573 -6.7803
6.12623 -10.2539 -2.3785
45.4561 -10.6297 -9.11852
-12.9079 17.6126 -4.22164
-27.1443 21.2727 -6.70253
15.9634 12.0748 -3.82488
-6.95001 15.3012 -3.22834
-33.468 -24.2077 -7.90563
-31.9587 -25.0258 -7.80025
-36.1672 24.1003 -8.1851
-33.971 -22.4094 -7.69017
17.9478 5.64266 -3.51118
-34.495 -20.8132 -7.52338
-15.3855 -44.3568 -8.74486
3.76078 -9.79575 -1.97606
-25.3071 -63.0034 -12.6254
-17.1669 -46.2465 -9.02163
3.96678 -9.61487 -1.87637
13.0266 -10.179 -2.98179
44.9504 -10.0027 -8.27249
-14.8835 18.4598 -4.2384
-27.3003 21.412 -6.12642
15.0273 7.95465 -2.96091
-30.6207 -26.6837 -7.07883
42.4128 -10.8638 -7.51772
-8.01316 15.4379 -2.94813
-9.86015 18.1603 -3.49269
44.2317 -10.4121 -7.68477
-31.1181 22.6664 -6.48215
-30.5743 -23.5222 -6.44711
-21.0293 20.1075 -4.84163
-32.7641 23.1388 -6.69231
15.8573 -11.8317 -3.2427
-10.4353 16.5679 -3.11645
-44.0419 25.9156 -8.10776
-31.9741 -24.0201 -6.40188
-33.8368 -23.3395 -6.47378
3.42555 -9.47424 -1.5758
-24.0302 20.5277 -4.88159
16.8399 -11.9047 -3.19503
-11.2826 16.8865 -3.08669
45.5885 -10.6842 -7.10774
-23.4992 -54.4573 -8.96091
-29.8556 22.391 -5.58063
-38.9403 24.2801 -6.8118
-32.002 -24.8412 -6.04362
44.2379 -9.47987 -6.73723
-34.1301 -24.6832 -6.15408
-50.8332 28.3822 -8.37162
-35.9573 -23.984 -6.22119
6.70448 -12.8663 -2.10725
-7.02833 15.4968 -2.36477
-13.2525 17.8901 -3.09871
-32.5989 23.4698 -5.61505
-25.3144 -56.3759 -8.52059
-16.5652 -48.4251 -7.03766
36.4106 -12.1088 -5.26317
-23.441 20.5989 -4.15271
-32.6383 -24.4424 -5.32326
-30.9817 -25.4164 -5.29788
-34.2893 -23.6152 -5.33286
7.43037 -9.41142 -1.55074
42.4654 -10.8701 -5.62537
-33.9662 23.1132 -5.22365
-30.0447 -16.0321 -4.34071
6.03285 -7.81292 -1.26098
44.372 -10.4291 -5.77952
-31.5037 23.1533 -4.87895
14.4534 -11.2604 -2.2514
-30.4089 22.9031 -4.6055
-33.0511 23.364 -4.87346
-10.4729 16.6571 -2.27414
-31.8539 -22.9098 -4.61603
12.9516 -10.4751 -1.95028
35.5287 -11.7402 -4.33035
6.32784 -10.3191 -1.3916
11.1649 -9.67509 -1.66479
16.3768 -12.1932 -2.30122
-11.1895 16.7784 -2.23375
6.73491 -12.5488 -1.56108
11.5701 -9.66216 -1.66962
42.3066 -10.8486 -4.79573
-39.6308 24.7102 -5.01248
44.4313 -10.3823 -4.91349
14.862 -11.4123 -1.99391
-13.1019 17.701 -2.26252
14.714 7.78789 -1.66335
13.9571 -11.0104 -1.77616
-14.1641 18.1153 -2.23077
6.37837 -12.2234 -1.3276
9.38479 -8.90183 -1.25042
16.9431 -12.3889 -2.04891
-29.1247 -13.9173 -3.04066
-15.1536 18.5564 -2.23366
-38.4275 -74.8637 -7.83266
-34.3456 -21.4916 -3.58731
16.072 -12.0432 -1.80767
38.1769 -12.7027 -3.60168
11.0838 -9.85258 -1.22577
42.7037 -10.9144 -3.67675
-16.5878 -43.1657 -3.71428
-41.6213 -81.3848 -7.12055
17.5362 -12.7785 -1.71405
-30.6172 23.1719 -2.93683
7.432 -9.1549 -0.912907
-33.3426 23.6021 -3.0344
-16.9641 -41.9663 -3.38294
-38.1041 -71.7025 -5.77471
-37.0342 -74.1737 -5.67949
12.5337 -10.4307 -1.09783
16.9966 -12.3793 -1.42179
-40.0948 24.9601 -3.08771
42.9528 -10.9968 -2.91097
-28.9176 -13.5978 -1.91352
-41.9836 -81.1106 -5.53147
14.457 -11.2705 -1.10483
30.8746 -20.3386 -2.0211
30.8553 -19.4469 -1.99426
15.283 7.54795 -0.884157
14.7241 7.80761 -0.856649
-13.0279 17.7784 -1.11844
-25.4301 -56.1169 -3.16579
-44.043 -83.0064 -4.58947
9.63445 -9.07375 -0.662109
13.4071 -10.6619 -0.841589
15.8894 10.1081 -0.88939
16.1771 11.3386 -0.919466
6.80309 -12.4774 -0.676055
-20.1475 -5.94487 -0.901718
-30.6887 -54.6903 -2.7674
10.1869 -13.7528 -0.699809
17.9679 -12.9574 -0.905671
42.1881 -10.7764 -1.73324
-9.43107 -12.4737 -0.603225
43.6864 -10.2298 -1.76478
21.9101 26.3405 -1.16802
-33.2307 22.7162 -1.39462
-36.9341 -20.7111 -1.37835
-18.7002 -46.6049 -1.61404
16.4123 -12.2444 -0.668384
14.3419 3.88477 -0.438108
-26.7813 -61.5403 -2.01327
-23.1237 20.5983 -0.884255
-12.6242 -38.2799 -1.08438
42.6014 -9.04973 -1.21826
-42.8288 26.6395 -1.36293
-55.5139 19.9618 -1.41252
43.2695 -10.0475 -0.955856
-31.5191 23.8202 -0.789053
-30.7771 9.78926 -0.674786
30.5311 53.4547 -1.13021
-30.7536 22.6969 -0.731458
12.9294 -10.5941 -0.28979
-35.0765 -21.829 -0.640314
-31.6328 -63.617 -1.05847
17.4102 -12.5558 -0.312107
-12.9053 -39.0156 -0.530988
-14.4496 18.3429 -0.237605
-20.6132 -47.3734 -0.562253
29.9918 -18.7848 -0.319597
-23.1124 20.6213 -0.209555
-9.97087 -12.7973 -0.049013
6.99445 -11.6674 -0.0235991
14.5518 7.6098 0.000715501
-36.1084 -22.2968 0.226234
-24.3793 -41.6677 0.355093
-54.7445 29.9895 0.639549
6.66538 -11.8263 0.140605
7.98915 -9.08359 0.120872
-41.7843 -22.2148 0.520358
-11.7013 -33.1372 0.391251
11.0685 -9.64849 0.192458
-23.4971 20.0769 0.407719
-12.4959 -19.3879 0.335191
-31.7668 22.6049 0.695707
-35.7745 -23.9839 0.770873
-35.2874 -26.0684 0.765523
10.6042 -9.52962 0.232603
7.77049 -9.57828 0.265035
7.87757 -9.1945 0.261251
-73.0868 25.308 1.80975
18.0073 -13.0716 0.541706
-29.0205 -8.71858 0.811415
-28.4855 22.3382 1.04407
11.5462 -9.8923 0.414683
17.1955 -7.45373 0.533619
-25.4449 21.5802 0.994671
-7.93806 -9.30862 0.389477
12.5943 13.6929 0.66192
6.11224 -12.5937 0.492624
8.88729 -8.74527 0.42608
24.3832 -4.32073 0.82819
18.3262 17.5012 0.915355
13.6224 23.5818 1.0246
-58.184 19.1249 2.20658
24.1936 -4.69977 0.933686
-25.9159 21.1702 1.26637
9.35384 -8.89849 0.49915
22.2433 -3.06445 0.848291
12.0981 14.0123 0.758171
14.5843 18.8445 0.976214
6.48727 -12.2998 0.570891
17.3744 40.1572 1.82746
7.62079 -10.9817 0.563542
-7.57911 -7.46069 0.470086
-8.32514 -11.518 0.635092
-29.9242 -11.846 1.5332
16.2566 10.5534 0.966178
-7.75612 -7.21671 0.507593
15.032 23.3537 1.43551
-6.98188 -8.21914 0.593017
14.3436 19.6415 1.33321
-26.5539 20.4472 1.85467
14.1689 23.0752 1.56841
-7.15724 -9.22619 0.667415
6.77705 -13.43 0.863652
9.80685 12.3356 0.933059
14.4997 19.2646 1.51206
14.7097 26.1795 1.84946
10.0503 28.1855 1.90357
-7.34146 -10.0202 0.79478
9.31035 21.2173 1.55559
11.331 9.96719 1.07591
11.346 11.9981 1.16599
13.537 15.6423 1.48072
8.1459 -12.5568 1.05675
10.6816 8.91642 1.024
12.7456 14.2954 1.4334
-14.5057 8.55426 1.27435
-11.19 2.10805 0.862003
12.2718 15.9744 1.56364
11.4008 18.1695 1.66613
10.0608 -6.88507 0.95196
-7.70523 -8.15104 0.897519
12.6284 11.4313 1.38968
11.7374 11.4826 1.36331
-7.03186 -6.18699 0.761359
-7.08553 -6.92853 0.822257
11.3486 11.8462 1.41489
10.5463 9.29028 1.27791
-11.4674 2.9364 1.0885
-7.65183 -7.127 0.939694
11.5421 8.90599 1.39619
9.10066 12.8693 1.51378
7.0868 13.04 1.45481
8.3072 12.916 1.54026
-6.76852 -6.7448 0.95006
7.8431 -6.51939 0.998314
9.56938 11.9859 1.53738
9.83771 10.0493 1.45265
-6.90441 -5.41993 0.913744
9.52676 9.07169 1.40262
8.10021 11.0127 1.43321
6.65901 12.9119 1.54798
9.50707 8.29597 1.3358
9.08799 10.1221 1.48208
5.60018 12.3358 1.46664
-6.41198 -7.55149 1.07076
6.6005 11.2339 1.4337
5.15295 12.9112 1.53376
-6.84572 -3.99262 0.875506
-6.71886 -6.0979 0.999964
3.91322 -7.75539 0.961758
5.43137 -6.08503 0.916491
9.28025 7.47083 1.33918
8.9736 9.54982 1.47792
7.82441 11.1444 1.52231
6.69259 10.562 1.42602
-6.8997 -4.58294 0.939758
4.69781 -7.66493 1.03884
-10.7208 7.18699 1.49897
-7.10963 -2.13905 0.864445
8.94604 6.04334 1.28459
5.80141 11.8404 1.55832
4.89941 11.3302 1.45594
4.76654 -5.85467 0.888677
4.10451 -7.86974 1.07936
8.28952 3.83953 1.14522
10.8807 5.42713 1.49456
4.47636 12.4542 1.64727
-6.17574 -5.40327 1.00678
-9.18154 1.30879 1.1566
8.18441 7.48549 1.40387
-6.45594 -5.33561 1.0597
7.71716 8.10539 1.43896
-6.90638 -3.5831 1.00786
4.96058 -5.95745 1.00092
5.01634 -5.4196 0.96296
8.33168 6.85487 1.42932
7.86903 7.78105 1.47249
-7.22478 -1.72907 1.00145
-7.05133 -2.2158 0.990925
-6.50408 -4.38537 1.04248
4.82287 -6.07935 1.03273
8.31979 6.30546 1.42002
-6.86971 -4.23027 1.08749
-6.06463 -4.45621 1.01254
4.94299 -5.53004 1.01856
7.3951 -3.51246 1.13954
8.3096 4.21877 1.32378
8.27145 4.54521 1.33931
-6.9595 -2.91535 1.07936
7.46194 -3.72427 1.19091
7.00349 -3.04931 1.07759
4.93371 -5.78027 1.09707
8.16881 -1.72849 1.20929
-6.97893 -3.26702 1.14337
7.33328 5.52578 1.37919
5.69505 7.35277 1.40477
7.93629 3.88884 1.35051
7.85668 4.16658 1.35219
5.37405 7.71676 1.42972
5.01499 8.56639 1.49977
3.43957 9.40814 1.51106
-7.02831 -2.83483 1.15587
7.66198 -2.78736 1.24895
7.82526 -2.23004 1.25577
7.77522 -2.0115 1.24104
7.41575 4.17688 1.37248
7.0194 4.71993 1.39003
6.69432 4.87909 1.37746
5.33392 6.39177 1.38541
-7.22888 -1.36516 1.21869
4.93744 7.25085 1.46404
4.67201 7.15059 1.43384
-7.24448 -0.806982 1.22118
2.86676 -5.93146 1.11065
6.65813 4.06289 1.33272
6.45879 5.1882 1.40694
3.7843 7.83153 1.4597
-6.39619 -2.30687 1.15415
-6.30154 -2.68892 1.16897
3.77227 -5.24017 1.09936
-6.99504 -1.80132 1.26283
4.23449 -4.64128 1.10416
6.62881 3.49057 1.35301
5.01908 5.55157 1.36778
3.63233 -5.36074 1.17929
3.32143 6.65997 1.38737
6.464 3.03322 1.35655
6.39903 2.70199 1.3262
-1.64981 -5.71022 1.14126
-2.17226 -5.76698 1.20174
6.22758 2.36761 1.33175
3.93913 -4.58052 1.2017
-3.01119 5.62221 1.3612
-3.63496 5.22951 1.38918
4.20916 -2.92791 1.20524
-4.28882 3.93954 1.41993
4.58685 -2.18716 1.23335
4.47815 -1.26915 1.15736
3.71013 -2.93668 1.23263
3.67999 -2.58561 1.19325
3.42704 -2.97961 1.22561
-2.31983 -3.61485 1.20689
-2.4979 -2.92567 1.19719
1.87478 -2.49486 1.13294
1.93636 -2.65294 1.19763
-2.04445 2.80686 1.31699
-2.07054 -1.46315 1.19708
-1.8233 -1.8294 1.3022
-1.97508 -1.17128 1.20962
9.64612 -9.02319 -9.35016
9.21067 -8.89805 -7.63233
2.44633 -20.075 -10.7401
3.66654 -9.2866 -4.50238
26.1994 32.5477 -14.0287
2.06607 20.4433 -6.09096
9.4817 -8.74788 -1.61282
8.73473 -8.6067 -1.22972
8.88422 -8.76252 -0.925164
19.0355 -13.478 -1.27578
42.9691 -11.5413 -2.3041
10.0047 6.88572 1.28967
-3.50932 5.3402 1.37363
7.96052 -8.21862 -10.2653
7.82168 -8.24457 -10.0051
8.35054 -8.44039 -9.83368
6.81897 -11.7745 -11.18
7.95136 -8.21093 -9.04238
7.99102 -8.68883 -9.07289
6.19868 -14.1158 -11.6004
5.84901 -14.1348 -11.2022
9.05694 -8.8047 -9.26097
7.6076 -9.18228 -8.64335
7.83577 -9.08591 -8.57819
7.19433 -10.6608 -9.15257
10.191 -9.27785 -9.66195
6.40587 -11.0422 -8.72325
8.14583 -9.04538 -8.16337
7.31609 -9.29949 -7.89851
7.93584 -9.17654 -7.97703
5.02205 -15.9341 -10.7783
-0.52226 14.3542 -9.21959
7.28098 -10.7561 -8.33297
7.58716 -9.1108 -7.58674
10.9564 -9.77665 -9.32349
7.03243 -10.8921 -8.08192
8.16936 -8.57636 -7.35905
0.113859 14.3647 -8.75377
7.74261 -8.70833 -7.02122
11.4467 -9.7181 -9.06192
8.95261 -8.88151 -7.45356
6.55793 -12.8077 -8.4893
5.50079 -13.9481 -8.81241
7.03024 -11.0632 -7.52504
5.10284 -12.8146 -7.74611
3.15831 -19.3032 -10.9681
6.59351 -11.0657 -7.21887
7.83345 -9.02972 -6.70408
12.1413 -10.1701 -8.85782
9.67026 -9.47334 -7.4241
13.2222 -10.5999 -9.14172
15.0071 10.2783 -9.77129
14.9892 7.36465 -8.924
13.8176 7.61805 -8.34443
11.376 -9.81769 -7.72187
-0.0617984 15.1671 -7.67111
2.36417 -19.4893 -9.91775
10.6425 -9.54091 -7.19129
7.326 -9.25321 -5.92148
14.0592 -11.1513 -9.03668
17.9681 -12.8484 -10.7482
18.5444 5.72595 -9.42976
2.66176 -19.5556 -9.58466
12.8101 -10.583 -8.03475
15.3375 -11.6777 -9.35262
7.28292 -10.7367 -6.2492
14.9551 7.33089 -7.75051
7.07064 -10.8777 -6.04762
6.20731 -10.6034 -5.69103
9.98386 -2.5052 -4.73223
17.2991 -12.6402 -9.84548
-11.8603 17.026 -9.45855
3.53764 -9.02325 -4.39107
-10.2769 16.8028 -8.85243
15.9339 7.2067 -7.82475
-11.3105 17.2088 -8.88238
-7.07312 6.86036 -4.24416
-6.49029 6.4745 -3.90281
1.19645 -15.4344 -6.58122
19.8325 20.5468 -11.9837
16.1607 -12.2141 -8.51871
15.1081 7.42452 -7.03423
-10.0857 -1.10057 -4.21319
19.8043 21.557 -12.0192
14.0516 7.76378 -6.53392
16.3482 7.36338 -7.20287
14.9563 7.69596 -6.74672
1.48578 -17.9079 -7.01758
18.6046 5.74041 -7.53515
19.3341 21.575 -11.204
0.769721 16.2623 -6.25447
0.710412 -24.1891 -9.20382
16.8446 -12.4594 -7.83799
14.1122 7.88016 -5.84251
0.537025 -22.6652 -7.99063
-4.07802 13.7179 -5.02296
-10.6714 16.4011 -6.84949
-0.866833 -22.955 -8.07482
-15.1119 18.6492 -8.30217
-8.96339 16.1927 -6.35232
-5.05256 14.3952 -5.14415
1.27221 17.587 -5.87497
-5.37994 14.3373 -5.04935
38.2702 -19.6639 -14.2062
12.4418 -10.2915 -5.20412
8.00225 -9.16833 -3.89953
7.3887 -8.77616 -3.55156
-4.26803 14.3695 -4.51175
11.507 -9.75943 -4.55469
15.0532 9.47445 -5.09339
13.6116 -10.6286 -4.95582
-5.5481 14.7935 -4.44797
-13.544 18.1775 -6.39777
15.608 10.5498 -5.18847
-9.68267 16.2719 -5.03291
-27.3124 21.1538 -9.02158
-24.0579 20.2094 -8.12811
-7.19536 15.275 -4.31821
-7.99235 15.5082 -4.25513
-26.2679 20.7298 -8.15455
-3.31418 13.5639 -3.3443
-11.8208 17.1513 -4.97889
3.10121 -9.52481 -2.36925
14.7168 7.85039 -3.93708
-33.622 -26.395 -10.0234
5.37987 -11.6004 -3.01322
48.9389 -11.8033 -11.7009
-7.34016 -35.9006 -8.41971
-9.80785 16.4495 -4.37849
15.0185 7.35896 -3.78846
-30.4069 22.107 -8.34603
-12.5141 -44.7831 -10.2111
3.71766 -9.39283 -2.22518
42.2192 -10.6976 -9.40958
-35.1208 -23.067 -8.95544
-14.9065 18.4973 -4.93368
14.5956 7.79556 -3.43635
-32.2059 -24.3698 -8.31373
9.27501 -9.18182 -2.70687
42.9333 -10.9146 -9.08793
45.6338 -9.67782 -9.41544
-28.7501 21.5786 -7.09038
-21.3894 -34.7681 -8.02441
-33.4571 -24.1722 -7.80388
-34.9218 -23.0435 -7.81323
-14.8903 18.5101 -4.31488
15.2689 7.48685 -2.99604
-5.32016 14.1971 -2.66862
-18.714 20.0239 -4.84576
-22.3807 -53.2881 -10.0773
-22.6705 -36.5714 -7.42507
-34.2807 23.2247 -7.02376
9.1077 -8.958 -2.16831
-31.439 22.9015 -6.33017
-32.3163 -24.2809 -6.4548
-20.6007 -54.8267 -9.35342
42.2977 -10.7392 -6.96174
-45.0072 26.5827 -8.23688
-37.3733 -23.3981 -6.83726
6.42306 -10.8409 -1.96889
-29.4656 -26.266 -5.9635
-30.8467 -25.3097 -5.98067
-20.6493 -50.8728 -8.1555
6.45733 -12.3679 -2.08401
-33.3722 -24.0008 -5.88334
-31.3459 -24.6756 -5.66109
-32.5343 23.2926 -5.59616
-13.1431 17.7448 -3.00592
-33.1287 -24.7678 -5.6006
-30.4586 -26.2041 -5.45384
-32.0203 -19.9137 -4.9513
-34.0166 -23.448 -5.44962
-33.7792 22.9113 -5.14335
-30.892 22.9922 -4.70904
-41.1749 24.3207 -5.87779
12.9165 -10.4434 -1.94821
9.68713 -9.06993 -1.52638
10.5276 -9.21041 -1.54101
-13.1844 17.826 -2.33558
15.0577 -11.5791 -2.02822
-31.1771 -24.6563 -4.03087
45.4764 -9.66513 -4.64818
17.0665 -12.4525 -2.08025
42.0145 -11.2922 -4.10341
-34.4507 -70.6734 -6.97317
-23.542 20.5987 -2.74086
-29.1283 -13.0722 -2.77393
6.93147 -10.6541 -1.11659
16.9831 -12.2716 -1.815
-29.5688 -26.3821 -3.34331
9.82659 -8.92222 -1.09583
13.6797 -10.8765 -1.40669
-34.6823 23.513 -3.2043
-30.2718 22.6813 -2.79772
16.6897 -12.1741 -1.51012
-17.6927 -43.3808 -3.36003
7.333 -9.09749 -0.852222
-26.3511 -60.4815 -4.54184
9.55368 -8.99932 -0.871292
9.70477 -4.72595 -0.681084
11.2823 -9.7748 -0.940528
-15.1487 -41.5918 -2.6062
15.1683 7.45054 -0.925433
14.6053 7.81985 -0.900726
11.757 -9.98256 -0.796622
16.8335 -12.6076 -1.006
-12.6662 17.3505 -1.03352
-37.2919 -66.6306 -3.66878
-27.5953 -55.2492 -2.96101
-35.3217 -19.9312 -1.36408
-18.4678 -45.7082 -1.64509
-25.657 -59.3356 -1.8719
-22.7101 -61.257 -1.89659
15.3613 13.4021 -0.39323
11.4957 11.1842 -0.300609
23.4906 28.6828 -0.631841
13.1962 -10.8584 -0.315445
-22.4029 -49.1991 -0.888502
-19.597 5.68 -0.106726
-35.5956 -68.3218 -0.414349
29.5932 -18.6672 -0.232805
18.5228 -12.8713 -0.0244018
14.7421 7.62828 0.0338487
6.4976 -12.1397 0.157384
11.3541 -9.92159 0.164745
-12.3629 -19.0936 0.300774
25.8995 -5.02667 0.747922
21.1301 43.2931 1.51275
-7.87171 -9.28789 0.420956
-30.8366 -14.7009 1.28627
15.8673 28.6315 1.415
-10.8664 -16.9726 0.850978
14.6339 19.4204 1.11416
18.4751 36.1083 1.83451
16.442 31.5241 1.66785
6.53595 -12.3755 0.660391
-6.97655 -8.47884 0.564072
15.3151 25.3306 1.58389
6.27271 -13.6631 0.779464
-6.74792 -4.55565 0.481924
-11.6622 -8.90272 0.868406
-7.55612 -10.433 0.856958
10.9142 9.04203 1.00898
6.2199 -12.9024 1.00637
-7.17676 -6.35892 0.683304
7.05298 -10.7825 0.917924
12.746 19.8916 1.81119
-15.0987 8.43938 1.33098
10.9706 -4.90703 0.913798
9.4423 -8.86173 1.03383
10.3174 12.4187 1.45614
6.501 -6.18554 0.831294
10.956 9.05482 1.3358
6.39059 13.2979 1.40718
4.5326 12.5413 1.30289
9.66451 12.1338 1.56074
7.57693 10.3719 1.33955
6.54924 12.6922 1.52094
8.19963 -6.61818 1.10779
10.0637 9.51741 1.48042
7.06537 10.6596 1.37691
8.737 9.28402 1.44186
4.73874 -5.85038 0.848045
9.86151 5.43864 1.28651
6.97253 11.0742 1.52584
5.87993 10.5615 1.43218
-7.0346 -2.09975 0.852955
8.41613 8.55206 1.42283
-7.2031 -0.818998 0.868204
-6.88713 -3.97004 0.945459
4.37949 12.0948 1.56573
-7.03881 -2.33495 0.894202
-7.46808 -0.988298 0.927434
-9.19047 1.34429 1.16189
8.29367 7.57155 1.42631
4.83987 -5.2645 0.934077
7.71512 8.14605 1.4762
-7.27336 -4.51575 1.1559
7.25748 -3.86686 1.14078
7.45761 -3.5364 1.15115
7.46109 -3.26769 1.13767
8.11996 4.13017 1.30194
7.4153 -3.70238 1.18384
8.31053 4.56573 1.35764
7.69954 -3.0171 1.1998
7.91536 -1.91798 1.17136
5.6728 7.33335 1.39843
5.20326 -5.60801 1.1717
-7.1512 -1.83157 1.15673
-7.19462 -1.33186 1.1643
5.27092 6.33328 1.36452
-6.42003 -2.31773 1.1399
6.79971 4.1783 1.35789
-7.34528 -0.958433 1.25689
2.98645 -6.17124 1.15401
-6.97331 -1.77003 1.26516
3.99891 -5.11185 1.12926
4.70478 -4.47693 1.15091
3.5494 -5.23241 1.16075
4.9949 5.52789 1.3612
-7.25973 -1.15936 1.34251
3.84594 -5.22366 1.20818
-7.06537 -0.810565 1.34983
6.31519 2.82523 1.33106
3.69438 -4.57418 1.13621
-2.24998 -5.37696 1.17124
4.93894 -6.43319 1.59773
3.81277 -4.42258 1.15563
4.15964 -4.32889 1.22955
-6.42503 1.48227 1.36907
-2.90318 4.86075 1.18887
-1.34134 -4.98556 1.14476
4.03896 -3.76074 1.22238
4.46339 -2.75773 1.21376
-4.47186 3.93661 1.38648
4.79938 -1.93885 1.24568
-2.74685 4.72174 1.28984
4.34257 -2.67915 1.23106
-1.01495 -4.20939 1.16579
-1.42606 -4.0041 1.18001
-2.14706 -3.81299 1.21613
3.99165 2.55088 1.32966
1.84693 -3.18634 1.22093
-2.04272 -2.43022 1.27279
2.58014 -1.8185 1.32241
2.47714 -1.91888 1.32341
-2.16759 -1.77769 1.21334
2.36437 -1.30213 1.19699
-2.00297 -1.48853 1.20304
7.73322 -8.27859 -9.98099
8.14149 -8.16807 -9.53642
6.72996 -11.7587 -11.0689
7.98692 -8.34061 -9.10848
8.0307 -8.89903 -9.06652
6.25165 -13.8995 -11.466
9.01316 -8.8527 -9.26798
7.2428 -9.42851 -8.72025
7.35714 -10.8323 -9.31065
8.14755 -8.87492 -8.17121
8.89984 -8.91459 -8.35976
6.36848 -12.4853 -9.13113
5.23226 -16.0848 -10.9623
7.25966 -10.5812 -8.2647
10.5816 -9.61772 -9.17942
7.8738 -8.32752 -6.9924
0.114727 15.6573 -9.43165
12.1154 -10.236 -9.56696
8.24783 -9.12058 -7.35079
-0.321827 13.2533 -7.71769
7.40732 -10.8304 -7.22895
7.80834 -8.9818 -6.57808
5.82679 -12.6266 -7.58102
14.9392 10.1361 -9.74993
13.6372 -10.8585 -9.41677
14.1056 7.82465 -8.46598
0.299395 14.7422 -7.73606
5.73574 -10.0044 -6.03494
10.5689 -9.58967 -7.19602
12.7237 -10.6201 -8.08764
15.3469 -11.579 -9.35692
10.0327 -2.5237 -4.71615
16.0538 7.36951 -7.81677
9.59615 -3.44944 -4.52784
14.6055 7.92717 -7.25012
19.814 20.2741 -11.9132
14.0916 -11.1455 -7.60639
15.5712 7.39768 -7.22522
9.66387 -3.26243 -4.24593
14.1261 7.86638 -6.49201
15.4647 7.94121 -6.92104
16.9569 15.8117 -9.24142
-9.43227 -1.36684 -3.75401
0.615143 -25.2071 -9.83602
0.871999 16.8997 -6.5777
15.9501 -11.9774 -7.64257
14.9641 11.4947 -6.90244
10.4539 -9.4417 -5.10347
-0.378028 -23.1843 -8.23196
-0.886693 -26.312 -9.15317
-4.11685 13.862 -5.00265
-13.864 18.1454 -7.87848
1.39592 17.6975 -5.88119
-5.21056 14.3681 -5.03136
-2.81498 -26.2721 -8.37134
-11.2341 17.2492 -6.45767
-4.26765 14.4123 -4.5929
3.81232 -12.5544 -3.96713
-5.581 15.3654 -4.74537
3.56709 -10.4109 -3.18684
-3.91697 -27.901 -7.60464
-23.7081 19.836 -8.22803
3.21144 -10.3656 -2.8564
5.03893 -9.68024 -2.82427
-27.2902 21.3083 -8.76434
-30.4744 22.2579 -9.58568
-32.0891 -45.3236 -13.426
-9.70544 16.3853 -4.44998
-9.20809 -43.9419 -10.6952
-35.0779 -22.9366 -9.35137
-21.5017 20.3888 -6.49532
-14.9071 -42.3038 -9.79021
10.3101 -9.24014 -3.05374
-29.3561 -75.8575 -16.959
42.8822 -10.5192 -9.15376
-28.5153 21.097 -6.84944
14.6743 7.98542 -3.15029
-5.04555 13.8301 -2.68666
-32.3575 -24.2836 -6.59412
6.71758 -12.7159 -2.23238
-21.698 19.3933 -4.2204
-31.9683 22.7816 -5.56258
46.7119 -10.1384 -6.70272
-35.7116 -68.7255 -9.82453
-30.9706 23.1715 -4.67621
-34.9944 -22.7774 -4.35658
14.6879 8.01517 -1.66651
-23.6776 20.7177 -2.51817
-31.1888 23.4525 -2.79446
42.8596 -10.5161 -3.26123
-23.6915 -53.7966 -4.10079
8.00377 -11.2863 -0.90813
7.19238 -9.05545 -0.753051
16.8637 -12.3376 -1.36812
14.861 8.08063 -1.00099
29.1938 -18.816 -1.90433
14.9654 7.68662 -0.586758
-24.1094 -53.733 -1.36014
-18.9848 -51.7393 -1.25691
-23.3076 20.7079 -0.550519
-36.5084 -21.5948 -0.349251
-38.8662 -25.6264 -0.261899
9.54705 -8.97723 -0.107099
19.6602 -13.4961 -0.183857
15.5624 7.99556 0.133864
-32.1437 22.7385 0.382314
25.0918 -4.92953 0.870804
-6.75445 14.9283 0.650798
16.1056 10.2012 0.867491
10.7751 12.8516 0.717292
13.9697 18.5467 1.05984
6.67692 -12.6489 0.644457
7.44267 -10.7026 0.565225
6.2628 -10.2929 0.588854
15.7194 25.3815 1.57209
-7.31362 -8.04436 0.550836
-6.66702 -8.03835 0.538304
10.2816 -9.39545 0.756851
8.98042 17.9125 1.33951
-7.34371 -10.2723 0.904595
10.5847 -4.77169 0.831056
-14.4512 7.96253 1.28356
6.62844 -11.6052 1.04816
-6.2063 -4.26477 0.677323
-7.44082 -7.88935 0.931724
6.37721 13.2117 1.33483
9.58532 9.06576 1.25545
7.09881 10.8078 1.34954
7.33106 12.6102 1.50296
