ply
format ascii 1.0 
element vertex 1874
comment /media/mkaihara/Seagate Backup Plus Drive/model_iterations/model_58.ply
property float32 x 
property float32 y 
property float32 z 
end_header 
5.86838 -12.5125 -10.0397
9.36438 -8.99318 -9.2659
6.86547 -11.1322 -9.28223
5.61901 -12.9778 -10.0094
9.69532 -9.08428 -9.41588
7.61345 -9.34958 -8.47736
10.0006 -9.18979 -9.54171
10.9213 -9.49691 -10.1555
11.4444 -9.70165 -10.0759
8.38961 -8.61304 -7.96047
7.4354 -9.3045 -7.86967
8.17246 -8.72376 -7.90124
7.63266 -9.35761 -7.90045
7.84167 -9.40776 -7.84956
8.32557 -8.54049 -7.62454
0.359356 15.8805 -10.1347
7.53226 -9.32978 -7.6307
10.9141 -9.61012 -9.24606
7.23031 -10.7085 -8.17777
8.16021 -8.50263 -7.43217
4.6157 -15.4146 -10.1198
8.7187 -8.70579 -7.62312
7.92625 -9.03799 -7.4151
4.05083 -18.0287 -11.3823
8.20275 -8.63281 -7.28015
4.08801 -17.3147 -10.8557
0.145208 14.8852 -9.05722
6.65865 -11.2696 -7.96948
7.74726 -9.27362 -7.33198
10.129 -9.31556 -8.35021
6.82487 -11.2584 -7.90366
8.06538 -9.21001 -7.34868
11.2714 -9.69895 -8.89045
5.40433 -13.8659 -8.82625
7.7397 -9.27184 -7.16256
9.35552 -9.03789 -7.70796
6.90657 -11.1223 -7.74871
7.98818 -9.13348 -7.11986
9.75698 -9.19149 -7.81199
14.8481 7.41947 -9.63995
8.67207 -8.83592 -7.15392
6.93696 -10.971 -7.45994
2.64126 -11.2175 -6.62786
7.86451 -9.07698 -6.87855
9.60902 -9.14386 -7.53482
10.7963 -9.49836 -8.11199
3.28027 -20.6005 -11.731
6.80496 -10.9885 -7.24591
10.1096 -9.29441 -7.69062
12.3414 -10.3555 -9.03461
9.24451 -9.01153 -7.21398
4.61842 -14.3009 -8.37827
8.00846 -9.22165 -6.78333
14.7704 7.55144 -9.10727
9.70113 -9.11051 -7.30903
0.836559 17.4755 -9.5538
2.74177 -19.8545 -10.929
11.133 -9.64749 -7.99856
4.2357 -14.4296 -8.1405
14.6838 7.67897 -8.92545
15.0724 10.4064 -9.83396
14.0191 7.73411 -8.55501
10.9529 -9.61989 -7.75205
13.264 -10.8015 -9.09945
3.04397 -19.3307 -10.2874
11.3575 -9.82645 -7.64176
2.16896 -20.3814 -10.3452
10.2631 -9.34387 -6.97933
14.2674 -11.2849 -9.13341
13.804 -11.1652 -8.88811
11.0091 -9.65619 -7.29571
7.51108 -9.34092 -5.93585
3.56385 -8.46998 -4.52868
-8.70802 -1.91197 -4.38331
2.22341 -20.1587 -9.94727
4.53274 -9.30079 -5.06013
0.403339 13.662 -6.6906
7.61005 -9.2728 -5.85363
-8.51634 16.2518 -8.88607
-9.20916 -2.43455 -4.58971
14.9902 -11.5759 -9.10166
19.3644 5.54055 -9.63215
-10.3242 -2.55614 -5.03069
1.90989 -20.5562 -9.81675
17.1924 16.1564 -11.1738
7.5839 -11.212 -6.38707
20.0157 5.40259 -9.76326
14.0251 -11.104 -8.31872
2.93026 -17.3377 -8.17608
19.3424 5.72295 -9.31861
17.8336 -12.9965 -10.1931
9.85916 -2.4903 -4.69849
20.2703 5.13773 -9.64799
17.3178 16.2851 -10.9541
1.8102 -20.223 -9.29229
9.67211 -9.0443 -6.06363
-9.219 -1.67335 -4.27308
9.44693 -3.4664 -4.58316
6.71345 -11.3174 -5.98531
9.90641 -2.61664 -4.64754
19.2353 5.86542 -9.05336
17.7032 17.5598 -11.2093
9.3631 -3.08433 -4.43735
15.4228 -11.8677 -8.73312
7.03721 -11.5621 -6.05419
7.15105 -10.9164 -5.81691
9.5531 -3.40256 -4.51917
-10.0379 16.452 -8.57992
17.6427 -12.8759 -9.70581
19.5217 5.62365 -9.00442
16.0958 7.30078 -7.82648
17.8105 17.9897 -11.1956
16.4175 -12.21 -9.01769
-11.294 17.1738 -9.03434
-6.58377 15.045 -7.20023
-5.24226 4.91687 -3.13141
20.1192 5.4627 -9.06346
9.55202 -3.40283 -4.37616
18.204 18.4508 -11.1402
15.814 -12.1697 -8.58661
14.8558 7.4278 -7.08849
3.83848 -9.30185 -4.27537
-11.2175 17.0603 -8.64357
6.94354 -10.9052 -5.45138
-13.6062 3.3345 -5.90211
0.743474 -22.3884 -9.43997
15.7991 -11.9625 -8.28761
-5.17184 5.69491 -3.21843
0.998835 -22.251 -9.33686
1.23229 -20.7865 -8.72345
14.1648 7.59698 -6.72289
18.5346 19.3155 -11.1849
3.78255 -8.95433 -4.05365
14.7678 7.72785 -6.93792
17.9042 19.122 -10.8709
-9.52199 -1.09286 -3.95641
4.00705 -8.50192 -3.85085
14.0318 7.74791 -6.58
6.84298 -10.9854 -5.29132
-13.6451 2.54897 -5.67849
-8.00187 15.5013 -7.08876
19.237 20.9032 -11.5087
15.0698 7.24104 -6.73639
-5.29768 14.4666 -6.17668
13.9471 -11.0265 -6.96383
1.53198 19.2517 -7.50078
-8.79125 15.877 -7.05227
18.9821 5.78888 -7.68923
-1.75781 13.3134 -5.20132
5.29535 -9.39338 -4.15851
-2.39104 13.5333 -5.27833
19.5661 22.6344 -11.4721
4.66027 -8.51499 -3.68641
19.4084 5.56787 -7.68328
0.876734 -26.5298 -10.0877
14.8984 -11.4807 -7.07846
19.9671 5.40948 -7.74252
9.43764 -3.43848 -3.75539
0.533348 -22.6832 -8.45553
3.24851 -10.7945 -4.21145
20.1655 23.461 -11.4886
0.90973 -8.72245 -3.25225
14.0218 -11.1045 -6.59541
20.375 5.18215 -7.72997
17.8686 17.6564 -9.17994
-13.0586 2.28775 -4.8199
20.8159 24.8578 -11.7592
2.28725 -13.2595 -4.84748
13.0296 -10.5368 -6.02988
0.795937 15.4442 -5.53344
-8.20646 -2.8005 -3.1015
0.410053 -21.856 -7.81422
-4.23815 13.908 -5.17148
0.638446 -21.9356 -7.79855
15.8484 -11.9697 -7.03937
-15.8329 18.3038 -8.529
5.92797 -11.3374 -4.4984
-11.0926 16.7392 -7.01358
0.0937133 -18.5201 -6.51024
14.2585 -11.3001 -6.36159
20.33 5.3541 -7.33803
0.657785 -23.055 -7.96537
-5.04345 14.6399 -5.3053
3.63924 -8.44818 -3.16643
4.87633 -9.03269 -3.51756
-14.5996 18.1253 -7.9663
2.27537 -10.8877 -3.81181
-8.94347 16.2233 -6.31469
3.02831 -13.701 -4.78394
-15.078 18.5062 -8.09232
20.1481 5.47799 -7.01797
22.0121 27.2305 -11.7025
36.0199 -20.3334 -13.8227
-5.33855 14.159 -5.0256
1.91454 20.7526 -6.91531
1.26752 -10.249 -3.4146
-5.28571 14.5534 -5.02891
-12.6704 17.3456 -6.96816
18.5522 -13.2201 -7.39789
3.55979 -8.67256 -3.00572
6.21946 -10.1123 -3.80468
2.3138 -11.0092 -3.57999
-4.57716 -34.3851 -11.0253
-1.14038 -23.8982 -7.61575
15.0127 10.3394 -5.75284
-13.2981 17.6952 -6.9964
-18.1129 19.5362 -8.37458
6.96126 -11.0939 -4.04918
1.3861 -21.911 -6.79165
-2.58242 -27.5083 -8.48083
7.17718 33.1483 -10.3499
0.771082 15.0355 -4.57302
-11.2081 16.9107 -6.11472
-2.70981 -26.6095 -8.0549
-14.4404 18.0548 -6.89821
-5.32019 -34.8885 -10.5081
0.839003 -25.0813 -7.50354
-5.42829 14.9293 -4.72529
2.08094 20.707 -6.13176
-21.4184 19.9708 -8.63981
18.2043 5.793 -5.62318
-4.32351 14.5207 -4.45469
-7.97908 15.4795 -5.10924
4.25595 -9.1436 -2.96431
4.63718 -11.6191 -3.65801
-12.6368 2.22614 -3.68776
-33.2016 -47.0307 -16.5655
-15.297 18.4022 -6.87903
6.95847 -11.0827 -3.76744
2.56384 -9.54614 -2.8085
12.9317 -10.4674 -4.73465
-8.45649 -2.4611 -2.49732
21.0443 27.1405 -9.73035
-8.58406 -2.26244 -2.50846
-2.56246 -26.1497 -7.37356
-13.0441 1.99885 -3.67489
4.38864 -11.3314 -3.37271
-9.37085 16.1152 -5.11785
-13.1433 17.5288 -6.01762
-5.42882 14.4884 -4.22884
-8.56086 -41.5759 -11.6139
-21.6089 20.1651 -7.94565
-9.79374 16.2399 -5.08225
-26.8847 20.6523 -9.01895
11.4312 11.5052 -4.27955
4.32774 -11.2975 -3.20498
47.0242 -13.67 -12.973
-8.2538 -38.9517 -10.4654
4.08951 -8.65741 -2.52112
11.1704 -9.93553 -3.91083
-14.5439 18.2101 -6.05989
6.53662 -10.4241 -3.18465
3.17836 -9.64698 -2.62581
-30.3111 -44.394 -13.8807
-4.38231 -28.745 -7.52307
3.54151 -10.3734 -2.8264
4.06847 -9.38777 -2.62978
15.6034 -11.7326 -4.98116
-7.20197 15.3429 -4.29002
-31.7462 -42.3377 -13.4191
4.31248 -11.1459 -3.02476
4.25522 -7.70467 -2.24007
6.53669 -10.6625 -3.11905
44.7168 -13.5197 -11.6474
-28.4451 21.4607 -8.80946
-11.6023 17.0457 -5.08317
-27.7672 -40.5065 -12.075
-9.95992 -39.2032 -9.97729
-24.629 20.6863 -7.90405
4.34983 -10.3314 -2.75419
-12.1387 17.3872 -5.14146
-7.89453 15.3815 -4.16713
10.2741 -9.26737 -3.31298
40.2083 -13.3562 -10.1387
15.1125 7.55791 -4.02264
-6.35315 -36.385 -8.7984
3.96533 -9.08675 -2.34922
46.8949 -12.551 -11.5217
-12.2488 -45.1005 -11.071
4.2014 -8.98957 -2.36723
3.85923 -11.0689 -2.76272
4.90826 -8.693 -2.3485
-12.8571 17.5209 -5.05758
11.0064 -9.64548 -3.34488
-6.22465 -31.5665 -7.34127
-27.3121 21.0945 -7.8227
41.4403 -9.06275 -9.62648
-30.6758 22.2722 -8.49922
-35.5853 -23.3199 -9.53304
40.6387 -12.5627 -9.55055
5.45395 -9.47313 -2.44054
-12.4253 2.83518 -2.79637
40.5123 -11.8721 -9.32743
42.4839 -12.1219 -9.71982
-5.41298 14.2018 -3.32308
13.3883 -10.7734 -3.7826
37.9846 -12.207 -8.77115
-23.5203 20.4992 -6.76759
-29.8806 -73.6685 -17.25
4.30885 -9.69817 -2.30133
4.5384 -9.17878 -2.21171
-14.6632 18.2687 -5.00268
-31.113 22.5999 -8.21126
-31.9962 22.7065 -8.38698
-28.5077 -75.6352 -17.3255
-10.7522 16.801 -4.22954
-8.49565 -36.0642 -7.87883
3.18986 -9.68393 -2.17418
3.96565 -9.82788 -2.25965
45.6712 -10.5889 -10.0078
14.9448 7.48565 -3.5436
-15.2415 18.7622 -5.11788
5.1632 -9.05345 -2.18968
26.5418 38.4022 -9.75523
14.9848 7.84231 -3.51142
-30.2683 -23.3763 -7.93364
-33.4433 -85.7503 -19.0551
-11.5123 16.9619 -4.16576
-15.7057 18.5692 -4.95114
-35.3737 23.7454 -8.65734
44.3129 -9.66558 -9.24903
-13.3562 -42.9768 -9.14667
4.13491 -9.73205 -2.15137
11.6015 -9.64405 -3.06953
-12.0618 17.3095 -4.21149
-20.1147 -57.7296 -12.2177
-13.0617 -40.5756 -8.43918
4.06887 -9.91907 -2.12274
-34.2533 -23.422 -8.18015
-26.8661 21.0856 -6.7217
-33.2814 -23.8067 -7.9765
-6.92793 15.3087 -3.26156
-26.8404 -63.0665 -13.3131
-33.6908 -22.429 -7.79952
3.43503 -9.36009 -1.92532
45.7502 -10.6 -9.01786
-12.8109 17.491 -4.14464
3.9883 -9.34293 -1.93865
-36.5891 -22.2253 -8.1039
-21.3836 -34.7371 -7.75772
-15.7076 -45.3225 -9.07599
37.8189 -12.4756 -7.52832
-36.1363 24.2702 -8.14659
-33.8266 -23.3613 -7.72275
-32.7752 -23.9796 -7.62327
-21.5016 -53.2684 -10.8087
-17.0175 -46.2245 -9.13688
3.81971 -9.20564 -1.84093
42.4717 -11.4469 -8.16835
5.75685 -9.71149 -2.06907
-24.748 -56.1169 -11.2287
-20.6191 -51.1785 -9.97954
-14.6276 18.2337 -4.14491
-31.2223 -25.1815 -7.12996
-20.379 -27.1558 -6.07149
-39.5706 24.9696 -8.25558
-26.8749 21.102 -5.94728
-34.246 23.4343 -7.20494
3.90866 -10.0477 -1.86948
4.77124 -8.61145 -1.71091
14.001 7.51891 -2.74098
14.0749 8.07678 -2.77929
-30.9644 22.5168 -6.56346
42.1515 -11.9256 -7.45792
41.948 -10.8642 -7.37655
-31.3794 -24.9212 -6.79769
-21.1526 20.1451 -4.90517
-20.5626 -51.1105 -9.30857
14.8571 7.44637 -2.78716
-31.8393 22.5404 -6.51633
-23.7741 -56.6816 -10.1565
43.4717 -11.7109 -7.31779
-10.3955 16.5034 -3.14748
-20.8519 -51.7304 -8.89547
-35.0267 -24.1791 -6.70684
-22.8662 20.0899 -4.76621
-24.2727 20.7206 -4.94625
-40.2787 24.3874 -7.2965
-11.2673 16.8637 -3.13096
3.47147 -9.52723 -1.56824
3.86857 -10.2301 -1.6935
-7.65125 15.5187 -2.64281
-31.1946 22.7043 -5.89783
-31.881 -24.624 -6.12562
-28.0507 -26.2382 -5.81883
42.1369 -10.9543 -6.61778
44.7771 -9.75536 -6.98183
-6.56844 14.6303 -2.39958
9.83085 -5.15309 -1.64739
-33.6175 -24.2467 -6.17264
-26.7358 -67.6013 -10.7817
10.1932 -9.16477 -2.04279
44.9182 -10.3913 -6.84689
-36.7924 -24.4922 -6.50496
-31.6329 -26.0921 -5.99842
-12.7695 -42.3104 -6.50274
16.9134 -12.2368 -3.05797
-25.4867 20.984 -4.79772
-24.9204 -55.8372 -8.81114
-7.6485 15.3192 -2.44838
-12.7592 17.3965 -3.0759
6.03447 -11.5288 -1.85947
-13.4621 17.9934 -3.15664
-34.8451 23.5386 -5.91193
6.75909 -11.0407 -1.80938
37.5379 -12.3882 -5.55975
-31.2679 -25.0549 -5.59204
-33.1387 23.8152 -5.65327
-20.7549 -50.023 -7.48023
45.069 -10.0825 -6.3683
-6.89771 15.2547 -2.28789
-22.8649 -59.6745 -8.68127
7.75112 -9.38026 -1.63303
-14.0558 17.9471 -3.07305
13.2151 -10.5401 -2.28723
-22.3053 20.2894 -4.05461
42.0593 -10.8745 -5.76745
44.7935 -9.81164 -6.06949
-22.6875 19.9652 -3.95187
-32.8086 -24.5501 -5.35235
-14.95 18.3069 -3.05608
-34.1621 22.8014 -5.33233
-38.4674 -16.2425 -5.39141
7.01609 -10.4344 -1.61333
10.7726 8.81986 -1.78771
-33.9281 -23.381 -5.27304
-31.5612 23.0404 -4.94307
-35.7098 -22.2832 -5.27595
41.9226 -10.8419 -5.41901
6.79539 -10.3667 -1.54891
-7.68434 15.3701 -2.12774
-25.1081 21.0828 -4.01461
-33.5279 23.6294 -5.05972
6.29466 -12.0724 -1.65866
44.7456 -9.5464 -5.60403
15 7.85863 -2.03596
-18.0847 -43.8005 -5.71411
7.08608 -10.5315 -1.5284
-20.5734 9.11787 -2.66349
-14.4277 -43.6434 -5.40489
-31.9659 -24.6452 -4.71974
-31.4502 -25.1522 -4.71257
42.0057 -11.2521 -5.11111
11.2305 -9.67145 -1.71711
-29.9948 22.7434 -4.33081
6.64194 -10.8222 -1.45371
7.48865 -9.21991 -1.35872
11.5827 -9.72342 -1.71771
9.44875 -4.60953 -1.19052
14.9783 7.69693 -1.8979
-10.386 16.5343 -2.20362
-32.3098 23.609 -4.48297
38.8377 -12.7849 -4.58535
9.35625 -9.02258 -1.43804
-11.1041 16.6538 -2.17594
6.7928 -12.7887 -1.56864
44.8871 -9.75558 -4.9798
10.7708 8.85097 -1.50247
16.7689 -12.4564 -2.24203
42.2013 -10.9452 -4.67164
9.61842 -8.97811 -1.39402
8.37862 -8.46374 -1.24766
-31.0113 -24.8163 -4.13587
-30.4232 -61.0231 -7.1134
14.9751 7.51018 -1.71161
-31.9066 -24.602 -4.13392
-12.9003 17.5857 -2.21458
-12.8179 17.1729 -2.13002
10.2068 -9.0874 -1.33881
-21.0272 -53.4014 -5.62673
6.31603 -12.0955 -1.32074
16.6382 -12.1728 -1.98171
42.0905 -11.3103 -4.17778
-30.9655 -62.5932 -6.6387
-21.0035 -55.1197 -5.602
-23.3908 20.4597 -2.90518
45.5874 -10.1414 -4.36213
9.71582 -8.98641 -1.22517
39.6674 -13.0853 -3.89239
-15.0695 18.4728 -2.15898
-29.7717 -13.5738 -2.98261
-32.5854 -63.5226 -6.5808
15.8537 -11.8663 -1.80149
8.63554 -8.72652 -1.11176
12.8892 -10.6394 -1.45542
45.1742 -10.4706 -3.97248
9.40121 -9.02734 -1.09566
10.9506 -9.64335 -1.22652
-34.2798 23.5416 -3.4606
16.8383 -12.2791 -1.72618
-17.0438 -44.3512 -3.80577
14.6795 -11.4784 -1.48601
-11.7896 -33.0054 -2.76644
-29.9254 22.7539 -2.90734
-33.2121 23.4756 -3.13984
-22.8846 -52.2747 -4.40563
-51.361 27.9529 -4.42812
-21.4582 20.1955 -2.14359
-33.4395 23.6528 -2.96852
16.3749 -12.2353 -1.49542
42.1174 -11.2707 -3.1765
-39.6591 -75.0387 -6.12537
13.972 -11.0546 -1.27512
-15.6521 -41.521 -3.06275
10.765 -9.61391 -0.988908
-23.4142 20.5013 -2.10192
12.8676 -10.6177 -1.11681
17.9475 -13.0172 -1.47817
16.0374 -12.1305 -1.32808
-14.7575 -40.9167 -2.8138
43.8771 -11.4115 -2.83395
-32.1098 -65.0597 -4.42759
35.8223 -8.69053 -2.26229
43.0477 -9.85293 -2.7112
6.04871 -13.075 -0.861142
30.8859 -20.4371 -2.2163
-9.87043 16.4773 -1.12921
-15.6533 -40.8329 -2.4902
16.6057 -12.4102 -1.16406
-9.69579 -12.569 -0.869943
14.9663 7.67822 -0.909448
13.8988 -11.0023 -0.949295
-12.8227 17.3767 -1.12805
-16.5628 -41.0522 -2.35112
14.8606 7.81414 -0.822866
-16.3892 -41.8928 -2.20737
-14.1924 17.9888 -1.09581
9.56469 -9.02205 -0.603105
-24.1532 -55.4045 -2.73511
12.4489 -10.234 -0.747183
-16.1092 -44.906 -2.11828
-17.309 -42.6458 -1.97058
6.85434 -12.6566 -0.638648
-14.0007 -42.6787 -1.91345
-52.7764 28.7017 -2.43376
18.3311 -13.1696 -0.916112
16.797 -12.4851 -0.815156
-41.8351 -81.1982 -3.44627
-18.3478 -48.1142 -1.89669
-33.7418 23.1838 -1.49732
42.5964 -10.9755 -1.58401
-34.7353 -69.0947 -2.58762
-26.0412 -57.0694 -2.1123
20.1406 23.2937 -1.02231
-21.501 20.1485 -0.960052
8.11493 -14.3223 -0.552956
9.42084 -8.99365 -0.422234
11.2978 -9.94611 -0.489325
18.5859 -13.1417 -0.748178
34.8158 -13.1314 -1.23493
21.9353 26.5525 -1.10418
-27.4442 -13.7658 -0.962396
-22.9652 20.4506 -0.937134
-31.7924 22.517 -1.21581
-25.1492 -57.8189 -1.95306
-13.8804 -39.2673 -1.28303
-21.6534 -55.235 -1.79657
-16.7188 -45.3115 -1.38391
-34.1217 -20.6888 -1.06287
11.447 -9.71093 -0.402179
16.3338 -12.1488 -0.536699
-41.1871 25.4797 -1.27719
-30.3785 23.1152 -0.944329
-30.8993 22.6454 -0.905597
9.56707 -9.0063 -0.304416
-41.4519 14.3268 -0.96929
-31.5908 -52.8992 -1.38796
21.2595 -14.2185 -0.562279
30.4787 -18.4814 -0.804623
14.2261 3.93151 -0.301017
27.3616 47.8134 -1.01235
23.5335 -10.9561 -0.457236
47.127 -10.8519 -0.899618
-30.7216 -22.0776 -0.6899
-29.6788 -29.1505 -0.659738
-19.0919 -46.8467 -0.842679
12.7181 -10.4585 -0.270964
18.515 -13.3789 -0.349176
-29.3393 -13.0406 -0.421497
-32.9295 -24.6436 -0.572317
-33.6053 -67.7457 -1.02136
-27.9028 -59.3861 -0.899447
-34.0323 -23.2422 -0.538101
-30.3975 23.1261 -0.449548
16.993 -12.69 -0.251893
29.2995 -18.1672 -0.405802
-30.8573 22.6536 -0.426088
-19.1883 -44.0072 -0.513918
-12.0797 -36.3587 -0.386062
-33.5841 -59.1744 -0.627212
-14.363 18.2191 -0.177945
-26.7689 -13.4961 -0.242036
-15.0552 18.3521 -0.162211
-22.6216 20.2032 -0.155957
-21.0576 19.7514 -0.131214
-10.5727 -13.5921 -0.0604771
14.7283 7.73712 -0.0200062
11.1063 -9.76613 -0.00780917
-34.5917 -18.9466 0.0601794
-11.3969 -33.8718 0.116127
16.9525 -12.3165 0.0909112
-18.9073 -43.4075 0.210168
18.7752 -13.2286 0.12195
7.17551 -12.3346 0.104113
25.9984 -10.6666 0.172844
-55.5454 19.8336 0.562637
16.2449 -12.0392 0.193028
37.4428 -7.64444 0.360648
-29.145 -8.21822 0.354275
-36.3939 -21.9666 0.468824
-11.3834 -32.6148 0.370318
-12.7733 -35.3954 0.447775
-10.3337 -31.7636 0.400576
6.32984 -12.9383 0.183855
7.21286 -11.1119 0.174175
-28.2731 22.1936 0.550603
11.3115 -9.87877 0.225774
-24.1933 20.6896 0.52567
10.8987 -9.73123 0.22931
12.9698 -10.6772 0.264665
36.3922 -7.78848 0.619232
-34.6627 -23.2234 0.758909
-31.337 22.4061 0.756691
6.14221 -12.8331 0.276058
7.02123 -11.0494 0.252207
8.02522 -9.41706 0.241611
27.4034 56.3476 1.36318
7.72794 -9.44245 0.275858
10.1281 -9.1734 0.329668
-28.8809 -9.26093 0.730635
-23.3841 20.4108 0.840069
-27.6722 21.8195 0.946084
-29.01 -8.71071 0.798243
9.1886 -8.89438 0.345456
9.6232 -8.94405 0.358116
-25.6721 21.6367 0.912515
25.3619 -5.13077 0.72049
12.9795 -10.6478 0.500102
14.7898 24.0937 0.872416
6.18924 -12.7681 0.446496
7.45633 -11.6232 0.433344
-28.5346 -8.04766 0.972838
-12.6396 -19.3527 0.761481
-28.2171 -8.81923 1.02221
16.1 11.0197 0.705249
-29.9152 -18.5373 1.23012
15.7334 27.3302 1.12565
-30.5338 -16.6553 1.2889
23.5219 -4.24747 0.863627
-27.9148 -19.8535 1.2693
-7.30263 -7.96237 0.407772
9.04992 -8.82502 0.469869
12.4157 13.5815 0.709651
25.9052 53.4404 2.24953
24.7649 52.7269 2.19395
-11.5724 -9.16006 0.582002
8.72166 -8.66736 0.486408
-25.7588 21.2191 1.35514
21.8228 -2.95759 0.892264
-28.8846 -17.5446 1.38449
9.41236 -8.92476 0.531817
12.4395 14.3268 0.816456
6.57535 -12.4523 0.597968
14.829 19.268 1.06909
20.7249 28.6266 1.54805
-9.51034 -13.8281 0.73766
-9.99908 -15.6381 0.823921
7.59577 -10.9476 0.587049
8.62254 -8.71197 0.553917
24.1689 -3.70247 1.10404
-29.9434 -8.72592 1.42369
6.74037 -11.081 0.59675
-8.283 -8.15144 0.546974
21.2271 42.8279 2.28719
-28.6458 -17.7042 1.59181
-9.78424 -13.7242 0.802212
9.65805 -8.96099 0.620524
15.3781 42.7347 2.1988
-30.344 -13.4403 1.58407
-6.76964 -8.25318 0.525298
14.4756 33.6634 1.87004
-29.8297 -11.6813 1.60773
-7.60037 -6.98879 0.521977
-6.70643 -7.60245 0.512898
16.0616 29.0955 1.7259
10.5238 12.3057 0.875195
14.1826 19.3001 1.28615
9.34222 -8.92284 0.692172
14.7701 19.2178 1.3385
15.2233 23.5123 1.54255
-27.6201 19.4474 1.85187
-6.98065 -8.20375 0.597404
-26.5473 20.3697 1.86072
6.09124 -12.8612 0.796203
-7.1148 -9.16908 0.661885
9.93161 12.4052 0.934716
14.8445 25.0111 1.69938
6.45916 -12.9728 0.833998
13.7816 22.4843 1.5579
-8.26984 -8.12893 0.698744
11.5076 11.587 0.973977
14.6191 19.4436 1.46174
-7.40784 -10.0281 0.775411
7.00538 -11.1636 0.803186
11.2541 -9.70731 0.901
5.86341 -10.7486 0.75977
-7.20263 -6.65746 0.612965
14.4204 20.4563 1.58379
16.1142 7.15288 1.14483
-7.0441 -6.15448 0.613864
6.46001 -13.4399 0.99376
9.34806 21.1157 1.55797
10.3863 12.5187 1.11216
13.497 18.1488 1.57769
12.3396 20.459 1.65341
11.3135 11.9511 1.15524
6.5933 -9.83289 0.838379
11.4618 11.7266 1.18682
9.79676 -6.91556 0.853272
12.3224 11.9291 1.25976
9.91587 -8.37383 0.950795
-6.17408 6.69154 0.679908
10.4046 9.1615 1.04151
11.8681 17.7448 1.6064
11.4203 18.1949 1.61881
-6.95401 -7.70812 0.805072
10.7988 18.6386 1.65294
9.50406 -8.94807 1.0088
-6.4215 -4.30286 0.609735
9.13555 18.3029 1.63484
10.0701 -6.89087 0.977033
12.4166 11.5203 1.36935
9.69114 18.8163 1.70444
-7.27583 -9.65077 0.984504
6.71118 -9.371 0.937934
12.204 11.6748 1.38399
12.1079 11.9077 1.41035
11.3852 11.9001 1.3636
-5.06034 -11.5496 1.06073
10.2759 12.8564 1.40056
-6.96819 -6.08909 0.797146
-6.82474 -6.70349 0.808129
-5.22143 -11.4518 1.07035
-7.31032 -7.7572 0.917983
9.27454 -7.24815 1.017
-7.13053 -8.06898 0.942425
-7.02618 -7.70056 0.916846
9.3552 12.4873 1.38347
-6.96202 -8.38408 0.973677
10.7837 9.0482 1.28304
10.4236 13.425 1.53577
10.4929 9.2155 1.27852
7.68569 13.9513 1.46523
-6.50717 -8.14711 0.955419
-6.91359 -9.03233 1.04991
11.1624 10.7658 1.43106
11.2164 9.15143 1.35476
10.8332 10.768 1.43196
6.45565 14.9182 1.52762
-11.4511 2.93359 1.10871
-6.36661 -4.17439 0.713336
-6.8132 -6.30083 0.860666
9.39608 13.2512 1.5672
-6.04479 6.56833 0.879213
7.95388 -6.60378 1.00755
7.9 13.1725 1.52589
-7.0778 -7.62744 1.04835
9.27519 11.5976 1.49802
6.98051 12.3942 1.44379
7.03555 12.9616 1.50364
9.50565 9.06621 1.35958
5.83665 13.914 1.56405
9.10765 12.3871 1.60312
-6.11171 -4.46005 0.793157
5.93564 13.6391 1.56697
6.19584 13.5716 1.56863
-6.97616 -4.4314 0.884095
8.7421 8.99197 1.33715
9.10775 10.1463 1.48298
7.30467 10.9682 1.4323
5.80575 11.4353 1.39446
-6.30624 -7.41868 1.06434
10.2416 6.43657 1.33849
8.9667 8.11562 1.33329
7.28701 11.648 1.51728
6.82289 11.5963 1.48768
5.33824 11.8541 1.44659
4.85141 12.0592 1.4544
4.68415 13.6225 1.58494
9.84105 7.03639 1.35097
8.7322 9.28224 1.42421
5.36372 11.4768 1.42674
-6.84846 -6.73037 1.06883
6.84504 10.6841 1.42953
4.30128 13.1214 1.56078
9.74443 -3.19316 1.14338
-6.10874 -5.41811 0.945454
7.2842 -6.11574 1.07968
10.3898 5.70064 1.35933
-7.38603 -0.986429 0.854033
-6.26197 -5.36008 0.948891
5.24338 -5.55171 0.879811
5.05019 11.5837 1.4681
-6.88825 -4.56267 0.957562
4.44964 -7.25553 0.984323
10.3833 5.13656 1.35952
8.85949 7.86324 1.39072
-6.00598 -4.3711 0.865827
-6.49075 -5.2775 0.988377
4.08846 -7.85911 1.05357
4.96251 -5.84538 0.919952
10.1438 4.7431 1.34248
8.49432 8.24825 1.43424
5.2572 11.4532 1.53848
9.02249 6.25036 1.344
7.98841 8.31367 1.44443
-6.49507 -5.75145 1.0801
3.70349 -7.5668 1.05516
8.65375 6.67239 1.37424
-6.47293 -5.34866 1.06284
9.06833 5.99823 1.38824
8.16193 7.12181 1.38217
8.09221 7.48721 1.40779
5.77233 -5.34116 1.0097
-6.9776 -4.44675 1.06222
8.07917 7.97688 1.47277
-7.36236 -1.04309 0.960938
-6.92814 -2.82846 0.977444
8.95771 4.09288 1.28986
8.38151 6.61236 1.4016
4.99454 -6.02339 1.02856
4.91265 -6.18774 1.04624
6.86507 -4.27949 1.07685
-7.1384 -1.71948 0.984525
-7.0146 -2.22159 0.983905
-6.02977 -4.42559 1.00008
8.11536 6.64231 1.42184
8.5928 4.43078 1.31823
8.61284 5.15593 1.37121
8.00805 7.12006 1.45866
-6.8134 -3.73625 1.05527
8.84415 4.15142 1.33744
8.24657 5.82043 1.38237
-6.40269 -4.33227 1.05799
-5.96178 -4.52839 1.02259
5.3435 9.00457 1.44637
3.62806 10.037 1.48224
-7.37258 -1.09369 1.03237
-6.90919 -3.92992 1.10326
4.94549 -5.53975 1.02632
5.22476 -5.39467 1.04234
7.45872 -3.53472 1.15432
3.37276 10.115 1.49414
8.38588 4.58961 1.35242
7.3704 -3.67584 1.16841
7.58209 -3.33274 1.18082
7.75666 -3.30348 1.19632
8.92379 2.80985 1.3467
4.8304 -5.63148 1.06647
7.34922 -2.85132 1.1477
-6.96323 -3.30242 1.1235
7.91274 -2.77772 1.22273
8.6575 -1.81857 1.29859
4.99573 8.55334 1.46227
2.94205 9.40385 1.46597
7.72714 -1.88671 1.17232
7.21567 5.7465 1.3745
3.44359 9.52651 1.49748
3.1748 9.76012 1.5212
-7.37489 -1.04403 1.10461
-7.07891 -2.02434 1.09748
6.93366 6.27665 1.41217
-6.26669 -2.27298 1.0006
-7.24457 -1.37615 1.11338
7.92563 4.80939 1.41248
5.69776 7.3419 1.41021
5.28164 7.61542 1.41062
5.0456 7.99592 1.42957
6.75596 -3.224 1.13212
7.24205 -3.12289 1.20781
7.63125 -2.75375 1.23633
-7.32118 -0.733411 1.12387
-7.10158 -1.95567 1.1371
6.78554 -3.09123 1.15316
3.74897 -5.78526 1.06602
-7.05729 -2.07725 1.15357
-7.35057 -1.09357 1.16714
7.34928 4.7669 1.38364
-7.20278 -1.44436 1.16902
-7.27583 -1.30187 1.18619
-7.10173 -2.02024 1.20093
7.05853 4.7556 1.38944
-7.1054 -1.94661 1.21045
6.99816 4.85712 1.41507
6.6048 4.84449 1.36703
5.19769 6.23279 1.35209
4.66376 7.15769 1.42689
3.81264 7.91333 1.46018
-7.2535 -1.37433 1.23265
2.79182 -5.7757 1.08142
7.13103 4.42182 1.41363
6.50278 5.22964 1.4079
3.87303 -5.36442 1.11556
3.93617 -5.02037 1.07996
-7.27664 -1.25318 1.25282
-6.60188 -2.62667 1.20572
7.40709 2.84418 1.34583
7.02004 3.88567 1.36744
-6.4177 -2.75447 1.18843
6.76472 4.09266 1.3574
5.6812 -3.51886 1.15025
-7.40061 -1.04025 1.29266
-6.3602 -2.28163 1.16191
5.53413 -3.64716 1.14247
5.31794 -3.77331 1.14297
3.58814 7.14487 1.40652
-6.80324 -1.73613 1.23332
4.47956 -4.46699 1.11334
-7.09634 -0.915178 1.27488
4.72466 -4.45726 1.14948
4.32038 6.48053 1.38993
6.57733 3.46926 1.343
6.61654 3.67745 1.35998
-6.44472 -1.50134 1.19043
3.60841 -5.3257 1.17025
5.06923 5.60351 1.38367
-6.15829 -2.1844 1.19778
3.41283 -5.15812 1.15025
3.37988 6.75559 1.41334
-1.69772 -5.7819 1.14472
6.43707 2.72866 1.33059
-2.14326 -5.72766 1.17573
6.30148 2.79263 1.32704
-2.7877 -5.37693 1.18695
-3.53083 5.36187 1.39137
4.46524 3.88867 1.35146
4.15129 -2.87887 1.17712
4.6286 -2.18627 1.23693
4.19505 3.28824 1.32042
3.70788 -2.93062 1.22404
4.01482 2.57234 1.33218
-1.44344 -4.1185 1.22202
-2.32156 -3.58044 1.21281
3.85691 2.36247 1.31045
-2.86482 3.53078 1.36356
-2.48129 -2.91727 1.18977
-2.37873 -2.9384 1.1947
1.84272 -2.81137 1.18189
1.86572 -2.7896 1.21191
1.99176 -2.5261 1.19824
-2.0451 2.80946 1.3219
2.80346 -0.555613 1.25904
2.78272 -0.336785 1.24074
-2.08986 -1.61961 1.21332
-2.07761 -1.45166 1.2384
-1.86272 -1.79638 1.28376
-1.99519 -1.1317 1.20487
-1.98669 -1.07064 1.2317
-1.9465 -0.880582 1.23195
-1.93087 -0.708582 1.22226
-1.92974 -0.701678 1.24948
-1.90611 -0.469805 1.22232
-1.87151 -0.345792 1.21955
-1.85636 -0.401271 1.22626
2.3781 -19.6942 -10.01
-7.60659 -8.98058 0.465393
8.01952 -8.80119 -10.4693
8.26557 -8.63127 -10.5056
8.21709 -8.29192 -9.88781
6.95967 -11.9602 -11.4128
8.51815 -8.97558 -9.7435
7.85196 -8.9391 -9.13728
5.85193 -12.8023 -10.7326
9.42926 -8.83609 -9.74692
6.14975 -14.0996 -11.5801
8.28908 -8.68091 -9.02435
8.01966 -9.17113 -9.11056
7.29357 -9.24777 -8.77506
5.91206 -14.1572 -11.1939
7.72003 -9.30804 -8.72612
7.85729 -9.11877 -8.67087
7.13011 -10.5827 -9.08527
6.82145 -11.0752 -9.2213
10.0551 -9.19455 -9.56943
6.54076 -11.1776 -8.86613
8.03463 -8.62954 -7.85166
7.36183 -9.28244 -7.87321
8.5176 -8.68294 -8.08496
7.72179 -9.47468 -8.03002
6.48873 -12.7776 -9.35804
7.93474 -9.18252 -7.91528
5.00358 -16.0431 -10.809
-0.473541 13.9385 -8.9177
7.72904 -9.24614 -7.72787
7.33663 -10.8658 -8.34794
8.3792 -8.56754 -7.63496
10.8767 -9.62197 -9.21123
8.99093 -8.82037 -7.89927
11.7664 -10.0338 -9.69139
8.07409 -8.53731 -7.22934
4.04233 -16.848 -10.6191
4.25064 -15.3839 -9.79997
7.84598 -9.36069 -7.3198
3.95371 -15.6342 -9.61647
11.4804 -9.82846 -9.05162
6.86524 -11.0788 -7.73922
7.77282 -8.82037 -6.9645
5.48903 -14.0018 -8.88588
6.4898 -12.7092 -8.35157
8.36333 -8.59583 -6.9892
9.68919 -9.08246 -7.74388
2.79137 -11.7987 -6.94992
5.48063 -13.9031 -8.4618
9.59625 -9.10679 -7.47876
6.61876 -11.072 -7.2634
3.34985 -20.7124 -11.7589
8.88028 -8.94065 -7.06419
12.1905 -10.2276 -8.91484
6.82465 -11.0078 -7.21552
4.68462 -14.6171 -8.48318
6.22337 -12.6253 -7.74343
0.896535 18.5811 -10.126
14.6162 7.72328 -8.98117
4.20523 -14.2482 -8.02365
14.7218 -11.6497 -10.1202
14.9699 7.43883 -8.90326
14.0079 7.7179 -8.49705
4.76697 -14.8535 -8.28901
12.0808 -10.1483 -8.30312
1.81451 -20.5007 -10.5883
11.4138 -9.85025 -7.7242
2.08219 -20.2268 -10.3183
13.9586 -11.0797 -9.01442
0.00481249 14.2813 -7.168
-7.30685 15.1893 -8.44838
10.5928 -9.59931 -7.18319
7.51485 -9.42582 -6.00616
-8.51869 16.1504 -8.82603
11.6394 -9.77528 -7.35711
10.4932 -9.58382 -6.8242
14.7786 -11.3302 -8.98235
16.6887 15.8087 -10.9196
7.48411 -11.0619 -6.36352
15.0055 7.41417 -7.85234
13.9221 -11.0244 -8.30015
-11.9668 17.137 -9.57799
15.8304 -11.9951 -9.07411
9.77546 -2.45098 -4.6292
-9.11528 -1.65716 -4.21318
18.7056 18.0501 -11.7275
3.91386 -9.10057 -4.49645
-10.2242 16.7031 -8.79607
-5.34843 4.44779 -3.12853
6.85827 -11.2911 -5.9476
9.42721 -9.08606 -5.77484
16.0094 7.30318 -7.76231
-6.63855 15.0787 -7.19728
1.50112 -18.7579 -8.13904
-11.1875 17.0229 -8.77199
9.58145 -3.37023 -4.35026
7.0176 -11.0459 -5.53241
15.8146 -11.9549 -8.29893
14.6423 7.7401 -6.94615
18.7375 19.4943 -11.2989
1.02061 -22.6382 -9.43422
-4.53488 13.8735 -6.01496
-9.93946 -1.11172 -4.14507
14.0812 7.77523 -6.5669
20.4303 22.2232 -12.3027
-13.0794 2.45114 -5.42109
15.1066 7.1775 -6.76341
-5.22465 14.3196 -6.13185
3.63816 -8.80809 -3.79334
13.9348 -11.0028 -6.939
19.2873 21.5858 -11.2272
18.7967 5.79623 -7.62673
1.53993 19.2501 -7.48664
-8.7377 15.7453 -6.94361
11.3977 -10.0495 -5.84506
19.2228 22.2859 -11.3349
0.683213 15.3803 -5.89516
-1.66197 12.7613 -4.95148
2.71415 -12.2476 -4.81317
-8.77444 -1.25321 -3.36909
0.703307 -23.6847 -8.94096
15.1732 -11.6279 -7.20982
9.49032 -3.4629 -3.81072
-14.5864 17.9829 -8.63144
-7.89567 -3.50743 -3.16881
1.0964 -10.4642 -3.86958
7.02848 -11.2372 -4.84725
14.1889 7.92248 -5.86627
-8.29795 -2.849 -3.15488
0.789953 15.2889 -5.45819
-3.9553 13.3789 -4.93716
5.73716 -10.9867 -4.36207
15.8233 -11.9583 -7.02519
19.0696 5.88964 -7.02102
2.11131 20.6078 -7.26302
21.6071 26.1206 -11.7787
-14.8901 18.3813 -8.12147
2.97049 -13.336 -4.70289
-8.8949 16.0694 -6.27849
18.4606 -13.0753 -7.75403
-5.04039 14.484 -5.21643
1.3616 -22.2785 -7.39629
1.75981 19.6139 -6.50428
1.44842 -10.3214 -3.44462
39.0489 -19.9612 -14.3933
6.16791 -10.0457 -3.77353
17.5491 -12.3914 -6.8812
2.11854 20.6739 -6.61284
-13.3603 17.8373 -7.02843
1.45338 -22.7708 -7.10917
-4.30351 14.7342 -4.7716
-10.9553 16.6003 -6.02971
-2.7613 -28.0957 -8.57624
3.06355 -9.46778 -3.02445
0.795474 -24.3335 -7.32155
19.0994 -13.5568 -6.95049
17.5898 5.5647 -5.41299
-7.88888 15.2732 -5.00619
4.2269 -10.4892 -3.28694
3.61943 -10.5651 -3.17877
4.23963 -10.9412 -3.29416
-13.3154 17.7985 -6.18489
-9.28798 15.8787 -5.0062
-13.2528 1.98664 -3.67454
-16.9292 19.4509 -7.00351
26.259 -17.2868 -8.51939
-3.93432 -28.0502 -7.5962
3.7819 -9.14317 -2.64751
-9.80137 16.2942 -5.06307
47.1459 -13.7657 -13.0244
10.5285 -9.39036 -3.73462
-6.44728 14.9296 -4.25001
-14.4209 18.0811 -6.07065
-8.03696 -38.0231 -10.1225
4.95556 -9.56658 -2.78894
6.55503 -10.4909 -3.19167
-7.20976 15.3033 -4.30187
-10.5559 16.4421 -4.99408
-9.93539 -39.3704 -10.0972
-9.07962 -39.195 -9.82389
10.936 -9.64047 -3.58504
-7.96715 15.4641 -4.21992
-11.7291 17.0488 -5.01097
14.6022 7.71333 -3.91933
4.0442 -9.24704 -2.38889
15.2056 7.53048 -3.99853
3.74469 -8.90382 -2.2708
-6.54925 -32.6285 -7.70585
5.62215 -9.8772 -2.63441
44.6446 -10.8039 -10.6766
-12.8125 17.4531 -4.98522
14.8588 7.60964 -3.77659
43.6878 -9.45079 -10.1261
-9.79158 16.311 -4.25967
3.71151 -9.24563 -2.16774
42.8532 -10.9934 -9.65639
15.1171 7.49956 -3.61341
-10.6406 16.6105 -4.22671
-21.9959 -34.5796 -8.80426
4.81704 -9.74325 -2.34509
44.9362 -10.5216 -9.87491
-14.7948 18.3307 -4.95734
-32.3078 -23.846 -8.51116
41.5924 -13.9167 -9.27925
14.8428 7.8432 -3.50083
-35.5646 24.0505 -8.77994
-8.40395 -34.3736 -7.1656
3.94798 -11.495 -2.4435
44.4657 -9.59374 -9.25264
11.7712 -9.74367 -3.06474
42.8749 -11.0373 -8.82289
-27.0236 20.3927 -6.72056
6.13823 -10.274 -2.38303
45.8211 -10.7151 -9.19133
-12.7998 17.4648 -4.1857
-26.8999 21.0811 -6.64186
16.0358 12.1296 -3.84266
-6.88624 15.1599 -3.1978
-33.2119 -24.0224 -7.84552
-31.7138 -24.8341 -7.74088
-35.7916 23.85 -8.09983
-33.7187 -22.243 -7.63342
18.0095 5.66206 -3.52347
-34.2442 -20.6619 -7.46905
-15.1351 -43.6355 -8.60372
3.76758 -9.8134 -1.9795
-24.7458 -61.6069 -12.3469
-16.888 -45.496 -8.87623
3.97284 -9.62946 -1.87914
13.0606 -10.2056 -2.98943
45.305 -10.0816 -8.33739
-14.7565 18.302 -4.20173
-27.0518 21.217 -6.07038
15.0796 7.98236 -2.97151
-30.3806 -26.4745 -7.02372
42.7344 -10.9462 -7.57436
-7.94141 15.2991 -2.92105
-9.76255 17.98 -3.4574
44.5783 -10.4938 -7.74461
-30.818 22.4478 -6.41942
-30.3532 -23.3521 -6.40084
-20.8463 19.9325 -4.79919
-32.4398 22.9098 -6.62586
15.91 -11.871 -3.25329
-10.3447 16.4238 -3.08887
-43.534 25.6167 -8.01416
-31.7349 -23.8404 -6.35433
-33.5814 -23.1633 -6.42524
3.43101 -9.48927 -1.57822
-23.8191 20.3474 -4.8385
16.9006 -11.9476 -3.20635
-11.1852 16.7406 -3.05959
45.9572 -10.7707 -7.16486
-23.0511 -53.419 -8.791
-29.5699 22.1767 -5.52707
-38.5234 24.0202 -6.7388
-31.7585 -24.6521 -5.99796
44.5802 -9.55327 -6.78903
-33.8638 -24.4906 -6.10641
-50.1796 28.0173 -8.26396
-35.673 -23.7944 -6.17234
6.72609 -12.9077 -2.11384
-36.3493 -21.1264 -5.95015
-6.95479 15.3342 -2.33937
-13.1364 17.7333 -3.0712
-32.2714 23.234 -5.55852
-24.8223 -55.2803 -8.35584
-16.2604 -47.5346 -6.90905
36.6515 -12.1889 -5.29767
-23.233 20.4161 -4.1157
-32.3897 -24.2563 -5.28302
-30.7451 -25.2223 -5.25773
-34.0271 -23.4346 -5.29238
7.44321 -9.42768 -1.55335
42.7876 -10.9527 -5.66771
-33.625 22.8811 -5.17114
-29.8676 -15.9376 -4.31537
6.03941 -7.82144 -1.26234
44.7217 -10.5114 -5.82473
-31.1911 22.9237 -4.83048
14.4982 -11.2953 -2.25823
-30.1109 22.6787 -4.56031
-32.7182 23.1287 -4.82434
-10.3767 16.504 -2.25291
-31.6256 -22.7456 -4.58322
12.9867 -10.5036 -1.95546
35.7584 -11.8162 -4.35805
6.34076 -10.3402 -1.39437
11.1905 -9.69732 -1.66853
16.4351 -12.2367 -2.30925
-11.0896 16.6285 -2.21351
6.75535 -12.5868 -1.56568
11.5977 -9.68522 -1.67351
42.627 -10.9308 -4.83173
-39.1981 24.4404 -4.95782
44.7824 -10.4644 -4.95199
14.9093 -11.4486 -2.00012
-12.9855 17.5436 -2.2422
14.7651 7.81496 -1.66933
13.9989 -11.0434 -1.78136
-14.0393 17.9557 -2.21094
6.39771 -12.2605 -1.33151
9.40224 -8.9184 -1.25269
17.0053 -12.4344 -2.05626
-28.9639 -13.8404 -3.02408
-15.0193 18.3919 -2.21372
-37.4619 -72.9825 -7.63645
-34.0956 -21.3352 -3.56145
16.1282 -12.0853 -1.81384
38.4457 -12.7922 -3.62673
11.1096 -9.8755 -1.22854
43.0313 -10.9982 -3.70465
-16.3288 -42.4919 -3.65661
-40.4837 -79.1604 -6.92642
17.6042 -12.8281 -1.72055
-30.3126 22.9414 -2.90771
7.44487 -9.17079 -0.91445
-33.0025 23.3614 -3.00359
-16.7138 -41.3471 -3.33329
-37.201 -70.0032 -5.63822
-36.1042 -72.3109 -5.53722
12.5672 -10.4586 -1.10068
17.0589 -12.4247 -1.42686
-39.6513 24.6841 -3.05377
43.285 -11.082 -2.93319
-28.7603 -13.5239 -1.90331
-40.85 -78.9205 -5.38241
14.5019 -11.3056 -1.10816
31.0956 -20.4843 -2.03525
31.069 -19.5816 -2.00776
15.3367 7.57444 -0.887383
14.7759 7.83504 -0.859789
-12.9093 17.6165 -1.10826
-24.9363 -55.0272 -3.10446
-42.8289 -80.7184 -4.46313
9.65334 -9.09157 -0.663365
13.4452 -10.6922 -0.843894
15.9557 10.1503 -0.893254
16.2504 11.39 -0.923797
6.82519 -12.518 -0.678182
-20.0785 -5.92453 -0.8988
-30.1569 -53.7426 -2.71955
10.2237 -13.8026 -0.702244
18.0392 -13.0089 -0.909129
42.5076 -10.8581 -1.74609
-9.40632 -12.441 -0.60172
44.0278 -10.3098 -1.7783
22.1192 26.592 -1.17949
-32.9011 22.4909 -1.38107
-36.6585 -20.5566 -1.36827
-18.39 -45.832 -1.58727
16.4709 -12.2882 -0.67066
14.3809 3.8953 -0.439353
-26.2039 -60.2137 -1.96983
-22.9155 20.4129 -0.876511
-12.4387 -37.7173 -1.06841
42.9226 -9.11803 -1.22719
-42.3238 26.3255 -1.34725
-54.8621 19.7275 -1.39641
43.6041 -10.1253 -0.962985
-31.1958 23.576 -0.781279
-30.5757 9.72527 -0.670671
31.1591 54.5543 -1.15404
-30.4511 22.4738 -0.724582
12.9651 -10.6233 -0.290524
-34.8173 -21.6677 -0.635756
-30.9589 -62.2618 -1.03577
17.4757 -12.603 -0.313174
-12.7121 -38.4315 -0.522912
-14.3194 18.1778 -0.23566
-20.2764 -46.5996 -0.552924
30.1938 -18.9114 -0.321523
-22.9052 20.4365 -0.207975
-9.94332 -12.7619 -0.0489389
7.01346 -11.6992 -0.0236444
14.6023 7.63623 0.000657511
-35.8341 -22.1274 0.224362
-24.0715 -41.1417 0.35076
-54.009 29.5866 0.630319
6.68402 -11.8594 0.141003
8.00293 -9.09928 0.121095
-41.4373 -22.0303 0.51585
-11.5624 -32.7437 0.386812
11.0937 -9.67056 0.192934
-23.2913 19.9012 0.403778
-12.435 -19.2934 0.333563
-31.4556 22.3835 0.688429
-35.4952 -23.7966 0.764737
-35.0024 -25.8578 0.759244
10.6276 -9.5506 0.233147
7.78491 -9.59608 0.265537
7.8913 -9.21056 0.261717
-71.9804 24.925 1.78158
18.0788 -13.1235 0.543942
-28.8733 -8.67432 0.807077
-28.2131 22.1246 1.0336
11.5742 -9.91628 0.415722
17.2465 -7.47587 0.535268
-25.2079 21.3793 0.984951
-7.9247 -9.29295 0.388748
12.6621 13.7666 0.66543
6.13281 -12.6361 0.494248
8.90293 -8.76069 0.426845
24.4828 -4.33842 0.831674
18.4464 17.6159 0.921326
13.758 23.8167 1.03473
-57.4976 18.8993 2.17988
24.2915 -4.71882 0.937566
-25.6795 20.9771 1.25434
9.3713 -8.91513 0.500099
22.3251 -3.07575 0.851491
12.1654 14.0902 0.762347
14.6915 18.983 0.983349
6.50718 -12.3376 0.572614
17.6918 40.8911 1.8608
7.63881 -11.0077 0.564869
-7.56938 -7.4511 0.469387
-8.30632 -11.492 0.633614
-29.762 -11.7818 1.52469
16.3277 10.5995 0.970409
-7.74619 -7.20748 0.506843
15.1739 23.574 1.44906
-6.97269 -8.20831 0.592155
14.4551 19.7942 1.34358
-26.3195 20.2667 1.83776
14.3038 23.2949 1.58337
-7.14612 -9.21186 0.666312
6.80227 -13.48 0.866804
9.85713 12.3989 0.93784
14.6095 19.4104 1.52354
14.8725 26.4692 1.86998
10.2032 28.6144 1.93264
-7.3284 -10.0024 0.793313
9.40754 21.439 1.57191
11.3766 10.0073 1.08025
11.4005 12.0557 1.17162
13.6195 15.7376 1.48979
8.17032 -12.5945 1.05988
10.7207 8.94905 1.02776
12.8174 14.376 1.44152
-14.4434 8.51754 1.26852
-11.1647 2.10328 0.859813
12.3506 16.077 1.57375
11.4888 18.3096 1.67906
10.0769 -6.89616 0.953513
-7.69433 -8.13951 0.896161
12.6857 11.4832 1.39604
11.7912 11.5353 1.36961
-7.02477 -6.18075 0.760476
-7.07764 -6.9208 0.821235
11.4024 11.9024 1.42166
10.5864 9.32562 1.28282
-11.4391 2.92914 1.08554
-7.6423 -7.11812 0.938416
11.5845 8.93869 1.40137
9.1511 12.9407 1.52227
7.13139 13.1221 1.4641
8.35513 12.9906 1.54926
-6.76157 -6.73786 0.948975
7.85178 -6.52662 0.999432
9.61739 12.0461 1.54519
9.87831 10.0908 1.45873
-6.89819 -5.41505 0.912787
9.56247 9.1057 1.40796
8.13918 11.0657 1.44021
6.70187 12.995 1.55811
9.54006 8.32475 1.3405
9.12639 10.1649 1.48843
5.63751 12.4181 1.47659
-6.40498 -7.54324 1.0695
6.636 11.2944 1.44155
5.19137 13.0076 1.54542
-6.84017 -3.98939 0.874639
-6.71263 -6.09224 0.998913
3.91554 -7.75999 0.962311
5.43396 -6.08793 0.916937
9.30951 7.4944 1.34348
9.00942 9.58796 1.48391
7.86312 11.1996 1.52997
6.72573 10.6144 1.43321
-6.89388 -4.57908 0.938815
4.70117 -7.67042 1.03958
-10.6821 7.16103 1.49318
-7.10316 -2.13711 0.863468
8.96982 6.05942 1.28808
5.83737 11.9139 1.56818
4.9309 11.4032 1.46551
4.76764 -5.85602 0.888895
4.10729 -7.87508 1.08007
8.30566 3.84701 1.14751
10.9091 5.44131 1.49854
4.51008 12.5484 1.66
-6.17119 -5.39928 1.0059
-9.16522 1.30645 1.15428
8.21056 7.50941 1.40845
-6.4508 -5.33135 1.05871
7.74403 8.13362 1.44408
-6.90072 -3.58016 1.00686
4.96216 -5.95935 1.00126
5.01755 -5.42091 0.963212
8.35621 6.87507 1.43363
7.89524 7.80698 1.4775
-7.21782 -1.72741 1.00028
-7.04503 -2.21383 0.989843
-6.4992 -4.38208 1.04154
4.82436 -6.08124 1.03306
8.34259 6.32275 1.42401
-6.86403 -4.22677 1.08642
-6.06071 -4.45332 1.01173
4.94418 -5.53138 1.01883
7.40067 -3.51511 1.14043
8.32676 4.22749 1.32659
8.28928 4.55501 1.34228
-6.95366 -2.9129 1.07827
7.46769 -3.72714 1.19186
7.00807 -3.05131 1.07833
4.93511 -5.78192 1.0974
8.17684 -1.7302 1.21052
-6.97308 -3.26429 1.14222
7.35127 5.53934 1.38268
5.71456 7.378 1.40974
7.9517 3.8964 1.35321
7.87254 4.17499 1.355
5.39396 7.74541 1.43519
5.0369 8.6039 1.50653
3.46068 9.46612 1.52068
-7.02231 -2.83242 1.15468
7.66826 -2.78965 1.25002
7.83213 -2.23201 1.25692
7.78203 -2.01327 1.24217
7.43038 4.18513 1.37528
7.0345 4.7301 1.39312
6.70904 4.88984 1.38061
5.34982 6.41088 1.38971
-7.22163 -1.3638 1.21724
4.95506 7.2768 1.46947
4.68886 7.17645 1.43921
-7.23672 -0.806128 1.21963
2.86557 -5.92903 1.11023
6.67079 4.07063 1.33536
6.4738 5.20027 1.41033
3.80135 7.86698 1.46655
-6.39146 -2.30516 1.15308
-6.29714 -2.68705 1.16795
3.77145 -5.23902 1.09916
-6.98865 -1.79968 1.26145
4.23403 -4.64079 1.10409
6.64014 3.49655 1.35543
5.03211 5.56602 1.3715
3.6315 -5.35953 1.17906
3.3342 6.68579 1.393
6.47403 3.03793 1.35876
6.40827 2.7059 1.32821
-1.6504 -5.71198 1.14148
-2.17267 -5.76789 1.2018
6.23583 2.37076 1.33362
3.93827 -4.57954 1.2015
-2.99951 5.59987 1.35522
-3.62319 5.21226 1.38408
4.20853 -2.92748 1.20514
-4.27951 3.93081 1.41635
4.58701 -2.18724 1.23348
4.47863 -1.26928 1.15758
3.70889 -2.93571 1.23232
3.6788 -2.58478 1.19296
3.42549 -2.97828 1.22516
-2.32097 -3.61648 1.20721
-2.49902 -2.92688 1.19743
1.87243 -2.49187 1.13177
1.93404 -2.64991 1.19644
-2.04161 2.80239 1.31442
-2.07153 -1.46376 1.19723
-1.82441 -1.83035 1.30254
-1.97601 -1.17176 1.20974
9.66254 -9.03845 -9.3658
9.22554 -8.91232 -7.64444
2.44697 -20.0707 -10.7378
3.66991 -9.29484 -4.50627
26.455 32.8661 -14.1674
2.07275 20.5292 -6.11742
-22.5052 -31.3487 -7.20534
9.49887 -8.76374 -1.61568
8.74971 -8.62149 -1.23178
8.8998 -8.7779 -0.926746
19.1157 -13.5349 -1.281
43.3031 -11.631 -2.32171
-31.5656 -13.35 0.345765
10.0346 6.90626 1.29357
-3.49753 5.32189 1.36839
7.97053 -8.22884 -10.278
7.83161 -8.25496 -10.0175
8.36223 -8.45212 -9.8472
6.82806 -11.7896 -11.194
7.96197 -8.22182 -9.05424
8.00183 -8.70048 -9.08491
6.20626 -14.1317 -11.6133
5.85695 -14.1525 -11.216
9.07098 -8.81825 -9.27508
7.61795 -9.1946 -8.65481
7.84637 -9.09804 -8.58952
7.20449 -10.6755 -9.16498
10.2102 -9.29522 -9.67981
6.41491 -11.0573 -8.73498
8.15832 -9.05916 -8.17563
7.32625 -9.31227 -7.90919
7.94709 -9.18941 -7.98808
5.02677 -15.9466 -10.7866
-0.52392 14.3495 -9.21674
7.29202 -10.7721 -8.34514
7.59764 -9.12326 -7.59697
10.9778 -9.79565 -9.34142
7.04294 -10.908 -8.09352
8.18107 -8.58859 -7.36942
0.111986 14.3601 -8.75113
7.7525 -8.71932 -7.03
11.4711 -9.7388 -9.08099
8.96749 -8.89623 -7.46574
6.568 -12.8266 -8.50158
5.50809 -13.9653 -8.82304
7.04092 -11.0796 -7.53602
5.10821 -12.8269 -7.75342
3.1611 -19.3137 -10.9739
6.60373 -11.0825 -7.2296
7.84458 -9.04243 -6.71339
12.1697 -10.1938 -8.87821
9.6882 -9.49084 -7.43762
13.2566 -10.6274 -9.16518
15.0597 10.3146 -9.80644
15.0346 7.38707 -8.95171
13.8578 7.6404 -8.36947
11.4005 -9.83868 -7.73818
-0.0637413 15.1928 -7.68484
2.36487 -19.486 -9.9161
10.6636 -9.55972 -7.2053
7.33698 -9.26699 -5.93015
14.0987 -11.1826 -9.06167
18.0306 -12.8929 -10.7851
18.6069 5.74526 -9.462
2.6613 -19.544 -9.57909
12.8396 -10.6072 -8.05297
15.3854 -11.7141 -9.38143
7.29554 -10.7551 -6.25969
15.0013 7.35365 -7.77509
7.08256 -10.8957 -6.05746
6.21747 -10.6206 -5.70001
9.99727 -2.5086 -4.73876
17.3588 -12.6837 -9.879
-11.7888 16.9221 -9.39997
3.54085 -9.03119 -4.39483
-10.2154 16.7007 -8.79772
15.985 7.22988 -7.8504
-11.2398 17.0998 -8.82521
-7.05232 6.83978 -4.23103
-6.47175 6.45561 -3.89103
1.19838 -15.4501 -6.58768
19.9539 20.6731 -12.0585
16.212 -12.2527 -8.54535
15.1557 7.44803 -7.05699
-10.0686 -1.09872 -4.20596
19.9338 21.6985 -12.0992
14.0956 7.78819 -6.55497
16.4021 7.38772 -7.22713
15.0043 7.72073 -6.76892
1.48756 -17.9182 -7.02145
18.6684 5.76012 -7.5614
19.4558 21.7116 -11.2759
0.769246 16.2922 -6.26655
-9.23711 -1.3397 -3.61627
0.710193 -24.1331 -9.18281
16.9006 -12.5008 -7.86368
14.1572 7.90538 -5.86168
0.536811 -22.6027 -7.96894
-4.05618 13.6402 -4.99374
-10.5996 16.2898 -6.80218
-0.861375 -22.8393 -8.03481
-14.999 18.5093 -8.23907
-8.90076 16.0783 -6.30652
-5.02318 14.3081 -5.11227
1.27454 17.6451 -5.89517
-5.34572 14.2434 -5.01541
38.5674 -19.8166 -14.3157
12.4732 -10.3174 -5.21701
8.01499 -9.18287 -3.90561
7.39919 -8.78858 -3.55651
-4.23709 14.2616 -4.47691
11.5334 -9.78186 -4.565
15.1094 9.50992 -5.11293
13.6502 -10.6587 -4.96963
-5.50561 14.6779 -4.41229
-13.4368 18.0331 -6.34619
15.6709 10.5924 -5.20994
-9.61075 16.1501 -4.99453
-27.073 20.9683 -8.94196
-23.8588 20.042 -8.06028
-7.13726 15.1504 -4.28216
-7.92915 15.3846 -4.22045
-26.0402 20.5501 -8.08338
-3.29237 13.4694 -3.32032
-11.7271 17.0149 -4.93864
3.10525 -9.53698 -2.37219
14.7666 7.87698 -3.95077
-33.3515 -26.1828 -9.94331
5.39205 -11.6264 -3.01979
49.3579 -11.9044 -11.8006
-7.24019 -35.4153 -8.30703
-9.72672 16.3128 -4.34141
15.0683 7.38342 -3.80137
-30.1237 21.9011 -8.26792
-12.304 -44.0332 -10.0414
3.7236 -9.40781 -2.22861
42.5322 -10.777 -9.47894
-34.8503 -22.8894 -8.88689
-14.7825 18.3433 -4.89205
14.6446 7.8218 -3.44823
-31.9641 -24.1869 -8.25173
9.29269 -9.19933 -2.71194
43.2599 -10.9977 -9.15667
45.9992 -9.75535 -9.49043
-28.4854 21.38 -7.02478
-21.1835 -34.4339 -7.94786
-33.2011 -23.9873 -7.74455
-34.6546 -22.8672 -7.75383
-14.7631 18.3518 -4.27753
15.3212 7.51251 -3.00658
-5.26628 14.0522 -2.64058
-18.5502 19.8485 -4.80294
-21.9619 -52.2913 -9.88994
-22.4263 -36.1776 -7.3457
-33.9366 22.9916 -6.95306
9.12497 -8.97503 -2.17235
-31.1317 22.6776 -6.2681
-32.0719 -24.0973 -6.40634
-20.2098 -53.7877 -9.17715
42.617 -10.8204 -7.01395
-44.4754 26.2686 -8.13947
-37.0772 -23.2127 -6.78344
6.43791 -10.866 -1.97332
-29.2421 -26.0668 -5.9186
-30.6119 -25.117 -5.93547
-20.2909 -49.9905 -8.01488
6.47691 -12.4054 -2.09014
-33.1185 -23.8183 -5.83893
-31.1109 -24.4906 -5.61897
-32.2096 23.0601 -5.54019
-13.0288 17.5903 -2.97942
-32.8727 -24.5764 -5.55765
-30.2223 -26.0009 -5.41186
-31.8033 -19.7787 -4.91803
-33.7591 -23.2705 -5.40867
-33.4424 22.6829 -5.09203
-30.5876 22.7657 -4.66257
-40.7244 24.0547 -5.81351
12.9513 -10.4716 -1.95336
9.7061 -9.08772 -1.52931
10.5493 -9.2294 -1.54412
-13.0664 17.6665 -2.31446
15.1065 -11.6166 -2.03466
-30.9448 -24.4726 -4.0011
45.8415 -9.74278 -4.68517
17.1296 -12.4986 -2.08778
42.3325 -11.3778 -4.13415
-33.6312 -68.9925 -6.80784
-23.3319 20.4149 -2.71641
-28.97 -13.0011 -2.75905
6.94724 -10.6784 -1.11906
17.0448 -12.3161 -1.82144
-29.3423 -26.18 -3.31793
9.84571 -8.9396 -1.09791
13.7199 -10.9085 -1.41073
-34.3274 23.2725 -3.17166
-29.9767 22.4602 -2.77056
16.7488 -12.2172 -1.51533
-17.4235 -42.7209 -3.30917
7.34507 -9.11247 -0.853589
-25.7873 -59.1875 -4.44498
9.57178 -9.01638 -0.872898
9.71723 -4.73202 -0.681966
11.309 -9.798 -0.942692
-14.9197 -40.9635 -2.56699
15.221 7.47644 -0.928776
14.6565 7.84725 -0.904018
11.7861 -10.0072 -0.798522
16.8962 -12.6546 -1.00962
-12.5525 17.1948 -1.02425
-36.4938 -65.2046 -3.59041
-27.0908 -54.2392 -2.907
-35.0688 -19.7885 -1.35451
-18.1671 -44.9641 -1.61831
-25.1172 -58.0873 -1.83247
-22.1795 -59.8261 -1.85222
15.44 13.4707 -0.395396
11.5466 11.2337 -0.302095
23.7349 28.9811 -0.638687
13.2338 -10.8895 -0.316276
-22.0294 -48.3787 -0.87358
-19.5154 5.65635 -0.10652
-34.7952 -66.7856 -0.404783
29.7934 -18.7936 -0.234161
18.5966 -12.9226 -0.024392
14.7936 7.65491 0.0339096
-31.6004 -13.2573 0.238634
6.51641 -12.1749 0.157842
11.3814 -9.94541 0.165179
-12.3036 -19.0019 0.299331
26.0128 -5.0487 0.751306
21.5205 44.093 1.54056
-7.85864 -9.27248 0.420184
-30.6576 -14.6156 1.27864
16.0576 28.975 1.43194
-10.8224 -16.904 0.847557
14.7452 19.5682 1.12262
18.7584 36.6621 1.86263
16.6633 31.9485 1.69028
6.55601 -12.4135 0.662382
-6.96697 -8.4672 0.56322
15.4741 25.5936 1.60034
6.29689 -13.7157 0.782403
-6.74253 -4.55201 0.481409
-11.6368 -8.88335 0.866412
-7.5417 -10.4131 0.855276
10.9546 9.0755 1.01273
6.24151 -12.9472 1.00979
-7.1692 -6.35223 0.682472
7.06861 -10.8064 0.919931
12.8511 20.0556 1.82621
-15.0344 8.40341 1.32495
10.988 -4.91481 0.915274
9.4599 -8.87826 1.03576
10.3701 12.482 1.46364
6.50587 -6.19017 0.831925
10.9968 9.0885 1.34082
6.43424 13.3888 1.41693
4.5676 12.6384 1.31314
9.71348 12.1953 1.56875
7.61174 10.4195 1.3458
6.59088 12.773 1.53077
8.20944 -6.6261 1.10913
10.103 9.5546 1.48629
7.0999 10.7117 1.38375
8.77105 9.32021 1.44757
4.73985 -5.85175 0.848255
9.88649 5.45242 1.28983
7.00857 11.1315 1.53387
5.91072 10.6169 1.43984
-7.02827 -2.09787 0.851999
8.44658 8.58301 1.42807
-7.19553 -0.818155 0.86708
-6.88148 -3.96678 0.944522
4.41172 12.184 1.57755
-7.03252 -2.33286 0.893216
-7.45991 -0.98723 0.926207
-9.17411 1.34188 1.15956
8.32037 7.59594 1.43099
4.84069 -5.2654 0.934257
7.74211 8.17456 1.48148
-7.26664 -4.51157 1.15466
7.26274 -3.86967 1.14164
7.46333 -3.53913 1.15207
7.46681 -3.27021 1.13858
8.1364 4.13854 1.30466
7.42094 -3.70521 1.18478
8.32856 4.57564 1.36067
7.70588 -3.01959 1.20083
7.92258 -1.91974 1.17247
5.6922 7.35847 1.40337
5.205 -5.60989 1.17212
-7.14445 -1.82984 1.15542
-7.18744 -1.33054 1.16291
5.28651 6.35207 1.36872
-6.41525 -2.316 1.13884
6.81298 4.18647 1.36064
-7.3374 -0.957416 1.2553
2.98517 -6.16857 1.15355
-6.96704 -1.76845 1.26379
3.9983 -5.11107 1.12913
4.70499 -4.47713 1.151
3.54844 -5.23102 1.16049
5.00781 5.54222 1.36489
-7.25226 -1.15818 1.34088
3.84528 -5.22276 1.20802
-7.0581 -0.809742 1.34818
6.32448 2.82939 1.33312
3.6932 -4.57272 1.1359
-2.25059 -5.37825 1.17138
4.9408 -6.4356 1.59836
3.81167 -4.42132 1.15536
4.15899 -4.32822 1.22942
-6.41632 1.48022 1.36689
-2.89309 4.8435 1.18412
-1.34223 -4.98842 1.14525
4.03806 -3.75992 1.22218
4.46316 -2.75759 1.21377
-4.46219 3.92794 1.38301
4.79997 -1.93909 1.24592
-2.7376 4.70543 1.28481
4.34219 -2.67892 1.23104
-1.0159 -4.21258 1.16647
-1.42725 -4.00703 1.18065
-2.14821 -3.81484 1.21651
3.99642 2.55397 1.33143
1.84454 -3.18241 1.21959
-2.04392 -2.43148 1.27315
2.57845 -1.81737 1.32176
2.47534 -1.91755 1.32267
-2.16862 -1.77844 1.21353
2.36278 -1.30129 1.19641
-2.00399 -1.48919 1.20323
7.7432 -8.28919 -9.99364
8.15124 -8.17772 -9.54763
6.73881 -11.7735 -11.0826
