ply
format ascii 1.0 
element vertex 1877
comment /media/mkaihara/Seagate Backup Plus Drive/model_iterations/model_22.ply
property float32 x 
property float32 y 
property float32 z 
end_header 
-7.13841 -9.4093 0.569863
9.29617 -9.11159 0.616432
11.5649 -8.87287 0.682585
20.4872 -2.3478 0.993154
11.9109 12.1388 0.843637
17.7678 42.7307 2.27329
7.87473 -9.59765 0.61095
10.3365 -9.41425 0.692302
15.3858 26.0902 1.51535
21.9733 42.6115 2.4317
21.4171 -2.66803 1.09726
-7.31201 -8.4006 0.577969
9.5166 -9.06095 0.684157
17.5754 25.7733 1.63747
17.6511 31.9998 1.90596
13.2517 -10.923 0.912472
10.8236 12.6529 0.889663
14.7895 20.0756 1.33837
11.2515 -9.75633 0.80523
15.6108 20.3395 1.41289
-25.0278 19.1856 1.72055
-6.88554 -8.07823 0.587366
10.5142 12.7117 0.922999
-7.16093 -9.24436 0.655234
10.2483 12.7666 0.94866
-26.436 18.6121 1.83311
6.2863 -13.276 0.84048
11.456 12.3843 0.968814
-6.8154 -6.7263 0.555331
11.5469 12.313 0.993132
-6.72606 -8.31134 0.640109
6.42251 -12.9101 0.842056
15.231 20.2651 1.52333
14.839 24.2618 1.69548
14.4841 33.4745 2.18792
-6.02423 6.41625 0.53892
-8.07264 -7.64918 0.672768
-7.0334 -8.06863 0.657533
5.88501 -12.7984 0.85124
-7.40519 -6.81787 0.626193
7.14671 -11.3867 0.83098
7.1141 -10.7516 0.804392
11.5252 -9.94876 0.940249
12.3396 -10.3226 0.996925
16.525 7.31861 1.15093
15.4769 20.0495 1.6015
-7.16988 -6.2486 0.616779
10.4207 -9.51754 0.910707
-7.30965 -6.20125 0.628712
11.7574 12.4065 1.16392
10.0697 22.6692 1.6884
-7.16933 -9.51667 0.796448
11.9324 12.9419 1.20685
-6.90423 -4.42456 0.563752
-6.67487 -8.10694 0.716348
-6.65235 -4.4024 0.549931
9.40269 -8.98964 0.905488
10.1266 -7.94505 0.906572
13.1281 16.5462 1.52642
-6.60981 -6.60249 0.649118
9.94258 -8.39611 0.951457
11.8862 17.7729 1.60673
11.8489 18.8907 1.6651
10.0091 19.0507 1.62227
9.45622 20.4365 1.69315
7.82546 23.324 1.84933
11.2227 19.3713 1.70494
10.1409 -7.69408 0.973171
-6.95715 -7.11662 0.762671
-16.8856 -6.1245 1.40434
9.58973 -7.77446 0.967613
9.75438 19.4827 1.71921
-6.33866 -4.23245 0.603941
-6.75176 -8.12614 0.837782
4.86663 -5.77104 0.600005
9.46941 20.8337 1.81474
8.16159 19.9557 1.73331
5.06257 -5.83474 0.622189
13.0802 11.803 1.42701
12.0635 12.1177 1.39953
6.8329 -9.53227 0.953035
12.5276 11.9824 1.42439
7.07264 20.7632 1.79549
-6.31466 -4.35916 0.625047
-7.06405 -9.34934 0.962219
11.8326 12.3966 1.41734
10.6725 9.33666 1.20694
-4.94392 -11.28 1.04135
6.1756 -6.09501 0.757196
9.32406 -7.26377 1.0164
-6.73314 -6.63184 0.802932
10.6997 12.6802 1.44786
8.89849 -7.41474 1.00669
11.1014 12.5144 1.46356
-7.22991 -7.67983 0.92486
8.28148 -7.37263 0.984262
10.4744 12.8028 1.48663
-6.99572 -7.65885 0.919896
-6.85757 -8.24371 0.962644
10.8703 12.6361 1.51312
10.8022 13.9343 1.59695
-7.03387 -8.23112 0.986551
11.4708 11.0801 1.46647
-6.274 -4.20407 0.694134
-6.77911 -8.49067 0.994405
-6.28702 -4.36566 0.705246
11.287 8.71057 1.33747
10.85 9.5117 1.34492
6.76335 16.0667 1.63967
11.3195 11.2536 1.48935
10.7566 11.5721 1.49461
-11.0807 2.83943 1.07962
6.20684 -6.01305 0.823677
8.08626 -6.70358 1.00868
10.9499 9.3768 1.39909
9.78496 12.8751 1.56553
9.97145 12.7967 1.59802
7.88306 12.6075 1.47687
8.15633 13.6352 1.58141
11.4242 8.20378 1.43303
7.35812 13.0938 1.51576
9.28236 11.6328 1.51404
7.23436 14.0059 1.61335
6.09589 14.4854 1.61366
9.40339 10.7204 1.47358
9.27576 12.637 1.62854
11.585 7.79038 1.45603
9.44876 10.2186 1.44878
5.00831 -5.86052 0.827381
-6.79688 -4.62274 0.866825
5.79925 14.4488 1.65295
-7.00765 -4.47384 0.886369
9.13326 10.9437 1.53027
-6.70452 -6.71415 1.01503
5.955 -5.87775 0.903599
9.8687 8.6889 1.417
9.14047 9.54703 1.42134
9.46144 10.5474 1.53603
4.99077 14.4651 1.65214
4.29223 -8.16286 0.998524
6.63464 11.0999 1.42308
-6.75619 -3.89881 0.858266
6.5371 12.2575 1.5415
-6.84894 -3.83714 0.869361
9.86712 7.32136 1.37372
6.85357 11.697 1.50996
9.96121 7.14211 1.37671
5.60485 11.9488 1.49264
5.62084 12.4989 1.54829
4.87526 12.6883 1.53856
9.98608 6.78735 1.37583
-6.84299 -4.53127 0.939697
7.47548 -6.28781 1.11325
-7.27992 -0.780036 0.838782
-6.2301 -5.35209 0.945816
5.28564 -5.60669 0.888909
9.02962 8.02759 1.40741
4.46446 -7.25839 0.986787
10.5565 5.22618 1.3792
9.11329 7.92815 1.41973
5.23697 -5.65093 0.910013
8.75271 8.05685 1.41142
9.07798 9.23541 1.51496
-6.99096 -5.6055 1.06019
10.2737 4.81069 1.35136
-6.87244 -3.82604 0.947404
9.27309 6.2338 1.35499
5.37742 11.7877 1.57111
-6.84943 -3.04609 0.910394
-6.83365 -3.23079 0.913684
4.91774 -5.99737 0.946395
6.02453 -6.18094 1.05067
9.50326 5.70025 1.3697
8.59983 7.34209 1.39794
-6.90214 -4.28059 1.00022
-6.83355 -4.50319 1.00842
8.41616 8.74911 1.50607
5.19371 11.6809 1.58793
-6.50095 -5.57549 1.06578
3.75402 -7.6664 1.06324
8.65011 7.87666 1.46376
6.12488 -5.66079 1.04545
9.29925 6.1487 1.4126
-6.0921 -5.37563 1.02513
8.67899 6.7142 1.39922
8.22433 7.63606 1.42753
-7.0547 -1.7713 0.929752
-6.96877 -2.2913 0.936357
-6.39951 -5.2808 1.05849
8.94982 5.73788 1.36274
8.30149 8.19011 1.50297
-7.21407 -1.24471 0.938078
-6.85121 -4.09106 1.03138
7.53753 6.30982 1.27304
8.20688 7.15306 1.41159
8.11368 8.27303 1.50155
-6.86662 -2.80832 0.965392
-6.86765 -2.94722 0.965756
4.68405 10.3736 1.49645
9.10178 4.15851 1.31698
-7.19868 -1.59529 0.968383
6.88616 -4.28814 1.07797
4.96538 -5.98832 1.03112
-7.28206 -1.10937 0.985325
-6.96916 -2.18521 0.976483
-7.0057 -2.25391 0.982682
-5.95887 -4.37176 0.987475
5.23425 -6.62268 1.12472
6.95749 -4.2045 1.09426
8.20333 7.28565 1.48631
-7.10383 -1.70681 0.98163
-7.03634 -1.94292 0.981236
8.90302 4.91527 1.38111
8.44665 5.95406 1.40498
-6.87555 -3.59524 1.05692
8.96939 4.20964 1.35888
3.46804 10.9014 1.56731
-7.26202 -1.19162 1.00673
-5.97374 -4.41456 1.02138
-5.95401 -4.51252 1.02257
7.19737 -3.96133 1.12903
8.1912 6.5818 1.45321
5.47986 9.26234 1.49065
-6.34165 -4.29397 1.04971
4.96655 -5.56341 1.03579
7.23508 -3.85624 1.14089
7.6144 -3.71302 1.17202
3.73724 10.3692 1.53579
3.55488 10.6979 1.57283
-7.31728 -1.0745 1.03184
-7.02735 -1.99067 1.01729
5.00422 -5.3215 1.02096
7.29727 -3.76365 1.15336
7.41514 -3.69821 1.17511
7.93121 -3.38153 1.22558
-7.10707 -1.86222 1.04431
-6.96242 -2.92665 1.09406
-5.97188 -4.34717 1.06215
7.96453 -2.80314 1.23524
8.33141 4.67622 1.39972
5.10463 8.7451 1.48459
8.46972 4.56106 1.42167
7.88779 -2.35787 1.21346
7.24216 5.76526 1.38622
3.06081 9.77205 1.53243
-7.04695 -2.00614 1.09758
7.53787 -3.13211 1.23043
8.32706 4.60207 1.44213
5.89056 7.57591 1.45751
5.39273 7.78022 1.44289
5.23154 8.10571 1.46584
5.1863 8.2202 1.47151
7.3858 -3.19224 1.22881
7.73595 -2.77641 1.25149
-6.71357 -1.67218 1.04156
7.8898 -2.27354 1.25901
7.33017 5.49765 1.40701
-7.05632 -1.93943 1.13507
-6.87522 -2.76788 1.15151
6.90527 5.60113 1.39474
-7.30338 -1.088 1.15267
-7.09646 -1.81194 1.14651
-7.00025 -2.05393 1.14255
-7.07347 -1.85999 1.14721
-6.85055 -2.9153 1.16836
4.90481 7.60556 1.43978
3.46962 -6.07249 1.11641
-7.22543 -1.29043 1.17517
3.54907 -5.74142 1.08706
3.58537 -5.64501 1.07617
7.16463 4.82954 1.40804
4.75534 7.52679 1.44955
-7.02457 -2.01018 1.19024
-7.04625 -1.93407 1.19847
7.05923 4.89178 1.42049
3.91133 8.12637 1.49406
6.08792 -3.33825 1.15647
6.72275 4.93882 1.391
4.75442 7.30788 1.45488
3.85641 -5.32803 1.1052
7.19681 4.48162 1.42763
7.55482 2.88889 1.36693
6.41059 5.35915 1.41635
-7.22891 -1.24707 1.24856
6.83508 4.13257 1.37181
-6.41263 -2.75552 1.19049
5.53813 -3.64849 1.13911
5.72142 -3.53746 1.15479
2.83355 8.07721 1.48129
-7.32067 -1.03222 1.28105
5.36075 -3.80247 1.14554
-6.27502 -2.24679 1.15525
-6.23596 -2.40307 1.16969
4.30062 -4.68578 1.11202
4.5146 -4.49759 1.11768
4.61317 -4.46973 1.12672
-6.75855 -1.72174 1.22801
4.41269 6.62076 1.41998
-7.11094 -0.921996 1.28102
-6.11054 -2.24539 1.15909
6.71572 3.73446 1.37759
6.17577 4.41616 1.37732
3.62687 -5.35408 1.17578
5.22793 5.77409 1.42514
2.58241 7.39218 1.47242
6.55217 3.08386 1.36933
-1.69781 -5.75343 1.13565
6.46516 -1.39425 1.25481
6.33458 2.8052 1.33394
6.27524 2.40338 1.34079
-4.40666 3.89877 1.38124
4.36883 3.57037 1.35002
4.25059 3.32337 1.33625
4.67959 -1.68284 1.24878
4.83514 -1.38556 1.25834
-2.11073 4.72526 1.28966
3.73351 -2.95804 1.22457
3.67825 -2.55302 1.19539
3.41045 -2.96496 1.22726
4.03253 2.58779 1.33952
-2.59062 -3.52866 1.24847
-2.32334 -3.56608 1.2143
3.77611 2.06967 1.30971
3.75194 1.99121 1.3089
-2.81864 3.45471 1.3729
-2.29587 -2.4184 1.18613
1.95129 -2.7754 1.21075
-2.11157 2.74957 1.31429
-2.01755 2.73811 1.3206
2.24717 -1.86676 1.22395
2.37735 -1.49647 1.22151
-2.00926 1.86938 1.2891
-2.06498 -1.44302 1.22735
1.44441 -2.06337 1.24223
-1.99303 -1.08782 1.2133
-1.9254 -0.707665 1.21859
-1.9271 -0.703429 1.24413
-1.95568 -0.344322 1.22701
-1.89329 -0.564675 1.22836
-1.89286 -0.530883 1.23341
8.31003 -8.7932 -7.54447
12.314 -10.4458 -8.93369
-8.46417 15.1015 -6.71192
21.3867 26.0498 -12.1174
-8.72522 -2.49881 -2.55741
-32.8816 -21.9651 -7.3054
-32.5395 -21.28 -5.737
-32.2627 -21.9252 -5.7931
-29.9302 -19.1953 -2.67364
9.43093 -8.98279 -0.39776
-7.20287 15.5262 -0.422683
-28.5115 -11.033 0.704571
-6.83971 -8.17468 0.455453
17.5952 25.2663 1.67133
11.8081 16.6068 1.68481
-6.6359 -6.60931 0.875813
4.39887 12.7654 1.55671
8.91152 9.28274 1.50498
8.05073 -8.8479 -10.4776
8.92422 -8.6269 -10.6035
7.02211 -12.0421 -11.6136
6.93654 -11.4499 -10.9899
8.23414 -8.34583 -9.62511
7.08386 -12.1278 -11.418
7.1342 -11.0735 -10.5505
8.08379 -8.46143 -9.2946
6.79235 -11.3875 -10.381
6.50615 -11.8009 -10.302
7.83692 -8.9392 -9.06065
6.26294 -14.4362 -11.905
8.3891 -8.79401 -9.19732
6.35917 -12.0138 -10.2632
6.20205 -12.1873 -10.1942
7.57293 -9.54576 -9.09521
7.99102 -9.14703 -9.01528
10.6131 -9.57983 -10.6305
6.16856 -14.2127 -11.4492
6.14262 -13.7484 -11.069
6.18676 -12.6816 -10.3754
9.30764 -8.93095 -9.46039
9.39686 -9.18071 -9.57922
5.91837 -12.6101 -10.1164
9.47349 -9.09626 -9.37069
6.93814 -11.2451 -9.37444
5.66525 -13.074 -10.082
9.81835 -9.19816 -9.53213
7.69089 -9.44217 -8.55988
10.1299 -9.30714 -9.6618
11.0663 -9.62123 -10.287
11.611 -9.84141 -10.2192
8.47882 -8.70296 -8.04237
7.51484 -9.40162 -7.95023
8.26326 -8.81914 -7.98613
7.71544 -9.45681 -7.98264
7.92684 -9.5076 -7.9314
8.41688 -8.6327 -7.70554
0.346441 15.8253 -10.1008
7.61513 -9.43023 -7.71125
11.0698 -9.74578 -9.37481
7.31688 -10.8331 -8.27085
8.24941 -8.59415 -7.51083
4.64233 -15.4826 -10.1634
8.80963 -8.79464 -7.70003
8.01245 -9.13431 -7.49276
4.06917 -18.0754 -11.4108
8.29209 -8.72525 -7.35686
4.09708 -17.321 -10.8594
0.133521 14.8272 -9.02304
6.73583 -11.3953 -8.05636
7.83032 -9.37077 -7.40745
10.277 -9.45075 -8.46928
6.90281 -11.3821 -7.98862
8.1571 -9.3128 -7.42923
11.444 -9.84626 -9.02353
5.45468 -13.9823 -8.89861
7.82596 -9.37307 -7.23931
9.472 -9.14891 -7.80123
6.98797 -11.2489 -7.83496
8.07828 -9.23458 -7.19727
9.88807 -9.31369 -7.9142
15.1219 7.55734 -9.82286
8.77935 -8.94399 -7.23984
7.01723 -11.0936 -7.54151
2.66125 -11.2873 -6.6675
7.95423 -9.17873 -6.95421
7.51095 -8.94178 -6.62787
9.7396 -9.26697 -7.63456
10.9504 -9.63251 -8.22501
0.118695 15.273 -8.61575
3.2714 -20.4853 -11.6662
6.87985 -11.1048 -7.32097
10.2513 -9.42351 -7.79577
12.5603 -10.5381 -9.19156
9.36266 -9.12537 -7.30364
4.66359 -14.4247 -8.44882
8.10686 -9.33337 -6.86384
15.0462 7.69349 -9.28235
9.83313 -9.23332 -7.40594
0.8235 17.4629 -9.54911
2.72965 -19.7017 -10.846
11.3011 -9.7919 -8.1166
4.28701 -14.5872 -8.22676
14.957 7.82299 -9.09655
15.3934 10.63 -10.0499
14.2761 7.87697 -8.71687
11.1202 -9.76568 -7.86776
13.5149 -11.0047 -9.26823
3.03099 -19.1925 -10.2151
11.5376 -9.98107 -7.76024
2.16134 -20.2241 -10.2662
10.421 -9.48689 -7.08424
14.5444 -11.5024 -9.30737
14.0841 -11.3908 -9.06512
11.1879 -9.81222 -7.41163
7.60511 -9.4562 -6.00746
3.59018 -8.52846 -4.5589
-8.62149 -1.89299 -4.33929
2.2073 -19.9309 -9.83653
4.5641 -9.3602 -5.09169
0.392774 13.6541 -6.6886
7.70455 -9.38631 -5.92372
-8.24129 15.7139 -8.58737
-9.11159 -2.40876 -4.54073
15.3158 -11.8264 -9.29595
19.7918 5.66319 -9.84816
-10.2005 -2.52553 -4.97008
1.90363 -20.3905 -9.73835
17.6957 16.6332 -11.5099
7.69276 -11.3696 -6.47476
20.4712 5.52582 -9.98876
14.297 -11.3178 -8.47692
2.9563 -17.449 -8.22671
19.7752 5.85132 -9.53058
18.2841 -13.3235 -10.4467
9.95463 -2.51452 -4.74473
20.7348 5.25572 -9.87223
17.8318 16.7723 -11.2881
1.79901 -19.9984 -9.19042
9.80502 -9.16746 -6.14486
-9.12185 -1.65574 -4.22761
9.53666 -3.49942 -4.62711
6.81427 -11.4837 -6.07092
10.0032 -2.6423 -4.69364
19.6672 5.9974 -9.26005
18.2706 18.1268 -11.578
9.45006 -3.11309 -4.47911
15.7811 -12.1428 -8.9327
7.1455 -11.7363 -6.14306
7.25037 -11.0647 -5.89404
9.64494 -3.43536 -4.56304
-9.7032 15.8931 -8.28442
18.0933 -13.2037 -9.94998
19.962 5.75078 -9.21082
16.4255 7.45092 -7.99087
18.3908 18.5802 -11.5699
16.8042 -12.4965 -9.22674
-10.8531 16.4959 -8.67254
-6.36915 14.5397 -6.95371
-5.16957 4.84736 -3.08536
20.5841 5.58917 -9.27605
9.64387 -3.43563 -4.41867
18.818 19.0774 -11.5255
16.1808 -12.4508 -8.78241
15.1442 7.57277 -7.23022
3.8772 -9.39112 -4.31495
-10.7918 16.4052 -8.30694
7.04361 -11.0592 -5.5264
-13.3557 3.27295 -5.7921
0.740074 -21.9974 -9.27706
16.1432 -12.2214 -8.46498
-5.09031 5.60334 -3.16464
0.990327 -21.8479 -9.16986
1.23062 -20.605 -8.64781
14.4332 7.74181 -6.85443
19.1898 20.0028 -11.59
3.81784 -9.03372 -4.08833
15.0564 7.87973 -7.07766
18.5211 19.7857 -11.2553
-9.41756 -1.08091 -3.91258
4.03594 -8.55939 -3.87614
14.2994 7.89663 -6.70973
6.94373 -11.1439 -5.36568
-13.4031 2.50361 -5.57665
-7.70988 14.9253 -6.82052
19.9783 21.7136 -11.9626
15.3666 7.38426 -6.8729
-5.13213 13.9954 -5.97131
14.243 -11.2598 -7.10897
3.98704 -9.19922 -3.93408
1.53955 19.5045 -7.60428
-8.45521 15.2614 -6.774
19.405 5.91817 -7.86362
-1.73119 13.0388 -5.09197
5.35858 -9.50292 -4.20552
-2.34586 13.225 -5.15573
20.381 23.5825 -11.9609
4.70481 -8.59388 -3.71952
19.8491 5.69453 -7.86069
0.85643 -25.5758 -9.72954
15.236 -11.7403 -7.23618
20.4286 5.53475 -7.92432
9.52772 -3.47137 -3.79164
0.523455 -21.8814 -8.16127
3.29617 -10.9443 -4.26769
21.034 24.4771 -11.9944
0.906568 -8.66918 -3.23328
14.3164 -11.3371 -6.73153
20.8534 5.30404 -7.91422
18.486 18.2695 -9.5052
-12.8373 2.24891 -4.73734
21.7658 25.9984 -12.3073
2.31279 -13.3801 -4.88984
13.2869 -10.7443 -6.14675
0.789806 15.5382 -5.57029
-8.13163 -2.77498 -3.07312
0.406198 -21.1911 -7.5801
-4.09541 13.4168 -4.98446
0.631576 -21.3899 -7.60728
16.2318 -12.2587 -7.20695
-15.1217 17.4785 -8.13995
6.00376 -11.4771 -4.55233
-10.6244 16.0275 -6.71068
0.0980001 -18.031 -6.34142
14.5614 -11.5392 -6.49433
20.8083 5.48032 -7.51339
0.648731 -22.4046 -7.7437
-4.85171 14.065 -5.09219
3.67577 -8.52995 -3.19594
4.93012 -9.12969 -3.55415
-13.9428 17.3066 -7.60192
2.29209 -10.9514 -3.83316
-8.56528 15.5299 -6.03994
3.08764 -13.9497 -4.86778
-14.3989 17.6691 -7.72193
20.6232 5.60737 -7.18614
23.178 28.6784 -12.3343
37.8739 -21.3787 -14.5286
-5.12858 13.5879 -4.81804
1.93639 21.1301 -7.04666
1.26909 -10.2353 -3.41006
19.6858 -14.3089 -8.07959
34.0046 -21.3758 -13.2036
-5.08087 13.9731 -4.82385
-12.1106 16.5756 -6.65442
19.0912 -13.604 -7.60985
3.58668 -8.73353 -3.02616
6.30668 -10.2516 -3.8556
2.32526 -11.0465 -3.59158
-4.26667 -32.1236 -10.3068
-1.08187 -22.8356 -7.28191
15.3755 10.5901 -5.8963
-12.7038 16.9009 -6.67811
-17.2335 18.5856 -7.9629
3.04964 -9.83112 -3.24529
13.5212 -10.6615 -5.41642
7.08195 -11.2839 -4.11658
1.36311 -21.3984 -6.63491
-2.43378 -26.0093 -8.02418
7.49963 34.7106 -10.8481
0.764978 15.1263 -4.60357
-10.7021 16.1434 -5.83289
-2.54473 -25.0557 -7.59049
-13.7747 17.2198 -6.57514
-4.97433 -32.683 -9.84935
0.815022 -24.0585 -7.20163
-5.19238 14.2657 -4.51041
2.10834 21.1071 -6.2556
-20.3557 18.9784 -8.20689
18.6049 5.92072 -5.74956
-4.15193 13.922 -4.2667
-7.62945 14.7943 -4.87863
4.31108 -9.25938 -3.00048
4.71359 -11.8042 -3.71434
-12.4299 2.18967 -3.62688
-30.3603 -43.009 -15.154
-14.5844 17.5424 -6.55386
7.09101 -11.2922 -3.83655
2.58835 -9.62867 -2.83177
13.1857 -10.6722 -4.82587
-8.37801 -2.43829 -2.47413
22.1312 28.5489 -10.2437
-8.50308 -2.24112 -2.48477
-2.3886 -24.4364 -6.89685
-12.8275 1.96564 -3.61343
4.46944 -11.5346 -3.43107
-8.94264 15.3742 -4.87829
-12.5353 16.7153 -5.73454
-5.18481 13.8246 -4.03047
-7.80932 -37.9656 -10.6125
9.88945 -9.0133 -3.64032
-20.5126 19.1408 -7.53878
-9.34532 15.4922 -4.8442
-25.4599 19.5571 -8.5377
11.7127 11.7901 -4.38971
4.41086 -11.5093 -3.26293
49.7861 -14.4727 -13.7321
-7.47558 -35.3045 -9.49335
4.14923 -8.78257 -2.55614
11.3733 -10.1156 -3.98038
-13.8465 17.335 -5.76506
6.638 -10.5835 -3.23194
3.22208 -9.77413 -2.65903
-27.7867 -40.6984 -12.7297
-4.03603 -26.5016 -6.94283
3.60081 -10.5415 -2.87044
4.12939 -9.52566 -2.66694
15.9905 -12.0236 -5.10278
-6.84984 14.5864 -4.07397
-29.2359 -38.991 -12.3622
4.39384 -11.3513 -3.07849
4.30952 -7.80283 -2.26751
6.65666 -10.8567 -3.17412
47.2514 -14.2862 -12.3049
-26.8723 20.2735 -8.31939
-11.0537 16.2369 -4.83836
-25.7055 -37.5015 -11.1826
-9.04971 -35.6383 -9.07678
-23.3309 19.5954 -7.4844
4.42076 -10.4961 -2.79649
-11.5636 16.5607 -4.8936
-7.52467 14.6555 -3.96652
10.4431 -9.41932 -3.36626
42.2512 -14.0347 -10.6513
15.429 7.71665 -4.10977
-5.77933 -33.133 -8.01873
4.01857 -9.20601 -2.37889
49.6248 -13.2816 -12.1901
-26.7107 -39.8987 -11.3828
-10.9773 -40.4364 -9.93321
4.27771 -9.15242 -2.40839
-24.5897 -35.6763 -10.162
3.95982 -11.354 -2.83121
4.9791 -8.81769 -2.38099
-12.2414 16.6799 -4.81152
-7.0382 -33.2174 -7.86305
11.2018 -9.81631 -3.40301
-5.74961 -29.1814 -6.79181
-25.8357 19.9536 -7.39729
43.5259 -9.51914 -10.1096
-28.913 20.9918 -8.00831
-33.7575 -22.1223 -9.04439
-5.07636 -24.1881 -5.51526
42.7081 -13.2024 -10.0347
5.53998 -9.62134 -2.47743
-12.2191 2.78812 -2.74972
42.579 -12.478 -9.80126
44.7241 -12.761 -10.2303
29.662 41.7803 -11.2347
-5.13616 13.4667 -3.14677
13.6836 -11.0109 -3.86452
39.7921 -12.7877 -9.18651
-22.2849 19.422 -6.40958
-25.3245 -62.4434 -14.63
4.386 -9.8699 -2.34054
4.6141 -9.33084 -2.24697
-13.9402 17.3667 -4.75279
-29.2886 21.2744 -7.72745
-30.0947 21.357 -7.88626
-23.8914 -63.3951 -14.5309
-10.2216 15.9697 -4.01701
-7.74088 -32.8765 -7.18793
3.25146 -9.86717 -2.21362
4.0451 -10.0228 -2.30271
48.2427 -11.1853 -10.5696
15.2575 7.64265 -3.62043
-14.4796 17.823 -4.85885
5.24312 -9.19276 -2.22219
28.7006 41.5328 -10.5614
-37.6789 24.7527 -9.4488
-26.356 -25.7927 -7.65842
15.3073 8.01142 -3.58974
-28.8199 -22.2577 -7.55494
-27.4298 -70.3383 -15.6399
42.4393 -11.4212 -9.08751
-10.9446 16.1239 -3.95694
-14.927 17.6476 -4.70282
-33.1517 22.2539 -8.11147
46.7167 -10.1902 -9.7493
-11.958 -38.4835 -8.19633
4.21305 -9.91408 -2.19005
4.34524 -9.89444 -2.20113
11.8226 -9.82783 -3.1269
-11.4658 16.4525 -4.00009
-17.4969 -50.2239 -10.636
-7.89203 -30.5495 -6.31722
-7.2512 -29.6349 -6.11985
-11.8435 -36.7991 -7.65856
4.14713 -10.1076 -2.16151
-32.5256 -22.2408 -7.76834
-25.4028 19.9368 -6.35361
-31.6113 -22.6121 -7.57702
-6.56179 14.4943 -3.08437
-23.3136 -54.7847 -11.5708
-32.0427 -21.3319 -7.41866
3.50211 -9.54076 -1.96094
48.3196 -11.1954 -9.52273
-12.1744 16.6209 -3.93578
4.06306 -9.51677 -1.97329
-34.7347 -21.099 -7.69376
-19.945 -32.4009 -7.2383
-14.0468 -40.5351 -8.12245
39.6397 -13.0763 -7.88893
-33.8227 22.7164 -7.62324
-32.134 -22.1925 -7.33702
-31.1339 -22.7788 -7.24226
-19.0167 -47.1163 -9.5655
-15.243 -41.4089 -8.18973
3.88038 -9.34953 -1.86858
44.7216 -12.0534 -8.59939
5.85804 -9.88145 -2.10405
-21.7983 -49.4309 -9.8957
-18.3569 -45.5685 -8.89007
-13.8871 17.3101 -3.93268
-29.6442 -23.9088 -6.77032
-19.349 -25.7838 -5.766
-22.9171 -59.8846 -11.3852
-36.9298 23.3033 -7.70314
-25.4014 19.9449 -5.61968
-32.134 21.9891 -6.75915
3.99038 -10.2554 -1.90662
4.84431 -8.74294 -1.73608
14.2893 7.67402 -2.79988
14.3765 8.25015 -2.84143
-29.1504 21.1977 -6.17751
44.3868 -12.5581 -7.85175
44.1313 -11.4297 -7.75903
-29.802 -23.6685 -6.45659
-20.0442 19.0893 -4.64644
-18.2489 -45.3628 -8.26592
15.1706 7.60379 -2.84836
-29.9659 21.214 -6.1316
6.73316 -11.2111 -2.1977
-20.9073 -49.8507 -8.93656
40.7829 -12.8599 -6.96802
45.849 -12.3516 -7.71639
-9.86462 15.6594 -2.98413
-18.4706 -45.8255 -7.88386
-33.2174 -22.9302 -6.36078
-21.6727 19.0413 -4.51615
-24.2396 -15.1961 -4.51835
-22.9693 19.608 -4.6794
-37.6158 22.7752 -6.81315
-10.6944 16.0053 -2.96947
3.54755 -9.7344 -1.60094
3.96092 -10.4724 -1.73205
-7.21902 14.6401 -2.49025
-29.3486 21.3608 -5.54775
-30.2823 -23.3892 -5.81883
-26.6387 -24.9176 -5.52646
-19.6106 -45.5838 -7.56148
44.3497 -11.5297 -6.96396
47.2409 -10.2923 -7.36482
-6.19835 13.803 -2.26093
9.94161 -5.21109 -1.66601
-31.9114 -23.0163 -5.8597
-22.9212 -57.9628 -9.24834
10.3706 -9.3243 -2.07759
47.4147 -10.969 -7.22617
-34.8414 -23.1935 -6.16028
-29.9931 -24.7396 -5.68784
-11.4362 -37.8985 -5.82815
17.3722 -12.5686 -3.13955
-24.0985 19.8411 -4.53539
-21.996 -49.2873 -7.78041
-7.22476 14.4686 -2.30984
-12.1133 16.5154 -2.91842
6.18512 -11.8158 -1.90418
-12.7655 17.0619 -2.99155
-32.6774 22.0745 -5.54341
6.90951 -11.2859 -1.84825
39.3551 -12.9881 -5.82741
-29.6957 -23.7952 -5.31115
-31.0851 22.3395 -5.30216
-18.4857 -44.5561 -6.66532
47.5799 -10.6444 -6.72194
-6.49008 14.3507 -2.14954
-19.8084 -51.7002 -7.52446
7.87921 -9.53498 -1.65921
9.34007 -9.19475 -1.80718
-13.3393 17.032 -2.91492
13.5081 -10.7739 -2.33699
-21.1247 19.2156 -3.83909
44.2781 -11.4484 -6.07049
47.2707 -10.3544 -6.40407
-21.5076 18.9269 -3.74557
-31.1508 -23.3096 -5.08203
-14.1845 17.3694 -2.89831
-32.0931 21.4206 -5.00888
-36.6509 -15.4754 -5.13688
7.15806 -10.6453 -1.64488
10.9955 9.0029 -1.82725
-32.2356 -22.2146 -5.01007
-29.6665 21.6574 -4.6458
-33.9251 -21.1696 -5.01231
44.1151 -11.409 -5.70124
6.93409 -10.5781 -1.57945
-7.248 14.4961 -2.00457
-23.7328 19.9281 -3.79413
-31.4574 22.1704 -4.74683
6.46079 -12.3899 -1.70082
47.214 -10.0732 -5.91221
15.3302 8.03185 -2.08291
-16.3341 -39.5624 -5.16286
7.2314 -10.7472 -1.55869
-19.9311 8.83335 -2.5805
-12.8998 -39.0247 -4.83498
-30.3652 -23.411 -4.48339
-29.8644 -23.8839 -4.47495
44.2245 -11.8466 -5.37989
11.4443 -9.85558 -1.74911
-28.2234 21.4005 -4.07473
6.78597 -11.0564 -1.48411
7.60995 -9.36901 -1.38006
11.8083 -9.91287 -1.75047
9.54909 -4.65851 -1.20334
15.3049 7.865 -1.94134
-9.83368 15.6548 -2.08501
-30.33 22.1625 -4.20804
40.7978 -13.4304 -4.81542
9.51302 -9.17375 -1.46156
-10.5264 15.7872 -2.06155
6.98958 -13.1582 -1.61247
47.3764 -10.2967 -5.25503
10.9992 9.0391 -1.53672
17.2341 -12.802 -2.30309
44.4396 -11.5259 -4.91835
9.78084 -9.12974 -1.41702
8.50469 -8.59105 -1.26598
-29.4707 -23.5834 -3.93027
-26.6434 -53.4423 -6.23051
15.3 7.6733 -1.75069
-30.314 -23.374 -3.92743
-12.2286 16.6702 -2.09843
-12.1668 16.3007 -2.0211
10.3843 -9.2454 -1.36157
-18.4937 -46.9685 -4.94993
6.49874 -12.4452 -1.3576
9.64529 -9.10628 -1.25422
-50.8226 28.3092 -5.61916
17.0926 -12.5053 -2.03484
44.3306 -11.9124 -4.39908
-27.0166 -54.6116 -5.79252
-18.3544 -48.169 -4.89655
-22.1419 19.3675 -2.75005
48.1742 -10.7171 -4.60875
9.88079 -9.13901 -1.24549
41.7191 -13.7622 -4.09244
-14.2838 17.5097 -2.04601
-28.6652 -13.0693 -2.87173
-28.4353 -55.4334 -5.74288
16.2698 -12.1778 -1.84786
8.77269 -8.86512 -1.12899
-34.6252 -19.6379 -3.48693
13.1739 -10.8745 -1.48687
47.7338 -11.0641 -4.19667
9.56007 -9.17988 -1.11372
11.1577 -9.8257 -1.24918
-32.1547 22.0825 -3.24652
17.3013 -12.6167 -1.77272
-15.295 -39.8011 -3.41551
15.0434 -11.763 -1.52206
-36.9345 -72.1765 -6.43913
-10.8656 -30.4199 -2.54997
-28.1559 21.4088 -2.73591
-31.1715 22.0336 -2.94748
-20.2941 -46.358 -3.90674
7.73099 -9.46017 -0.974722
-47.3664 25.7793 -4.08456
-20.3187 19.1234 -2.03011
-31.3757 22.1934 -2.78598
16.8246 -12.5714 -1.53563
44.3722 -11.8743 -3.34566
-33.8606 -64.0684 -5.22868
14.3043 -11.3177 -1.30477
-14.1323 -37.4901 -2.76518
10.9687 -9.79586 -1.00716
-22.1598 19.4033 -1.98985
13.1532 -10.8535 -1.14101
18.4799 -13.4033 -1.52111
-20.7759 -47.8678 -3.44835
16.473 -12.46 -1.36336
-13.314 -36.9151 -2.53827
46.3243 -12.0481 -2.99115
-27.8677 -56.4651 -3.84122
37.4092 -9.07569 -2.36205
45.3598 -10.3823 -2.85616
6.26508 -13.5427 -0.890836
32.509 -21.5113 -2.3309
-9.31965 15.5581 -1.06604
-14.1819 -36.9957 -2.25544
17.0694 -12.7568 -1.1958
-9.48855 -12.3004 -0.851243
15.2979 7.84845 -0.931242
14.2268 -11.2621 -0.971137
-12.157 16.475 -1.06984
-15.0178 -37.2231 -2.13088
15.1912 7.98813 -0.842805
-14.8184 -37.8787 -1.99475
-13.4536 17.0528 -1.0393
9.72813 -9.17624 -0.61313
-21.255 -48.7568 -2.40509
12.715 -10.4529 -0.762727
-14.3726 -40.0654 -1.8886
-15.6365 -38.5254 -1.77876
7.07302 -13.0609 -0.658251
-12.5223 -38.1735 -1.71018
-48.5855 26.423 -2.24218
18.8943 -13.5744 -0.943523
17.274 -12.8399 -0.837665
-35.1684 -68.2586 -2.89364
-16.2965 -42.7352 -1.68277
-31.6862 21.7718 -1.40754
44.8869 -11.5657 -1.66856
-29.896 -59.4683 -2.22395
-22.891 -50.1661 -1.85425
21.2422 24.5682 -1.0818
-20.3614 19.081 -0.910381
8.4109 -14.845 -0.572308
9.58137 -9.14696 -0.429215
11.5243 -10.1456 -0.498815
19.159 -13.547 -0.770571
36.4374 -13.7431 -1.29168
23.315 28.2232 -1.17764
-26.4862 -13.2852 -0.92853
-21.7365 19.3569 -0.888296
-29.9139 21.1869 -1.14547
-21.9982 -50.5747 -1.70566
-12.5903 -35.6193 -1.16213
-18.9937 -48.4527 -1.5734
-14.9247 -40.4494 -1.2333
-32.5316 -19.7246 -1.01261
11.6732 -9.90292 -0.409858
16.782 -12.4823 -0.550908
-38.3731 23.7394 -1.19173
-28.5616 21.7331 -0.889482
-29.0755 21.3092 -0.8538
9.73099 -9.16065 -0.309457
-39.2052 13.5506 -0.918196
-28.4042 -47.5644 -1.2451
21.9963 -14.7113 -0.58106
31.9827 -19.3937 -0.843166
14.4764 4.00072 -0.307327
-46.5199 16.7718 -0.967549
30.8048 53.8332 -1.14656
24.294 -11.3103 -0.471612
49.9479 -11.5017 -0.952936
-29.3299 -21.0776 -0.657739
-28.0487 -27.5494 -0.622034
-17.1042 -41.9706 -0.752206
12.997 -10.688 -0.276622
19.095 -13.7981 -0.359554
-28.2824 -12.5708 -0.406034
-31.2821 -23.4107 -0.542552
-28.9837 -58.4289 -0.876675
-24.4553 -52.0493 -0.784631
-32.3621 -22.1016 -0.510663
-28.5764 21.7411 -0.424529
17.484 -13.0567 -0.258706
30.6918 -19.0305 -0.424089
-29.0445 21.3231 -0.402981
-36.177 -20.2144 -0.465692
-17.3503 -39.7926 -0.461884
-11.0158 -33.1587 -0.349755
-29.7458 -52.4124 -0.551692
-13.6088 17.2629 -0.170088
-25.8636 -13.0397 -0.233508
-14.2679 17.393 -0.155252
-21.4368 19.1452 -0.14962
-19.963 18.725 -0.126181
-10.3259 -13.2749 -0.0585802
15.0565 7.9096 -0.0217386
11.3256 -9.95903 -0.00782391
-33.041 -18.0974 0.0582737
-10.4436 -31.039 0.109057
17.4334 -12.6661 0.0938125
-17.1174 -39.2987 0.193649
19.3583 -13.6395 0.126127
7.38477 -12.6945 0.107278
26.898 -11.0357 0.179087
-51.6056 18.4271 0.520431
16.691 -12.37 0.198593
39.1703 -7.99729 0.377363
-28.1769 -7.94517 0.342443
-34.6008 -20.8843 0.446848
-10.4868 -30.0466 0.343918
-50.2098 27.518 0.69742
-11.7075 -32.443 0.413465
-9.51971 -29.2625 0.371789
6.55067 -13.39 0.190289
7.38491 -11.3772 0.178374
-26.6585 20.9265 0.516722
11.5383 -10.077 0.230368
-22.8932 19.5782 0.495097
11.112 -9.92184 0.233853
13.2642 -10.9197 0.270794
38.0291 -8.13895 0.647139
-32.9532 -22.078 0.722805
-29.5052 21.0968 0.7099
6.35714 -13.2825 0.285629
7.18845 -11.3128 0.258195
8.16795 -9.58464 0.245884
31.9788 65.7582 1.58531
7.86618 -9.61147 0.280747
10.3102 -9.33846 0.335577
-27.92 -8.95277 0.706367
-22.1471 19.3313 0.793104
-26.1121 20.5897 0.890097
-28.0476 -8.42167 0.771751
9.34364 -9.04453 0.35123
9.78872 -9.09797 0.364226
-24.241 20.4309 0.859013
26.1261 -5.28543 0.742022
13.2738 -10.8894 0.511479
15.719 25.6079 0.924992
6.40043 -13.204 0.461476
7.64664 -11.9201 0.444296
-27.6091 -7.78657 0.941217
-12.1935 -18.6698 0.736033
-27.3035 -8.53363 0.989126
16.5585 11.3335 0.724091
-28.6965 -17.7822 1.18103
16.8717 29.3085 1.20477
-29.3219 -15.9942 1.23857
24.1706 -4.36465 0.887201
-26.7801 -19.0465 1.21891
-7.21481 -7.86664 0.402953
9.20079 -8.97221 0.4776
12.8262 14.0307 0.73174
30.0034 61.8968 2.60138
28.7681 61.2511 2.5446
-11.3795 -9.00738 0.572481
8.86258 -8.80746 0.494145
-24.3489 20.058 1.27808
22.3716 -3.03201 0.914381
-27.7588 -16.8607 1.33148
9.57311 -9.07726 0.540789
12.8771 14.8308 0.843821
6.77861 -12.8374 0.616123
15.5351 20.1855 1.11836
22.1892 30.6496 1.65523
-9.28768 -13.5046 0.721249
-9.72432 -15.2086 0.802399
7.76769 -11.1954 0.600147
8.76201 -8.85293 0.562729
24.8522 -3.80721 1.13497
-28.9267 -8.42966 1.37536
6.90366 -11.3496 0.610933
-8.17581 -8.04597 0.54001
23.8567 48.1349 2.56783
-27.5303 -17.0148 1.53085
-9.55813 -13.4073 0.784533
9.82504 -9.11599 0.631119
17.6909 49.1641 2.52717
-29.2295 -12.9467 1.52641
-6.68735 -8.15291 0.51907
16.0104 37.2333 2.0664
-28.7776 -11.2693 1.55136
-7.51808 -6.91316 0.516302
-6.63258 -7.5188 0.507321
17.3475 31.4253 1.86223
10.8454 12.6819 0.900847
14.8661 20.2304 1.34671
9.50136 -9.07489 0.703794
15.4714 20.1305 1.40065
16.1487 24.9417 1.63476
-26.2033 18.4501 1.75389
-6.89555 -8.10378 0.590283
-25.1458 19.2946 1.75939
6.30126 -13.3046 0.823042
-7.0161 -9.04197 0.653008
10.2421 12.7931 0.962919
15.8349 26.6802 1.81128
6.67652 -13.4093 0.86148
14.6009 23.8212 1.64914
-8.16319 -8.02409 0.68987
11.8326 11.9145 1.00047
15.3252 20.3828 1.53103
-7.29189 -9.87118 0.763726
7.17348 -11.4315 0.822073
11.4763 -9.89907 0.918626
6.00568 -11.0095 0.777725
-7.13023 -6.59058 0.606754
15.16 21.5058 1.66376
16.4841 7.31711 1.17032
-6.97816 -6.09688 0.608003
6.68626 -13.91 1.0278
9.96516 22.5099 1.65999
10.7091 12.908 1.14582
14.1089 18.9718 1.64815
13.0116 21.5735 1.74242
11.6457 12.3021 1.18827
6.72176 -10.0245 0.854312
11.7926 12.0651 1.22022
9.93105 -7.01033 0.864745
12.6829 12.2782 1.29574
10.0777 -8.51053 0.966075
-6.04353 6.54996 0.663718
10.6421 9.37076 1.06453
12.4122 18.5585 1.67916
11.9699 19.0706 1.69586
-6.87464 -7.62013 0.796016
11.3492 19.5889 1.73641
9.66723 -9.10175 1.02585
10.8048 14.504 1.41729
-6.37661 -4.27278 0.605113
9.62757 19.289 1.72233
10.2117 -6.98777 0.990527
12.7675 11.8459 1.40727
10.2181 19.8399 1.79655
-7.16813 -9.50799 0.970395
6.8292 -9.53574 0.954011
12.5532 12.0089 1.42282
12.4601 12.2542 1.45061
11.7181 12.2481 1.40272
-4.95938 -11.3196 1.04059
10.608 13.2721 1.44516
-6.90412 -6.03311 0.789705
-6.75852 -6.63852 0.80027
-5.121 -11.2322 1.05075
-7.22557 -7.66731 0.907487
9.40303 -7.34858 1.03082
-7.04525 -7.97252 0.93136
-6.94679 -7.6136 0.906632
9.65401 12.8864 1.42708
-6.87588 -8.2804 0.9619
11.0289 9.25402 1.3116
10.7774 13.8808 1.58731
10.7342 9.42745 1.30729
7.99352 14.5103 1.52358
-6.43052 -8.05119 0.944413
-6.82021 -8.91041 1.03613
11.4589 11.0518 1.46845
11.4749 9.36238 1.38538
11.1217 11.0548 1.46951
6.76743 15.6392 1.60137
-11.2774 2.88912 1.09056
-6.32315 -4.14589 0.708079
-6.75088 -6.24328 0.852721
9.71902 13.7068 1.62062
-5.92045 6.43301 0.859074
8.04633 -6.68053 1.01897
8.18825 13.6534 1.58129
-6.99819 -7.54167 1.03672
9.5483 11.9392 1.5417
7.22766 12.8334 1.49473
7.30079 13.4505 1.56019
9.72142 9.27209 1.38997
6.10557 14.5557 1.63634
9.39949 12.7842 1.65415
-6.07056 -4.43001 0.787465
6.19883 14.2444 1.63666
6.46192 14.155 1.63612
-6.92244 -4.39726 0.876924
8.93933 9.19497 1.3669
9.34005 10.4052 1.52043
7.52158 11.2941 1.47464
6.00715 11.8325 1.44289
-6.24077 -7.34173 1.05344
10.4218 6.54986 1.36159
9.15043 8.282 1.3602
7.52057 12.0216 1.56579
7.04681 11.9772 1.53645
5.54229 12.3078 1.50214
5.05127 12.5569 1.51475
4.92319 14.3186 1.66649
10.0228 7.1664 1.37548
8.93644 9.49946 1.45717
5.55932 11.8958 1.47898
-6.78145 -6.66455 1.05839
7.04644 10.9987 1.47148
4.51603 13.7781 1.63958
9.84545 -3.22623 1.15495
-6.06208 -5.3767 0.938033
7.35789 -6.17753 1.09028
10.561 5.79466 1.38131
-7.32949 -0.978886 0.846637
-6.21385 -5.31889 0.941388
5.28163 -5.59213 0.885916
5.24316 12.0269 1.52457
-6.83533 -4.52761 0.949858
4.49942 -7.33649 0.994826
10.5461 5.21714 1.38042
9.03613 8.0201 1.4181
-5.96677 -4.34255 0.859804
-6.43995 -5.2362 0.980414
4.14485 -7.96723 1.06742
5.00041 -5.88992 0.926634
10.2952 4.81398 1.36214
8.6712 8.42012 1.46382
5.4505 11.8749 1.59546
9.17261 6.35443 1.36601
8.15713 8.48937 1.47472
-6.44128 -5.70384 1.07101
3.74997 -7.66129 1.06771
8.8037 6.78809 1.39774
-6.42182 -5.30641 1.05423
9.21534 6.09554 1.41042
8.31053 7.25158 1.40707
8.24639 7.62997 1.43436
5.81566 -5.3812 1.01696
-6.92394 -4.41254 1.05367
8.24279 8.13853 1.50239
-7.30646 -1.03518 0.952757
-6.88018 -2.80887 0.970052
9.07493 4.14649 1.30641
8.52531 6.72588 1.42538
5.03437 -6.07129 1.03638
4.9535 -6.23905 1.05454
6.91613 -4.31127 1.08458
-7.08736 -1.70719 0.976689
-6.96576 -2.20611 0.976333
-5.99004 -4.39642 0.99312
8.25466 6.75641 1.44603
8.70718 4.48982 1.33549
8.73774 5.23077 1.39082
8.15392 7.24984 1.48504
-6.76509 -3.70974 1.0473
8.95988 4.20581 1.35465
8.37458 5.91086 1.40358
-6.35817 -4.30214 1.05024
-5.92248 -4.49851 1.0155
5.48306 9.24008 1.48441
3.76231 10.4097 1.53814
-7.31672 -1.08541 1.02364
-6.85873 -3.9012 1.09474
4.97991 -5.5782 1.03312
5.26101 -5.43199 1.04925
7.51567 -3.56167 1.16287
3.50476 10.5124 1.55386
8.49845 4.65128 1.37032
7.42647 -3.70376 1.17704
7.64027 -3.35827 1.18962
7.81779 -3.32946 1.20548
9.02615 2.84213 1.36187
4.86433 -5.67091 1.0736
7.40164 -2.87161 1.15564
-6.91386 -3.27899 1.11496
7.97503 -2.79954 1.2321
8.73259 -1.83431 1.3096
5.12108 8.76836 1.49935
3.05231 9.75848 1.52243
7.7845 -1.90066 1.18077
7.3243 5.83311 1.39505
3.56599 9.86634 1.55188
3.29617 10.1351 1.5808
-7.31889 -1.03611 1.09529
-7.02909 -2.01009 1.08897
7.04613 6.37859 1.435
-6.22914 -2.25935 0.993869
-7.19139 -1.36604 1.10432
8.03277 4.87448 1.43139
5.81022 7.48704 1.43818
5.39319 7.77655 1.44066
5.1611 8.17931 1.46263
6.79976 -3.24482 1.13921
7.29368 -3.1451 1.21617
7.68844 -2.77434 1.24535
-7.26526 -0.727815 1.11429
-7.0514 -1.94184 1.12827
6.82953 -3.11122 1.1604
3.77263 -5.82149 1.07233
-7.00787 -2.06269 1.1447
-7.29515 -1.08532 1.15739
7.44576 4.82957 1.40167
-7.15046 -1.43386 1.15964
-7.22211 -1.29225 1.17651
-7.05161 -2.00597 1.19164
7.15011 4.8174 1.40737
-7.0552 -1.93285 1.20107
7.0902 4.9211 1.43361
6.69057 4.90751 1.38472
5.28404 6.33664 1.37475
4.75924 7.3046 1.45654
3.91047 8.1171 1.49849
-7.20031 -1.36425 1.22269
2.80832 -5.80943 1.0873
7.21945 4.47673 1.43106
6.59242 5.30185 1.4273
3.89433 -5.39372 1.12132
3.95496 -5.04414 1.08479
-7.22286 -1.24391 1.24261
-6.55931 -2.60971 1.19723
7.48181 2.87294 1.35925
7.09987 3.92994 1.38288
-6.37763 -2.73725 1.18032
6.84308 4.14016 1.37304
5.71085 -3.53715 1.15602
-7.34445 -1.03236 1.28186
-6.32136 -2.26768 1.15404
5.56242 -3.66572 1.14808
5.34407 -3.79177 1.14835
3.67009 7.30883 1.4395
-6.75765 -1.72448 1.22418
4.50004 -4.48729 1.11816
-7.04493 -0.908561 1.26461
4.74766 -4.47884 1.1548
4.4004 6.60097 1.41617
6.64551 3.50531 1.35686
6.6877 3.7171 1.37454
-6.40435 -1.49193 1.18205
3.6269 -5.35274 1.17586
5.14497 5.68745 1.40459
-6.12239 -2.17165 1.18999
3.42797 -5.18073 1.15499
3.45314 6.9029 1.44495
-1.68866 -5.75117 1.13874
6.49557 2.75355 1.34261
-2.13251 -5.69906 1.16989
6.35864 2.81805 1.33903
-2.77485 -5.35209 1.18136
-3.46866 5.26565 1.36342
4.51161 3.92928 1.36583
4.16146 -2.88582 1.17989
4.64251 -2.19276 1.24057
4.23216 3.31755 1.33246
3.71434 -2.93564 1.22611
4.04334 2.59081 1.34203
-1.44209 -4.11395 1.22023
-2.3188 -3.57583 1.21064
3.88216 2.37815 1.31944
-2.83599 3.49343 1.34655
-2.47939 -2.91471 1.18792
-2.37729 -2.93628 1.19303
1.83824 -2.80471 1.17938
1.86133 -2.78322 1.20943
1.98735 -2.52062 1.19597
-2.03106 2.78744 1.30903
2.80449 -0.555736 1.25997
2.78425 -0.33687 1.24191
-2.09069 -1.61987 1.21224
-2.07841 -1.45186 1.23722
-1.86409 -1.79712 1.28304
-1.99617 -1.13196 1.20365
-1.98763 -1.07085 1.23042
-1.94739 -0.880743 1.23053
-1.93163 -0.708684 1.22068
-1.93046 -0.701754 1.24785
-1.90664 -0.469865 1.22048
-1.87199 -0.345874 1.21759
-1.85698 -0.401365 1.2244
2.36897 -19.5458 -9.93547
-7.50059 -8.85541 0.459125
8.09589 -8.88289 -10.5651
8.33871 -8.70536 -10.5949
8.29027 -8.3638 -9.97269
7.0233 -12.0629 -11.5091
8.60572 -9.06577 -9.84009
7.92617 -9.02123 -9.22007
5.89982 -12.8973 -10.8107
9.53596 -8.93438 -9.854
6.19926 -14.2009 -11.6617
8.37362 -8.76762 -9.1132
8.10161 -9.26256 -9.19997
7.36498 -9.33578 -8.85707
5.96378 -14.2685 -11.2801
7.80014 -9.40225 -8.81291
7.9371 -9.20913 -8.75541
7.19893 -10.6804 -9.16775
6.88973 -11.181 -9.30765
10.1865 -9.31331 -9.69123
6.6069 -11.2852 -8.94974
8.11711 -8.71634 -7.92944
7.43988 -9.37856 -7.95315
8.60913 -8.77453 -8.16903
7.80898 -9.57946 -8.11709
6.55851 -12.907 -9.45077
8.02167 -9.28107 -7.99873
5.02982 -16.1056 -10.8503
-0.481789 13.8702 -8.87492
7.81216 -9.34337 -7.80768
7.42229 -10.9888 -8.44045
8.47239 -8.66139 -7.71724
11.0323 -9.7581 -9.33975
9.0923 -8.91811 -7.98564
11.9563 -10.1945 -9.84438
8.16577 -8.63298 -7.30886
4.05231 -16.8591 -10.6258
4.27382 -15.4451 -9.83798
7.93681 -9.46704 -7.40135
3.96568 -15.6556 -9.62925
11.6622 -9.98298 -9.19182
6.94582 -11.2044 -7.82501
7.85056 -8.90647 -7.03147
5.54147 -14.1227 -8.96083
6.56174 -12.8423 -8.43711
8.45614 -8.68972 -7.06434
9.8175 -9.20147 -7.84376
2.81449 -11.8801 -6.99609
5.55586 -14.0828 -8.56828
9.72666 -9.22943 -7.57778
6.69433 -11.1937 -7.34143
3.33154 -20.5396 -11.6623
8.98845 -9.04809 -7.14771
12.3968 -10.3995 -9.06251
6.90255 -11.1289 -7.29319
4.73177 -14.7475 -8.55681
6.29825 -12.7696 -7.82982
0.886544 18.6406 -10.1618
14.8852 7.86666 -9.15154
4.2474 -14.3736 -8.09223
15.0271 -11.89 -10.3263
15.2502 7.57914 -9.07479
14.2622 7.85915 -8.65629
4.80756 -14.9623 -8.34815
12.2795 -10.3138 -8.43673
1.80678 -20.3107 -10.4913
11.5967 -10.0069 -7.84522
2.07465 -20.066 -10.2371
14.2423 -11.304 -9.19436
-0.00597347 14.2367 -7.14699
-7.07908 14.7021 -8.17249
10.7543 -9.74458 -7.29014
7.61212 -9.54625 -6.08111
18.007 5.60417 -9.20217
-8.23634 15.6027 -8.52189
11.8392 -9.94237 -7.48082
10.6523 -9.72798 -6.92518
15.0897 -11.5677 -9.16819
17.1582 16.2576 -11.2357
7.59707 -11.226 -6.45559
15.2956 7.55829 -8.00852
14.1892 -11.2344 -8.45633
-11.5066 16.4711 -9.20064
16.1832 -12.2611 -9.27292
9.86914 -2.47458 -4.67433
-9.02025 -1.6399 -4.16881
19.3426 18.6683 -12.1364
3.95342 -9.18858 -4.53839
-9.84806 16.0797 -8.46281
-5.27998 4.38977 -3.08609
6.96369 -11.4613 -6.03486
9.55621 -9.20924 -5.8518
16.3343 7.45205 -7.92391
-6.41551 14.5577 -6.94372
1.50429 -18.6963 -8.11205
-10.7531 16.3545 -8.42251
9.67382 -3.4028 -4.39264
7.12445 -11.2111 -5.61299
16.1616 -12.2157 -8.47791
14.9265 7.89127 -7.08521
19.4022 20.1905 -11.7096
1.01151 -22.2192 -9.26177
-4.41624 13.487 -5.84397
-9.82532 -1.099 -4.09702
14.3515 7.92532 -6.69711
21.2901 23.1629 -12.8315
-12.8555 2.40906 -5.32717
15.4051 7.31991 -6.90091
-5.05941 13.848 -5.92554
3.6782 -8.90162 -3.83208
12.6038 -10.4441 -6.41067
14.2265 -11.2325 -7.08172
20.0265 22.4189 -11.668
19.2124 5.92471 -7.79846
1.54553 19.478 -7.57998
-8.40245 15.1327 -6.66863
11.5885 -10.2166 -5.94072
20.0006 23.1933 -11.8044
0.6751 15.4464 -5.92345
-1.63933 12.5154 -4.8542
2.72625 -12.2823 -4.82628
-8.68722 -1.24078 -3.33527
0.694489 -23.0532 -8.70571
15.524 -11.8962 -7.37377
9.58175 -3.49633 -3.84783
-13.9865 17.2384 -8.26996
-7.82532 -3.47622 -3.14056
1.09266 -10.3961 -3.84523
7.13961 -11.4118 -4.92057
14.4701 8.08027 -5.98644
-8.22129 -2.82271 -3.12564
0.783499 15.3752 -5.49207
-3.8206 12.9007 -4.75614
5.82389 -11.1489 -4.42454
16.2018 -12.2437 -7.19053
19.5018 6.0234 -7.18309
2.16383 21.2354 -7.49228
22.7074 27.4559 -12.3903
-14.2229 17.554 -7.75153
3.01063 -13.496 -4.7573
-8.52079 15.3864 -6.00676
18.9813 -13.4437 -7.9697
-4.8587 13.9433 -5.01734
1.33689 -21.7173 -7.2126
1.77549 19.928 -6.61352
1.44975 -10.3071 -3.43991
41.197 -21.0585 -15.1796
-3.21333 -23.7203 -7.72424
6.25181 -10.1798 -3.82246
18.0172 -12.7215 -7.06212
2.14165 21.0259 -6.73058
-12.7627 17.0356 -6.70832
1.41689 -22.0463 -6.88629
-4.143 14.1601 -4.58146
-10.4695 15.8601 -5.75652
-2.5816 -26.3419 -8.04734
3.10068 -9.57661 -3.05781
0.775214 -23.4106 -7.04762
19.6776 -13.9671 -7.15805
17.9636 5.68317 -5.53058
-7.54863 14.6076 -4.78368
4.29019 -10.6414 -3.33292
3.67892 -10.7327 -3.2273
4.31418 -11.1286 -3.34855
-12.6912 16.9614 -5.89008
-8.8637 15.1491 -4.77196
-13.0306 1.95328 -3.6125
-16.0988 18.4946 -6.65556
27.32 -17.9846 -8.8598
-3.62318 -25.8626 -7.01109
3.83155 -9.25998 -2.68004
-9.3555 15.5486 -4.82741
49.9066 -14.5715 -13.7842
10.7084 -9.55054 -3.79709
-6.14263 14.2157 -4.04221
-13.7438 17.2299 -5.78134
-7.32564 -34.6856 -9.2411
5.03232 -9.71292 -2.83011
6.66281 -10.6614 -3.24202
-6.85845 14.5513 -4.08596
-10.0717 15.6845 -4.76022
-8.99327 -35.653 -9.15112
-8.16321 -35.2545 -8.8441
11.1354 -9.81615 -3.64908
-7.59267 14.7319 -4.01616
-11.1741 16.2396 -4.76959
14.9094 7.8759 -4.0047
4.10083 -9.37375 -2.42039
15.5221 7.68775 -4.08461
3.79838 -9.02919 -2.30151
-6.03709 -30.1013 -7.11444
5.71194 -10.0332 -2.67466
47.0806 -11.3934 -11.2572
-12.2006 16.6176 -4.74335
15.1711 7.76994 -3.85878
46.005 -9.95228 -10.6617
-9.32007 15.5224 -4.05022
-31.3301 -76.9891 -18.0642
3.77861 -9.411 -2.20494
45.1233 -11.5759 -10.1661
15.437 7.65857 -3.69257
-10.124 15.8018 -4.01766
-20.5432 -32.2969 -8.2258
-16.898 -52.806 -11.9515
4.90165 -9.91288 -2.38443
47.4132 -11.1017 -10.4175
-14.0638 17.4237 -4.70928
-30.7061 -22.664 -8.09021
43.7869 -14.6506 -9.76643
15.161 8.01165 -3.57863
-33.3184 22.5315 -8.2233
-7.62984 -31.2154 -6.51287
4.03845 -11.7529 -2.49631
46.8808 -10.115 -9.75374
12.0007 -9.93372 -3.12337
45.1528 -11.6239 -9.28994
-25.5867 19.3081 -6.36132
6.25637 -10.471 -2.4272
48.4087 -11.3203 -9.70875
-12.1661 16.599 -3.97551
-25.434 19.9321 -6.27798
16.4899 12.4738 -3.95521
-6.51804 14.3446 -3.0221
-31.539 -22.8125 -7.45112
-30.1138 -23.5812 -7.35119
-33.5385 22.3486 -7.5882
-32.075 -21.1588 -7.26196
18.411 5.7884 -3.60406
-32.6159 -19.6795 -7.11443
-13.585 -39.1705 -7.72823
3.84552 -10.0143 -2.01842
-21.4622 -53.4366 -10.7153
-15.1522 -40.8241 -7.96929
4.04592 -9.80447 -1.91195
13.3304 -10.4162 -3.05005
47.821 -10.6416 -8.79899
-14.0106 17.3763 -3.98692
-25.5636 20.0497 -5.73484
15.4089 8.15702 -3.03895
-28.8095 -25.1056 -6.66126
45.0125 -11.53 -7.97665
-7.52876 14.5015 -2.76584
-9.19778 16.9371 -3.25372
47.0361 -11.0725 -8.1702
-29.0249 21.1415 -6.04454
-28.9077 -22.24 -6.09654
-19.7598 18.8936 -4.54741
-30.4971 21.5378 -6.22775
16.3145 -12.1725 -3.33457
-9.82038 15.59 -2.92975
-40.4992 23.831 -7.45442
-30.1762 -22.6695 -6.04269
-31.9181 -22.0161 -6.10739
3.50179 -9.68295 -1.60912
-22.5615 19.273 -4.58181
17.3598 -12.2725 -3.29211
-10.6212 15.8954 -2.90307
48.5809 -11.3857 -7.57252
-20.3906 -47.2553 -7.77996
-27.8628 20.8965 -5.20697
-36.033 22.4675 -6.30231
-30.1676 -23.4173 -5.69787
47.0136 -10.0749 -7.15849
-32.1306 -23.2372 -5.79417
-46.3063 25.8549 -7.62532
-33.8319 -22.5663 -5.85401
6.92422 -13.2869 -2.17396
-34.5599 -20.0865 -5.65739
-6.53805 14.4132 -2.19597
-12.4617 16.8221 -2.91175
-30.3182 21.8279 -5.22129
-26.0737 -22.3601 -4.73657
-21.9077 -48.7908 -7.37753
-14.4107 -42.1303 -6.12671
38.3728 -12.7613 -5.54506
-21.9986 19.3315 -3.89619
-30.773 -23.0455 -5.01946
-29.2018 -23.9563 -4.99401
-32.3253 -22.2625 -5.02778
7.56922 -9.58712 -1.57885
45.0815 -11.54 -5.97035
-31.589 21.4958 -4.85756
-28.696 -15.3124 -4.14619
6.11698 -7.92188 -1.27809
47.2115 -11.0968 -6.14785
-29.3297 21.5558 -4.54171
14.8486 -11.5684 -2.31178
-28.3363 21.3423 -4.29111
-30.7347 21.7268 -4.5315
-9.82575 15.6275 -2.1318
-30.1237 -21.6654 -4.36557
-20.4364 -49.1988 -6.19936
13.2685 -10.7314 -1.99703
37.4009 -12.359 -4.55704
6.47215 -10.5543 -1.42224
11.4046 -9.88286 -1.69976
16.8827 -12.57 -2.37101
-10.5154 15.7675 -2.09769
6.94809 -12.9452 -1.60878
11.825 -9.8752 -1.70564
44.9106 -11.5166 -5.08948
-36.6215 22.8342 -4.63195
47.2855 -11.0495 -5.22775
15.2783 -11.732 -2.04867
-12.313 16.6351 -2.12523
15.088 7.98607 -1.70782
14.3293 -11.3041 -1.82256
-13.3154 17.03 -2.09632
6.58367 -12.6165 -1.36885
9.55823 -9.06636 -1.27299
17.4814 -12.7825 -2.11278
-27.9048 -13.3344 -2.91348
-14.2395 17.4372 -2.09832
-32.0627 -62.4651 -6.5361
-32.4734 -20.32 -3.39175
16.5617 -12.4102 -1.86165
40.3723 -13.4334 -3.80729
11.3265 -10.0684 -1.25197
45.3705 -11.5963 -3.9051
-14.7351 -38.346 -3.30002
-34.1843 -66.8435 -5.8479
18.1233 -13.2066 -1.7703
-28.506 21.5745 -2.73493
7.57323 -9.32915 -0.929746
-30.9833 21.9325 -2.82044
-15.1472 -37.4721 -3.0208
-21.7891 -49.8419 -3.9313
-32.0865 -60.3796 -4.86196
-30.8641 -61.8164 -4.73238
12.8402 -10.6859 -1.12402
17.5371 -12.773 -1.46602
-37.0208 23.047 -2.85211
45.6606 -11.6904 -3.09334
-27.725 -13.037 -1.83464
-34.5703 -66.7897 -4.55315
14.8567 -11.5822 -1.13463
32.733 -21.563 -2.14062
32.6492 -20.5775 -2.10818
15.6784 7.74333 -0.908766
15.1039 8.00914 -0.880531
-12.2291 16.6887 -1.05024
-22.0157 -48.583 -2.73932
-12.3865 -33.7145 -1.77981
-26.2334 -15.151 -1.43749
-36.1262 -68.0864 -3.76193
9.82169 -9.25023 -0.674628
13.7509 -10.9355 -0.86259
16.3763 10.418 -0.91872
16.7182 11.718 -0.952475
7.03699 -12.9068 -0.698435
-19.6159 -5.78799 -0.8783
-26.9931 -48.1054 -2.43225
10.5394 -14.2291 -0.723112
18.5839 -13.4018 -0.935859
44.7985 -11.4434 -1.83956
-9.20864 -12.1796 -0.588883
46.4703 -10.882 -1.87636
23.5008 28.2536 -1.25722
-30.9449 21.1541 -1.30041
-34.8845 -19.5618 -1.30139
-16.5038 -41.1325 -1.4225
16.9261 -12.6278 -0.688619
18.354 -12.9169 -0.703322
14.636 3.96444 -0.448195
-22.8054 -52.4048 -1.7115
-21.6922 19.3237 -0.831063
-11.2664 -34.1634 -0.965984
45.2172 -9.60568 -1.2924
-39.352 24.4776 -1.25447
-50.9846 18.3336 -1.29943
-21.9277 -36.5673 -0.928667
46.0011 -10.6821 -1.01546
-29.291 22.1369 -0.735332
-29.3466 9.33452 -0.644893
35.7538 62.6013 -1.33203
-28.6645 21.1557 -0.683802
13.2553 -10.8612 -0.296722
-33.1451 -20.627 -0.604336
-27.029 -54.3585 -0.900482
17.981 -12.9675 -0.321749
-11.5033 -34.7782 -0.470828
-13.5719 17.2292 -0.22479
-18.2152 -41.8628 -0.493727
31.6938 -19.8511 -0.336466
-21.6889 19.3515 -0.19874
-9.7276 -12.485 -0.0474563
7.19964 -12.01 -0.0240779
14.9237 7.80438 -0.000597711
-34.0783 -21.0432 0.21446
-22.1249 -37.8146 0.325499
-49.6786 27.2145 0.57681
6.86919 -12.188 0.144967
8.1385 -9.25351 0.123159
-39.2321 -20.8579 0.489486
-10.6602 -30.1897 0.359408
11.3097 -9.8589 0.196753
-22.0821 18.8683 0.380618
-12.0032 -18.624 0.323175
-29.6179 21.0762 0.645688
-33.7055 -22.5968 0.727543
-33.1719 -24.5057 0.721106
10.8293 -9.73197 0.237613
7.92763 -9.77212 0.270371
8.0273 -9.36939 0.266183
-65.5621 22.7031 1.61975
18.6301 -13.5238 0.560759
-27.9197 -8.3878 0.780411
-26.6082 20.8663 0.972085
11.8095 -10.1181 0.424185
17.629 -7.64173 0.547071
-23.8166 20.1997 0.927923
-7.80936 -9.15773 0.383317
13.0865 14.2282 0.686305
-26.8458 -19.0991 1.13883
6.33887 -13.0609 0.510548
9.04942 -8.90491 0.433775
25.1887 -4.46359 0.855418
19.2219 18.3567 0.958375
14.6425 25.3481 1.09924
-53.401 17.5529 2.02189
24.9897 -4.85453 0.964297
-24.2893 19.8418 1.18363
9.53092 -9.06706 0.508514
22.9013 -3.15519 0.873155
12.5866 14.5781 0.787367
15.3806 19.8735 1.02781
6.70578 -12.7143 0.589777
19.8995 45.9966 2.09019
7.81405 -11.2604 0.577651
-7.48321 -7.36633 0.464071
-8.15137 -11.2777 0.62236
-28.7123 -11.3663 1.47126
16.7843 10.896 0.996464
-7.65921 -7.12658 0.501152
16.0982 25.0103 1.53568
-6.8876 -8.10818 0.585091
15.1686 20.7715 1.40847
-24.937 19.2024 1.73814
15.1804 24.7228 1.67895
-7.04812 -9.08576 0.657482
7.04474 -13.9606 0.897103
10.1658 12.7873 0.966198
15.3147 20.3476 1.59584
15.9439 28.3766 2.00328
11.2283 31.4906 2.12592
-7.21379 -9.84598 0.781363
10.0386 22.8775 1.67652
11.6597 10.2564 1.10632
11.7386 12.4133 1.20548
14.1445 16.3443 1.54623
8.39868 -12.9464 1.08901
10.9615 9.15017 1.05008
13.2673 14.8807 1.49121
-14.0748 8.30016 1.23416
-11.0077 2.07369 0.846567
12.8473 16.7237 1.63618
12.043 19.1932 1.75926
10.2188 -6.99326 0.966696
-7.59846 -8.03811 0.885184
13.0433 11.807 1.43462
12.1254 11.8623 1.40769
-6.9596 -6.12346 0.753318
-7.00536 -6.85019 0.812859
-6.96883 -8.82492 0.969124
11.7363 12.2509 1.46259
9.18314 -7.21644 1.01666
10.8329 9.54286 1.31207
-11.2658 2.88478 1.06776
-7.55966 -7.04126 0.928309
11.848 9.14209 1.43266
9.45898 13.3762 1.57304
7.40298 13.6222 1.51966
8.64742 13.4453 1.60315
-6.69607 -6.67266 0.939787
7.94087 -6.60063 1.01048
9.91063 12.4135 1.59186
10.1266 10.3444 1.49492
-6.84032 -5.36963 0.904919
9.78032 9.31323 1.43959
8.37435 11.3856 1.4815
6.96163 13.499 1.61851
9.73946 8.49888 1.36805
9.35971 10.4248 1.52611
5.8617 12.9125 1.5355
-6.33659 -7.46274 1.05825
6.84898 11.6571 1.48774
5.42317 13.5891 1.61485
-6.79045 -3.96038 0.867852
-6.65305 -6.0382 0.989952
3.96832 -7.86426 0.974644
5.48067 -6.14022 0.924479
9.48803 7.6382 1.36883
9.22646 9.81904 1.51931
8.09625 11.5318 1.57513
6.92336 10.9265 1.47524
-6.84079 -4.5438 0.931242
4.76015 -7.76645 1.05207
