ply
format ascii 1.0 
element vertex 1881
comment /media/mkaihara/Seagate Backup Plus Drive/model_iterations/model_128.ply
property float32 x 
property float32 y 
property float32 z 
end_header 
9.32919 -8.8824 0.670747
16.288 23.8851 1.51916
15.9805 28.9707 1.72735
12.8972 -10.6307 0.88802
10.4127 12.1724 0.857003
13.9313 18.9106 1.26211
10.9968 -9.53533 0.787023
14.7034 19.1572 1.33215
-26.8292 20.5661 1.84868
-6.98456 -8.19436 0.59573
10.1107 12.2237 0.888646
-7.2838 -9.40291 0.666186
9.84988 12.2702 0.912807
-28.3023 19.9257 1.96679
6.04571 -12.7681 0.808922
11.0345 11.9285 0.934215
-6.89564 -6.80546 0.562019
11.124 11.862 0.957783
-6.8253 -8.43395 0.649414
6.19224 -12.4473 0.812419
14.3433 19.0839 1.4358
13.7668 22.5084 1.57427
12.9019 29.8168 1.95012
-6.19274 6.59583 0.556161
-8.19137 -7.76165 0.682684
-7.13513 -8.18531 0.666957
5.66847 -12.3277 0.820589
-7.49866 -6.90391 0.634242
6.95328 -11.0784 0.808828
6.94037 -10.489 0.785045
11.2568 -9.7169 0.918402
12.0342 -10.0671 0.972293
16.0541 7.11004 1.11886
14.5898 18.9001 1.51087
-7.25241 -6.32052 0.624115
10.1971 -9.3132 0.891262
-7.39453 -6.27325 0.63626
11.3237 11.9488 1.12185
9.27494 20.8796 1.55582
-7.29658 -9.68548 0.8102
11.4761 12.4468 1.16159
-6.96726 -4.46493 0.569425
-6.76968 -8.22205 0.726402
-6.7103 -4.44073 0.555249
9.21985 -8.81475 0.888024
9.94462 -7.80221 0.890399
12.4923 15.7447 1.45338
9.75722 -8.23949 0.933852
11.2437 16.812 1.52063
11.1606 17.793 1.56912
9.37736 17.8479 1.52044
8.78486 18.9851 1.57339
7.09225 21.1375 1.67601
10.5354 18.1845 1.60116
9.9632 -7.55915 0.956248
-7.04463 -7.20609 0.772328
-17.3118 -6.27913 1.44023
9.42632 -7.64192 0.951275
9.11323 18.2017 1.60662
-6.38978 -4.26657 0.609376
-6.84811 -8.24206 0.849592
4.83021 -5.72788 0.595724
8.7824 19.3215 1.68337
7.55568 18.4735 1.60473
5.02267 -5.78878 0.617493
12.6213 11.3889 1.37764
11.6292 11.6814 1.34981
6.6966 -9.34208 0.934382
12.0824 11.5565 1.37444
6.47392 19.0044 1.64322
-6.36591 -4.39453 0.630665
-7.18621 -9.51096 0.978449
11.3973 11.9404 1.36585
10.3666 9.06893 1.17293
-5.06194 -11.5489 1.06507
6.11465 -6.03487 0.749928
9.17629 -7.1486 1.00046
-6.80962 -6.7071 0.812202
10.2905 12.1951 1.39303
8.75934 -7.29874 0.991132
10.6862 12.0461 1.40937
-7.32928 -7.78531 0.937521
8.15816 -7.26281 0.969805
10.0676 12.3055 1.42937
-7.08988 -7.76185 0.932222
-6.95759 -8.36389 0.976493
10.4572 12.1558 1.45611
10.3459 13.3456 1.52995
-7.13739 -8.35221 1.00089
11.0894 10.7115 1.41821
-6.32374 -4.23739 0.700223
-6.88125 -8.61855 1.00913
-6.33776 -4.40089 0.711496
10.9803 8.47374 1.30162
10.5339 9.23445 1.30623
6.34845 15.0804 1.53881
10.3818 11.1688 1.44298
-11.2955 2.89451 1.10238
6.14621 -5.95432 0.81584
7.97778 -6.61361 0.995344
10.6343 9.10639 1.35921
9.39599 12.3631 1.50361
9.58032 12.2945 1.53564
7.55481 12.0821 1.41549
7.78678 13.017 1.50983
11.1247 7.98866 1.39588
7.0271 12.5043 1.44755
8.9477 11.2132 1.45971
6.87629 13.3122 1.53333
5.75203 13.6675 1.52215
9.09304 10.3664 1.42523
8.90892 12.137 1.56429
11.2907 7.5924 1.41943
9.15224 9.89775 1.40361
4.96891 -5.81446 0.821106
-6.85871 -4.6648 0.875247
5.46396 13.6125 1.55672
-7.07291 -4.51551 0.895193
8.8236 10.5725 1.47857
-6.78157 -6.79127 1.02681
5.90044 -5.82392 0.895541
9.60249 8.4544 1.37909
8.87103 9.26545 1.37971
9.15503 10.2056 1.48651
4.67705 13.5545 1.54727
4.22712 -8.03928 0.983953
6.37989 10.6734 1.36832
-6.81375 -3.93203 0.866254
6.25154 11.7216 1.47386
-6.90811 -3.8703 0.877561
9.63455 7.1487 1.34164
6.57699 11.2246 1.44884
9.73011 6.97633 1.34507
5.34918 11.4031 1.42404
5.34951 11.8947 1.47295
4.61796 12.0172 1.45645
9.76227 6.63516 1.34529
-6.9052 -4.57248 0.948807
7.38807 -6.21439 1.10045
-7.34966 -0.787471 0.848044
-6.28594 -5.40008 0.95469
5.24501 -5.56364 0.882296
8.80203 7.82515 1.37215
4.41337 -7.17549 0.975919
10.3482 5.12301 1.35227
8.88608 7.73037 1.38454
5.19658 -5.6074 0.903221
8.5313 7.85291 1.37589
8.81846 8.97124 1.47181
-7.06339 -5.66358 1.07153
10.081 4.72041 1.32629
-6.932 -3.85922 0.956323
9.08003 6.10392 1.32701
5.13119 11.2472 1.49844
-6.90648 -3.07147 0.918828
-6.89072 -3.25778 0.922132
4.87798 -5.94894 0.939004
5.96526 -6.12017 1.04059
9.31489 5.58718 1.34278
8.39912 7.17061 1.36546
-6.96419 -4.31909 1.00984
-6.89539 -4.54396 1.01813
8.18544 8.5091 1.46484
4.95465 11.1424 1.514
-6.56349 -5.62914 1.07639
3.70533 -7.56738 1.05007
8.4355 7.68111 1.42756
6.06997 -5.61008 1.0363
9.10721 6.02164 1.38361
-6.14554 -5.42279 1.03452
8.49029 6.56811 1.36893
8.02559 7.45139 1.39311
-7.11622 -1.78673 0.938957
-7.02784 -2.31072 0.945297
-6.45786 -5.32897 1.06857
8.77473 5.62554 1.33626
8.08743 7.97878 1.46424
-7.28047 -1.25615 0.947905
-6.91136 -4.127 1.0411
7.38303 6.18036 1.24705
8.01956 6.98967 1.37945
7.90209 8.05712 1.46239
-6.92368 -2.83166 0.974328
-6.92493 -2.97181 0.974698
4.49029 9.94351 1.43362
8.95116 4.08962 1.29537
-7.26375 -1.6097 0.978277
6.82898 -4.25256 1.06919
4.92563 -5.9405 1.02313
-7.3503 -1.11975 0.9958
-7.02827 -2.20374 0.985805
-7.06553 -2.27316 0.992101
-6.00371 -4.40468 0.995516
5.18255 -6.5574 1.11394
6.8994 -4.16943 1.08528
8.01295 7.11643 1.45182
-7.1665 -1.72186 0.99142
-7.09714 -1.95971 0.990801
8.74444 4.82764 1.35665
8.27921 5.83594 1.37722
-6.93435 -3.62601 1.06674
8.82118 4.14001 1.33657
3.2884 10.3344 1.48427
-7.32949 -1.20267 1.01732
-6.01903 -4.44806 1.02973
-5.9995 -4.54702 1.03097
7.13592 -3.92753 1.11954
8.01668 6.44145 1.42228
5.2977 8.95396 1.44052
-6.39288 -4.32868 1.05883
4.93125 -5.52395 1.02866
7.17338 -3.82338 1.13131
7.5454 -3.67939 1.16155
3.56427 9.88742 1.46314
3.37737 10.1617 1.4925
-7.3864 -1.08463 1.04285
-7.08786 -2.0078 1.02714
4.97083 -5.28606 1.01436
7.23477 -3.73144 1.14363
7.35048 -3.66599 1.165
7.85672 -3.3498 1.21421
-7.1694 -1.87855 1.0546
-7.02126 -2.95138 1.10424
-6.01682 -4.37992 1.07077
7.89103 -2.7773 1.22397
8.19044 4.59701 1.3761
4.94214 8.46614 1.43662
8.32751 4.4844 1.39786
7.81678 -2.33668 1.20266
7.10466 5.65566 1.35985
2.91648 9.30833 1.45801
-7.1078 -2.02346 1.10818
7.47279 -3.1051 1.21993
8.18746 4.52482 1.41798
5.74076 7.38293 1.42003
5.24712 7.56972 1.40338
5.08151 7.87277 1.42316
5.03425 7.97871 1.42771
7.32395 -3.16555 1.21864
7.66753 -2.75188 1.24054
-6.76844 -1.68585 1.05125
7.8187 -2.25308 1.24777
7.19597 5.39687 1.38119
-7.11743 -1.95623 1.14605
-6.9324 -2.79092 1.16207
6.7776 5.49741 1.36882
-7.37204 -1.09821 1.16484
-7.15857 -1.82779 1.15772
-7.06002 -2.07146 1.15343
-7.13505 -1.87618 1.15837
-6.90736 -2.93949 1.17901
4.77111 7.39772 1.39982
3.44737 -6.03379 1.10961
-7.29164 -1.30224 1.18723
3.52947 -5.70989 1.08135
3.56644 -5.61537 1.07076
7.0459 4.74938 1.38461
4.62601 7.3215 1.40934
-7.08488 -2.02744 1.20162
-7.10712 -1.95078 1.21
6.94152 4.81008 1.39668
3.78308 7.85887 1.44376
6.05028 -3.31766 1.14942
6.61059 4.85628 1.36764
4.62954 7.11539 1.41587
3.83768 -5.30228 1.10005
7.08341 4.41088 1.40502
7.45784 2.85172 1.34937
6.29663 5.2637 1.39094
-7.29529 -1.25851 1.26137
6.73434 4.07154 1.35148
-6.46074 -2.77622 1.20044
5.50835 -3.62893 1.13308
5.68918 -3.51758 1.14837
2.72639 7.76918 1.42307
-7.38983 -1.04196 1.29455
5.33301 -3.78285 1.13971
-6.32054 -2.26311 1.16476
-6.28065 -2.42031 1.17917
4.28214 -4.66573 1.10737
4.49475 -4.4779 1.11289
4.59225 -4.44954 1.12173
-6.81395 -1.73585 1.23933
4.30725 6.46196 1.38517
-7.1758 -0.930371 1.29414
-6.15291 -2.26097 1.16826
6.62332 3.68296 1.3585
6.08252 4.3493 1.35628
3.61045 -5.32998 1.17068
5.126 5.6612 1.3968
2.49273 7.13246 1.41882
6.47205 3.04604 1.35244
-1.70516 -5.7787 1.14075
6.42237 -1.38509 1.24652
6.26199 2.77294 1.3185
6.20861 2.37775 1.32639
-4.47605 3.96117 1.40644
4.31524 3.52626 1.33278
4.20184 3.28494 1.32022
4.66481 -1.67759 1.24467
4.81774 -1.38065 1.25364
-2.16247 4.84717 1.32754
3.72936 -2.9548 1.22304
3.67538 -2.55108 1.19423
3.40945 -2.96412 1.22667
3.9957 2.56386 1.32653
-2.59224 -3.53136 1.25042
-2.32346 -3.56686 1.21556
3.74796 2.05395 1.29916
3.72489 1.97657 1.29868
-2.85705 3.50424 1.3961
-2.29371 -2.41668 1.18673
1.95973 -2.78695 1.21515
-2.13161 2.77904 1.33175
-2.03606 2.76698 1.3379
2.25444 -1.87259 1.22699
2.3834 -1.50016 1.22369
-2.02017 1.88188 1.30064
-2.06208 -1.44152 1.22802
1.45324 -2.07479 1.24811
-1.99028 -1.08672 1.21425
-1.92313 -0.707067 1.22007
-1.92491 -0.702876 1.24568
-1.95453 -0.344108 1.22941
-1.89126 -0.564235 1.23011
-1.89091 -0.530474 1.23523
8.20053 -8.67898 -7.44803
12.0659 -10.2368 -8.75737
-8.90121 15.8926 -7.07022
20.2069 24.6051 -11.4352
-8.83046 -2.52888 -2.58834
-35.0876 -23.4386 -7.79435
-34.6655 -22.6703 -6.11116
-34.3974 -23.3759 -6.1757
-31.6694 -20.3107 -2.82911
9.24944 -8.80984 -0.390409
-7.89766 17.0235 -0.462948
-29.8179 -11.5386 0.736849
-6.9389 -8.29315 0.461986
16.3427 23.4672 1.55392
11.2182 15.7769 1.60124
-6.7093 -6.68227 0.885649
4.15118 12.0448 1.46786
8.65478 9.01516 1.46176
7.96122 -8.75192 -10.3654
8.81841 -8.52668 -10.4815
6.94734 -11.9217 -11.4994
6.8633 -11.3358 -10.8822
8.14095 -8.25321 -9.51956
7.01325 -12.0151 -11.3134
7.05657 -10.9589 -10.443
7.99079 -8.36594 -9.19109
6.71867 -11.2706 -10.2763
6.43693 -11.683 -10.2011
7.74675 -8.83872 -8.96027
6.19707 -14.2989 -11.794
8.28587 -8.68776 -9.08774
6.29188 -11.8951 -10.1637
6.14023 -12.075 -10.102
7.48011 -9.43156 -8.98833
7.89862 -9.04392 -8.91501
10.4412 -9.42632 -10.4625
6.11398 -14.1017 -11.3614
6.09689 -13.6603 -10.9989
6.12385 -12.5629 -10.2801
9.17794 -8.80814 -9.33209
9.26555 -9.05433 -9.4491
5.85789 -12.4917 -10.0233
9.34137 -8.97127 -9.24357
6.8506 -11.1087 -9.26308
5.60922 -12.9569 -9.99366
9.66903 -9.05977 -9.3908
7.59806 -9.33099 -8.46073
9.97283 -9.16442 -9.51568
10.8897 -9.46968 -10.1267
11.4077 -9.67072 -10.0441
8.37183 -8.59497 -7.94393
7.41995 -9.2854 -7.85376
8.1544 -8.7046 -7.88412
7.61647 -9.33801 -7.88415
7.82501 -9.38805 -7.83333
8.30754 -8.52213 -7.60832
0.362802 15.8813 -10.1347
7.51622 -9.31015 -7.6149
10.8805 -9.58078 -9.21815
7.21307 -10.6834 -8.159
8.14277 -8.48458 -7.41658
4.60951 -15.3979 -10.1091
8.70081 -8.68819 -7.60779
7.90959 -9.01921 -7.39988
4.04549 -18.012 -11.3721
8.18542 -8.61473 -7.26507
4.08516 -17.3091 -10.8523
0.148542 14.8882 -9.05853
6.64351 -11.2446 -7.95223
7.73141 -9.25493 -7.31739
10.0978 -9.2869 -8.32491
6.80966 -11.234 -7.8869
8.04762 -9.18995 -7.33289
11.2341 -9.66703 -8.86156
5.39383 -13.8412 -8.8109
7.72324 -9.25236 -7.14773
9.33189 -9.01523 -7.68886
6.89075 -11.0974 -7.73176
7.97091 -9.11394 -7.10484
9.72997 -9.16619 -7.79076
14.7732 7.38177 -9.58993
8.65088 -8.81443 -7.13676
6.92164 -10.9474 -7.4442
2.63749 -11.2035 -6.6199
7.84749 -9.05753 -6.86402
9.58232 -9.11857 -7.51427
10.7639 -9.47001 -8.08805
3.2806 -20.6153 -11.7394
6.79092 -10.9665 -7.23169
10.0802 -9.26757 -7.6687
12.2933 -10.3152 -8.99998
9.22085 -8.9886 -7.19586
4.60878 -14.2738 -8.36285
7.98964 -9.20014 -6.76776
14.6949 7.51254 -9.05934
9.67426 -9.0854 -7.28915
0.839298 17.4576 -9.54322
2.74326 -19.8791 -10.9424
11.0974 -9.61684 -7.97345
4.22457 -14.3947 -8.12138
14.6087 7.63941 -8.87847
14.9832 10.3443 -9.77405
13.9483 7.69473 -8.51041
10.9177 -9.58911 -7.72757
13.2086 -10.7565 -9.06205
3.04575 -19.3537 -10.2995
11.3194 -9.7937 -7.61661
2.16926 -20.4024 -10.3559
10.2305 -9.31431 -6.95759
14.2059 -11.2365 -9.09469
13.7419 -11.115 -8.84874
10.9716 -9.62338 -7.27129
7.49394 -9.31978 -5.92266
3.56081 -8.46294 -4.525
-8.72862 -1.91648 -4.39399
2.2258 -20.1978 -9.96635
4.52893 -9.29355 -5.05623
0.406066 13.6497 -6.68389
7.59286 -9.25203 -5.84075
-8.59382 16.4039 -8.97058
-9.23228 -2.44066 -4.6015
14.9173 -11.5198 -9.05808
19.2519 5.50827 -9.57529
-10.3542 -2.56354 -5.04552
1.90979 -20.5762 -9.8263
17.0525 16.0239 -11.0806
7.56345 -11.1823 -6.3705
19.8963 5.37029 -9.70418
13.9654 -11.0569 -8.28391
2.92304 -17.3032 -8.16035
19.2285 5.6892 -9.26291
17.7305 -12.9217 -10.1351
9.83806 -2.48491 -4.68811
20.1488 5.10688 -9.58936
17.1751 16.1499 -10.8616
1.81142 -20.2579 -9.30818
9.64615 -9.02018 -6.04766
-9.24266 -1.67763 -4.28433
9.42814 -3.45945 -4.5738
6.69486 -11.2865 -5.96942
9.88511 -2.61095 -4.63725
19.1216 5.8307 -8.99901
17.5462 17.4031 -11.1075
9.34471 -3.0782 -4.42836
15.3424 -11.8059 -8.6883
7.017 -11.5294 -6.03749
7.13304 -10.8893 -5.80284
9.53377 -3.39561 -4.50978
-10.1333 16.6115 -8.66437
17.5399 -12.801 -9.65007
19.4059 5.59026 -8.95025
16.0067 7.26021 -7.7821
17.6498 17.8264 -11.0922
16.3303 -12.1453 -8.97053
-11.4208 17.369 -9.13861
-6.64463 15.1889 -7.27053
-5.26432 4.93809 -3.14562
19.9974 5.42958 -9.00784
9.53275 -3.3959 -4.36709
18.0344 18.2779 -11.034
15.732 -12.1067 -8.54275
14.7769 7.38817 -7.0498
3.83338 -9.28984 -4.27003
-11.3399 17.249 -8.7406
6.92573 -10.8776 -5.43795
-13.6751 3.35147 -5.93249
0.7434 -22.451 -9.46613
15.7227 -11.9049 -8.24816
-5.19671 5.723 -3.23507
0.999681 -22.3176 -9.36453
1.2313 -20.8028 -8.7304
14.0908 7.55708 -6.68668
18.3541 19.1263 -11.0735
3.77837 -8.94473 -4.04943
14.6885 7.68615 -6.8996
17.7331 18.9382 -10.7646
-9.548 -1.09582 -3.96748
4.00454 -8.4969 -3.84859
13.9578 7.70687 -6.54424
6.8252 -10.9573 -5.27812
-13.7112 2.56137 -5.70639
-8.08618 15.6679 -7.1665
19.034 20.6815 -11.3847
14.989 7.20205 -6.69927
-5.34423 14.5999 -6.2349
13.8828 -10.9757 -6.93221
1.52691 19.1441 -7.45726
-8.88871 16.0559 -7.13325
18.8705 5.75479 -7.64329
-1.76349 13.3795 -5.22768
5.28622 -9.37744 -4.15164
-2.4018 13.611 -5.30928
19.3433 22.3754 -11.3389
4.65523 -8.50598 -3.68258
19.2927 5.53464 -7.63678
0.880061 -26.7121 -10.1562
14.8242 -11.4236 -7.04377
19.8461 5.37666 -7.69495
9.41908 -3.43167 -3.7478
0.535142 -22.8475 -8.51586
3.24074 -10.7695 -4.2021
19.9284 23.1838 -11.3508
0.910695 -8.73283 -3.25597
13.958 -11.0541 -6.56593
20.25 5.15034 -7.68195
17.699 17.488 -9.09082
-13.119 2.29837 -4.84252
20.5574 24.5477 -11.6104
2.28177 -13.2319 -4.83781
12.975 -10.4927 -6.00504
0.796349 15.3905 -5.51311
-8.2231 -2.80616 -3.10794
0.410487 -21.9835 -7.85914
-4.27827 14.0472 -5.22457
0.639157 -22.0297 -7.8316
15.7635 -11.9057 -7.00226
-16.0399 18.5441 -8.64238
5.91616 -11.3156 -4.49
-11.23 16.9482 -7.10262
0.0927459 -18.6127 -6.54225
14.1931 -11.2485 -6.33296
20.2048 5.32109 -7.29223
0.658824 -23.1679 -8.00392
-5.09829 14.8052 -5.36666
3.63587 -8.44048 -3.16363
4.86979 -9.02084 -3.51306
-14.7913 18.3645 -8.07283
2.2731 -10.8788 -3.80885
-9.05461 16.4274 -6.39566
3.01618 -13.649 -4.76644
-15.2763 18.7507 -8.20063
20.0238 5.44416 -6.97406
21.7007 26.8441 -11.5342
35.5837 -20.0874 -13.6568
-5.39968 14.3259 -5.08637
1.9037 20.597 -6.86168
1.26753 -10.2518 -3.41555
-5.34483 14.7216 -5.08846
-12.835 17.5722 -7.06056
18.4302 -13.1331 -7.34991
3.55855 -8.67 -3.00482
6.20613 -10.091 -3.79686
2.31283 -11.0068 -3.57928
-4.64685 -34.8884 -11.1852
-1.15275 -24.1176 -7.68473
14.9127 10.2704 -5.71347
-13.4728 17.9289 -7.09012
-18.3696 19.8139 -8.49488
6.94075 -11.0615 -4.0377
1.3887 -21.9851 -6.81443
-2.61464 -27.8293 -8.57865
7.06843 32.6289 -10.1848
0.771238 14.978 -4.55448
-11.3579 17.1382 -6.19837
-2.74736 -26.9608 -8.1599
-14.6364 18.3008 -6.99346
-5.39504 -35.3611 -10.6492
0.842629 -25.2628 -7.5572
-5.49713 15.1237 -4.78832
2.06742 20.5384 -6.08008
-21.7278 20.2599 -8.76593
18.0984 5.75928 -5.5899
-4.3722 14.6917 -4.50849
-8.08303 15.6835 -5.17802
4.24968 -9.13035 -2.96016
4.62561 -11.591 -3.64947
-12.6933 2.23613 -3.70446
-33.9875 -48.1428 -16.9555
-15.5067 18.6552 -6.97483
6.93573 -11.0467 -3.75556
2.56192 -9.53979 -2.80672
12.879 -10.4248 -4.71571
-8.47434 -2.46628 -2.50269
20.7493 26.7587 -9.59145
-8.60276 -2.26735 -2.51402
-2.60321 -26.5497 -7.48485
-13.1032 2.00793 -3.69171
4.37648 -11.3007 -3.36391
-9.49875 16.3368 -5.18958
-13.3234 17.7699 -6.1016
-5.50101 14.6853 -4.2878
-8.74474 -42.4564 -11.8581
-21.9292 20.4643 -8.06456
-9.92779 16.4636 -5.15358
-27.2984 20.9702 -9.15865
11.3507 11.4238 -4.24821
4.31538 -11.2659 -3.19635
46.3683 -13.4793 -12.7931
-8.4574 -39.9047 -10.7193
4.08297 -8.64353 -2.51723
11.1301 -9.89977 -3.89703
-14.7504 18.4693 -6.14729
6.52125 -10.3999 -3.17748
3.17398 -9.63422 -2.62248
-31.0138 -45.4227 -14.2008
-4.46936 -29.3084 -7.66874
3.534 -10.352 -2.8208
4.06157 -9.37206 -2.62554
15.519 -11.6692 -4.95469
-7.30801 15.571 -4.35529
-32.4432 -43.2669 -13.7121
4.30081 -11.1164 -3.01705
4.25012 -7.69527 -2.23741
6.51764 -10.6316 -3.1103
44.1128 -13.337 -11.491
-28.9028 21.8061 -8.95204
-11.7663 17.2875 -5.15648
-28.3217 -41.3145 -12.3146
-10.1989 -40.1383 -10.2134
-25.0076 21.0045 -8.02647
4.34088 -10.3107 -2.74886
-12.3104 17.634 -5.21558
-8.00597 15.6005 -4.22775
10.242 -9.23848 -3.30285
39.7237 -13.1953 -10.0173
15.0261 7.5146 -3.99898
-6.49672 -37.1967 -8.99295
3.96043 -9.07579 -2.34649
46.2456 -12.3772 -11.3631
-12.5923 -46.3596 -11.3779
3.84405 -11.0255 -2.75234
4.89994 -8.67828 -2.34466
-13.0409 17.7722 -5.13118
10.9683 -9.61214 -3.33355
-6.34049 -32.147 -7.47494
-27.7426 21.4272 -7.94675
40.9369 -8.95252 -9.51014
-31.1901 22.6457 -8.6424
-36.0731 -23.6396 -9.66313
40.147 -12.4107 -9.43577
5.44259 -9.45353 -2.43566
-12.4825 2.84825 -2.80935
40.0183 -11.7272 -9.21441
41.9514 -11.97 -9.59876
-5.49687 14.425 -3.37674
13.3264 -10.7236 -3.76546
37.5556 -12.0691 -8.6728
-23.8823 20.8148 -6.87251
-31.2888 -77.1374 -18.0591
4.29951 -9.67729 -2.29658
4.52948 -9.16078 -2.20754
-14.8789 18.5379 -5.07733
-31.6449 22.9863 -8.35225
-32.5497 23.0994 -8.53267
-29.9654 -79.4999 -18.2074
-10.9122 17.0518 -4.29379
-8.69107 -36.8888 -8.05743
3.18308 -9.66359 -2.16982
3.95581 -9.80361 -2.25431
45.0554 -10.446 -9.87362
14.8594 7.44282 -3.52276
-15.4684 19.0421 -5.19513
5.15336 -9.03625 -2.18566
25.9857 37.5962 -9.54809
14.8968 7.79618 -3.49019
-30.6518 -23.6725 -8.03362
-11.6835 17.2148 -4.22887
-15.9375 18.8436 -5.02516
-36.0207 24.1797 -8.81619
43.7356 -9.53954 -9.12919
-13.7498 -44.2417 -9.41397
4.12563 -9.71035 -2.14677
11.5572 -9.60717 -3.05804
-12.2412 17.5675 -4.27523
-20.8898 -59.9516 -12.6856
-13.3915 -41.5973 -8.65019
4.05963 -9.89676 -2.11816
-34.7129 -23.7363 -8.28939
-27.2938 21.4213 -6.82928
-33.7244 -24.1235 -8.08216
-7.03971 15.5576 -3.31584
-27.8922 -65.536 -13.8322
-34.128 -22.72 -7.90024
3.42809 -9.34127 -1.92162
45.1385 -10.4583 -8.898
-13.0024 17.7529 -4.20757
3.98005 -9.32365 -1.93482
-37.0819 -22.5245 -8.21254
-21.768 -35.3613 -7.89626
-16.1776 -46.6773 -9.34559
37.3867 -12.333 -7.44298
-36.8111 24.7234 -8.29912
-34.2765 -23.6721 -7.82498
-33.2112 -24.2986 -7.7242
-22.2214 -55.0503 -11.1684
-17.5164 -47.5781 -9.40286
3.8144 -9.19308 -1.83853
41.9355 -11.3023 -8.06593
5.74288 -9.68799 -2.06425
-25.621 -58.0957 -11.6228
-21.2604 -52.7683 -10.288
-14.8496 18.5107 -4.20864
-31.6391 -25.5176 -7.22465
-20.643 -27.5073 -6.14956
-40.3433 25.4571 -8.41706
-27.3062 21.4406 -6.04313
-34.8632 23.8566 -7.33513
3.89929 -10.0239 -1.86524
4.76341 -8.5973 -1.70821
13.9219 7.47638 -2.72497
13.9919 8.02915 -2.76237
-31.4954 22.9029 -6.67636
41.6201 -11.7752 -7.36459
41.4282 -10.7295 -7.28578
-31.796 -25.252 -6.88747
-21.48 20.457 -4.98162
-21.2329 -52.7758 -9.61032
14.7716 7.40346 -2.77062
-32.3872 22.9282 -6.62877
-24.6104 -58.6742 -10.512
42.9062 -11.5585 -7.22328
-10.5573 16.7609 -3.19742
-21.5425 -53.443 -9.18853
-35.5091 -24.5121 -6.79877
-23.2177 20.3987 -4.83986
-24.6559 21.0478 -5.02471
-41.059 24.8598 -7.43798
-11.4417 17.1249 -3.18021
3.46382 -9.50633 -1.56496
3.85759 -10.2012 -1.68893
-7.78524 15.7912 -2.69024
-31.7353 23.0978 -6.00031
-32.3041 -24.9508 -6.20649
-28.4193 -26.583 -5.89489
41.6105 -10.8174 -6.53574
44.1893 -9.62723 -6.89079
-6.68357 14.8878 -2.44287
9.80981 -5.14206 -1.64387
-34.0709 -24.5738 -6.25549
10.1598 -9.13478 -2.03629
44.3239 -10.2537 -6.75694
-37.3135 -24.839 -6.59665
-32.0658 -26.4492 -6.0801
-13.1376 -43.5282 -6.68875
16.8133 -12.1644 -3.04026
-25.8949 21.32 -4.87484
-25.7735 -57.7476 -9.11139
-7.77985 15.583 -2.49147
-12.9548 17.6634 -3.1237
6.0111 -11.4843 -1.85257
-13.6729 18.2754 -3.20669
-35.4798 23.9673 -6.01972
6.73514 -11.0016 -1.80322
37.1071 -12.246 -5.49655
-31.6828 -25.3874 -5.66587
-33.7419 24.2485 -5.75631
-21.4027 -51.5835 -7.71252
44.4709 -9.94859 -6.28441
-7.02472 15.5365 -2.33114
-23.7805 -62.0629 -9.02736
7.73067 -9.35554 -1.62888
-14.272 18.2232 -3.12085
13.1542 -10.4915 -2.27697
-22.6538 20.6063 -4.11822
41.5303 -10.7376 -5.69551
44.2029 -9.68219 -5.99006
-23.0363 20.2721 -4.01284
-33.2478 -24.8788 -5.42364
-15.1805 18.5892 -3.10365
-34.7678 23.2056 -5.4269
-38.9548 -16.4483 -5.45936
6.99369 -10.4011 -1.60838
10.7086 8.76731 -1.77652
-34.3783 -23.6913 -5.34264
-32.1175 23.4464 -5.03027
-36.1863 -22.5806 -5.34598
41.4024 -10.7073 -5.35235
6.77384 -10.3338 -1.54419
-7.82034 15.6427 -2.16627
-25.5133 21.423 -4.07954
-34.1359 24.0578 -5.15151
6.26831 -12.022 -1.65202
44.157 -9.42075 -5.5309
14.9099 7.81141 -2.02333
-18.5712 -44.9781 -5.86702
7.06305 -10.4973 -1.52363
-20.7569 9.19919 -2.68717
-14.8554 -44.9362 -5.56419
-32.3899 -24.9721 -4.78202
-31.8685 -25.4867 -4.77492
41.4794 -11.1111 -5.04767
11.1888 -9.63559 -1.71094
-30.5156 23.1382 -4.40602
6.61972 -10.786 -1.44906
7.46999 -9.19697 -1.35547
11.5381 -9.68598 -1.7113
9.42971 -4.60023 -1.18812
14.8892 7.65114 -1.88623
-10.5559 16.8049 -2.24022
-32.8928 24.0349 -4.56383
38.374 -12.6322 -4.53122
9.32828 -8.99559 -1.43389
-11.2813 16.9196 -2.21112
6.76021 -12.7275 -1.56143
44.2952 -9.62688 -4.91471
10.7055 8.79724 -1.49286
16.6681 -12.3815 -2.2289
41.6695 -10.8072 -4.61335
9.58896 -8.95058 -1.38989
8.35779 -8.44269 -1.24467
-31.4184 -25.1421 -4.18988
-31.5549 -63.2927 -7.37724
14.8867 7.46586 -1.70116
-32.3268 -24.926 -4.18808
-13.1047 17.8644 -2.25
-13.0159 17.4381 -2.16323
10.1738 -9.05792 -1.33463
-21.7667 -55.279 -5.82393
6.28666 -12.0392 -1.31486
16.5397 -12.1007 -1.97032
41.5593 -11.1675 -4.12564
-32.1504 -64.988 -6.89209
-21.7855 -57.1714 -5.80987
-23.7606 20.783 -2.95109
44.9727 -10.0046 -4.30389
9.68584 -8.95866 -1.22154
39.1827 -12.9253 -3.84543
-15.3073 18.7642 -2.19322
-30.0625 -13.7064 -3.01148
-33.8363 -65.9611 -6.83285
15.7644 -11.7994 -1.79165
8.6123 -8.70301 -1.1089
12.8311 -10.5914 -1.4491
44.5647 -10.3292 -3.91946
9.37289 -9.00012 -1.0925
10.9109 -9.60837 -1.22225
-34.9038 23.97 -3.52334
16.7381 -12.206 -1.71623
-17.5357 -45.631 -3.91527
14.6028 -11.4184 -1.47852
-12.0341 -33.6898 -2.82357
-30.4468 23.1503 -2.95778
-33.8139 23.9008 -3.19647
-23.6303 -53.9777 -4.54887
-52.5438 28.5965 -4.52958
-21.7966 20.5139 -2.17729
-34.0451 24.0811 -3.02197
16.2778 -12.1627 -1.48685
41.5819 -11.1273 -3.13667
-41.4718 -78.4682 -6.40501
13.9025 -10.9996 -1.26902
-16.0748 -42.6421 -3.14527
10.7262 -9.57921 -0.985508
-23.7856 20.8264 -2.13507
12.8095 -10.5697 -1.11198
17.8313 -12.9329 -1.46894
15.9437 -12.0595 -1.32061
-15.1584 -42.0281 -2.8901
43.2974 -11.2606 -2.79707
-33.3965 -67.6666 -4.60491
35.4433 -8.59851 -2.23877
42.4984 -9.72714 -2.67712
6.01359 -12.999 -0.856379
30.516 -20.1923 -2.19041
-10.0417 16.7631 -1.14895
-16.0618 -41.8983 -2.55513
16.5057 -12.3354 -1.15734
-9.7395 -12.6257 -0.87381
14.8761 7.63199 -0.90373
13.8306 -10.9483 -0.944863
-13.0263 17.6525 -1.14593
-16.9883 -42.1068 -2.41153
14.7705 7.76678 -0.817644
-16.8267 -43.0111 -2.26635
-14.4173 18.2738 -1.11308
9.53523 -8.99423 -0.601376
-25.0057 -57.36 -2.83179
12.395 -10.1897 -0.744135
-16.5991 -46.2714 -2.18281
-17.7737 -43.7906 -2.0236
6.8176 -12.5886 -0.635419
-14.4184 -43.9514 -1.97064
-54.0193 29.3775 -2.49028
18.2072 -13.0805 -0.910234
16.6936 -12.4082 -0.810416
-43.9463 -85.2957 -3.62056
-18.9357 -49.6558 -1.95769
-34.3452 23.5982 -1.52354
42.0566 -10.8364 -1.56445
-36.2132 -72.0343 -2.6981
-26.9704 -59.1057 -2.18799
19.85 22.9575 -1.00698
-21.8405 20.4665 -0.974837
8.0614 -14.2277 -0.549532
9.39227 -8.96634 -0.421075
11.2539 -9.90736 -0.487582
18.4599 -13.0525 -0.743407
34.4362 -12.9881 -1.22194
21.5768 26.1186 -1.08549
-27.6922 -13.8902 -0.970888
-23.3302 20.7755 -0.951615
-32.346 22.9089 -1.23643
-26.0783 -59.9548 -2.02559
-14.2355 -40.2716 -1.31608
-22.4406 -57.2425 -1.86225
-17.2254 -46.6845 -1.42617
-34.5428 -20.9441 -1.07581
11.4027 -9.6733 -0.400778
16.2373 -12.077 -0.533782
-42.0199 25.9947 -1.30228
-30.915 23.5232 -0.960428
-31.437 23.0393 -0.920765
9.53774 -8.97866 -0.303604
-42.0963 14.5495 -0.983678
-32.5058 -54.4311 -1.4285
21.095 -14.1084 -0.558265
30.1345 -18.2726 -0.796047
14.1601 3.91328 -0.299537
26.5316 46.3625 -0.980556
23.3586 -10.8746 -0.454137
46.458 -10.6977 -0.887392
-31.0885 -22.3413 -0.698034
-30.1089 -29.573 -0.66933
-19.6566 -48.2321 -0.868067
12.6617 -10.4121 -0.269939
18.3876 -13.2867 -0.347058
-29.6156 -13.1634 -0.425242
-33.3664 -24.9706 -0.579834
-35.0102 -70.5778 -1.06478
-28.9246 -61.5607 -0.933015
-34.4766 -23.5457 -0.545014
-30.9362 23.5357 -0.456851
16.8869 -12.6107 -0.250573
28.9829 -17.9708 -0.401886
-31.3902 23.0448 -0.432771
-19.7005 -45.182 -0.528118
-12.3669 -37.2227 -0.395669
-34.7105 -61.159 -0.64885
-14.593 18.5107 -0.180393
-27.0032 -13.6142 -0.243965
-15.2948 18.6441 -0.164374
-22.9739 20.5178 -0.157809
-21.3839 20.0572 -0.132696
-10.6263 -13.661 -0.0607785
14.639 7.69023 -0.0197633
11.0638 -9.72869 -0.00791888
-35.0074 -19.1743 0.0610722
-11.6494 -34.6221 0.118178
16.8483 -12.2408 0.0901222
-19.404 -44.5479 0.215053
18.6473 -13.1384 0.120859
7.14048 -12.2743 0.103498
25.7887 -10.5805 0.171146
-56.6942 20.2437 0.575334
16.1486 -11.9677 0.19167
37.0296 -7.56 0.356291
-29.4012 -8.29047 0.357696
-36.8741 -22.2565 0.475125
-11.618 -33.287 0.377402
-13.0572 -36.1819 0.457115
-10.5453 -32.4136 0.408216
6.29367 -12.8642 0.182721
7.18489 -11.0687 0.173404
-28.7499 22.5677 0.560697
11.2674 -9.84024 0.224759
-24.5793 21.0196 0.534798
10.8576 -9.69452 0.228317
12.9097 -10.6276 0.263278
35.9992 -7.70425 0.612178
-35.1173 -23.528 0.768917
-31.8772 22.7923 0.770612
6.10739 -12.7603 0.274428
6.99448 -11.0073 0.251159
8.00191 -9.38966 0.240816
26.3519 54.1851 1.31152
7.70574 -9.41526 0.274976
10.0942 -9.14267 0.328452
-29.1352 -9.34251 0.737355
-23.7515 20.7314 0.854067
-28.1337 22.1833 0.962734
-29.2647 -8.78719 0.805551
9.16126 -8.86787 0.344328
9.59337 -8.91628 0.3569
-26.0967 21.9945 0.928457
25.1793 -5.09378 0.715076
12.9194 -10.5984 0.497633
14.5428 23.6912 0.858092
6.15521 -12.6978 0.443997
7.42458 -11.5736 0.431419
-28.7797 -8.11679 0.981504
-12.7444 -19.5131 0.767614
-28.4574 -8.89435 1.03121
15.9759 10.9348 0.699871
-30.2342 -18.735 1.24332
15.4341 26.8102 1.10447
-30.85 -16.8278 1.30238
23.3665 -4.21938 0.857723
-28.2086 -20.0624 1.28267
-7.318 -7.97913 0.408715
9.02346 -8.79916 0.468399
12.3015 13.4565 0.703235
24.9529 51.4756 2.16719
23.8454 50.7692 2.11285
-11.6149 -9.19369 0.58424
8.6976 -8.64339 0.484974
-26.1765 21.5631 1.37804
21.6897 -2.93949 0.886649
-29.1784 -17.723 1.39865
9.38356 -8.8974 0.530091
12.3183 14.1872 0.808601
6.54219 -12.3895 0.594914
14.6385 19.0205 1.05547
20.3465 28.1039 1.51994
-9.55779 -13.8971 0.741276
-10.0594 -15.7325 0.828774
7.56712 -10.9062 0.584762
8.59902 -8.68817 0.552317
24.0044 -3.67723 1.09632
-30.2131 -8.80454 1.43684
6.71471 -11.0387 0.594424
-8.30331 -8.17143 0.548408
20.5895 41.5414 2.21865
-28.9364 -17.8838 1.60804
-9.83273 -13.7922 0.806128
9.62772 -8.93279 0.618475
14.8272 41.2035 2.12015
-30.6378 -13.5704 1.59961
-6.78338 -8.26994 0.526437
14.0924 32.772 1.82062
-30.1079 -11.7903 1.62297
-7.61515 -7.00239 0.523109
-6.7184 -7.61602 0.513905
15.7301 28.4949 1.69038
10.4327 12.1991 0.867669
13.9973 19.048 1.26941
9.31391 -8.89574 0.689979
14.5805 18.9711 1.32137
14.978 23.1334 1.51775
-28.0361 19.7403 1.88075
-6.99514 -8.22079 0.598723
-26.9608 20.6869 1.89072
6.05715 -12.7892 0.791754
-7.13225 -9.19158 0.663558
9.84333 12.2949 0.926442
14.5832 24.5709 1.66951
6.42309 -12.9002 0.829342
13.5626 22.127 1.53318
-8.29002 -8.14877 0.700545
11.4157 11.4945 0.966226
14.4282 19.1897 1.44268
-7.42908 -10.0569 0.777659
6.97829 -11.1204 0.800036
11.2108 -9.66987 0.897417
5.84258 -10.7103 0.757044
-7.2151 -6.66898 0.614153
14.22 20.172 1.56179
16.0152 7.10895 1.13775
-7.05518 -6.16417 0.614971
6.42252 -13.3619 0.988023
9.182 20.7404 1.53022
10.2943 12.4078 1.1023
13.3298 17.924 1.55812
12.1572 20.1564 1.62892
11.2199 11.8522 1.14566
6.57429 -9.80448 0.835913
11.3692 11.6318 1.1772
9.77206 -6.8981 0.851023
12.222 11.832 1.24946
9.8862 -8.34873 0.947851
-6.21585 6.73688 0.685032
10.3369 9.1019 1.03471
11.7181 17.5205 1.58603
11.2691 17.9538 1.5973
-6.96727 -7.72283 0.806706
10.6476 18.3775 1.6297
9.47474 -8.92042 1.0056
-6.42863 -4.30764 0.610607
8.99958 18.0304 1.61037
10.0434 -6.87257 0.974343
12.3186 11.4293 1.35848
9.54617 18.5347 1.6788
-7.29531 -9.67662 0.987172
6.69394 -9.34689 0.935471
12.1062 11.5813 1.37285
12.009 11.8104 1.39876
11.2915 11.8021 1.3523
-5.07744 -11.5886 1.06422
10.1817 12.7386 1.38764
-6.97882 -6.09839 0.798517
-6.83566 -6.71422 0.809554
-5.23849 -11.4892 1.07376
-7.32517 -7.77297 0.919951
9.25168 -7.23024 1.0144
-7.14528 -8.08568 0.944465
-7.0397 -7.71539 0.918712
9.26954 12.3729 1.37071
-6.97678 -8.40186 0.975818
10.7143 8.99 1.27472
10.3238 13.2964 1.52095
10.4242 9.15515 1.27007
7.5979 13.7919 1.44832
-6.51958 -8.16266 0.957322
-6.92977 -9.05348 1.05242
11.0787 10.685 1.42024
11.1437 9.09212 1.3459
10.7516 10.6869 1.42109
6.36698 14.7132 1.50639
-11.5001 2.94618 1.11393
-6.37345 -4.17886 0.714312
-6.82347 -6.31033 0.862113
9.30406 13.1214 1.55171
-6.08471 6.61181 0.885627
7.93926 -6.59161 1.00561
7.81722 13.0344 1.50971
-7.0914 -7.64211 1.05048
9.19684 11.4995 1.48523
6.90873 12.2666 1.42874
6.95898 12.8204 1.48706
9.44376 9.00715 1.35062
5.75934 13.7294 1.54302
9.02449 12.2739 1.58831
-6.11772 -4.46444 0.794145
5.85976 13.4645 1.54663
6.11886 13.4028 1.54885
-6.98557 -4.43738 0.885505
8.68481 8.933 1.32826
9.04083 10.0717 1.47194
7.24139 10.8731 1.41971
5.74662 11.3186 1.38
-6.31635 -7.4306 1.06616
10.191 6.40476 1.33176
8.91363 8.06756 1.32528
7.21891 11.539 1.50289
6.75759 11.4852 1.47322
5.27849 11.7212 1.43009
4.793 11.9136 1.43653
4.61477 13.4204 1.56103
9.78944 6.99948 1.34377
8.67306 9.21934 1.41442
5.30617 11.3534 1.41113
-6.85952 -6.74125 1.0707
6.78594 10.5918 1.41698
4.23919 12.9314 1.53776
9.72358 -3.18629 1.14083
-6.1153 -5.42394 0.946657
7.27371 -6.10691 1.07803
10.342 5.6744 1.35296
-7.39948 -0.988205 0.855915
-6.26913 -5.36622 0.950165
5.24128 -5.54946 0.879366
4.99331 11.453 1.45122
-6.89735 -4.56871 0.959047
4.44663 -7.25058 0.983588
10.3383 5.11427 1.3535
8.80852 7.81796 1.38258
-6.01162 -4.37521 0.866859
-6.49873 -5.284 0.989787
4.08467 -7.85177 1.05254
4.96089 -5.84344 0.919558
10.1019 4.72353 1.33682
8.44287 8.19825 1.4254
5.20008 11.3286 1.52141
8.97958 6.22061 1.33747
7.93904 8.26225 1.43533
-6.50349 -5.75893 1.08168
3.70153 -7.56273 1.05453
8.61045 6.63899 1.36722
-6.48087 -5.35523 1.06434
9.02647 5.97052 1.38169
8.11868 7.08404 1.37469
8.04719 7.44552 1.39979
5.76872 -5.33779 1.00896
-6.98705 -4.45278 1.06389
8.03141 7.92968 1.46388
-7.37558 -1.04494 0.963006
-6.93751 -2.83228 0.979051
8.92519 4.07801 1.28505
8.33994 6.57953 1.39449
4.99246 -6.02084 1.02803
4.91051 -6.18499 1.04568
6.85818 -4.27517 1.07566
-7.14967 -1.72218 0.986404
-7.02479 -2.2248 0.985641
-6.03553 -4.42982 1.00127
8.07492 6.60918 1.41459
8.56069 4.4142 1.31316
8.57738 5.13469 1.36541
7.96548 7.08217 1.45073
-6.82206 -3.741 1.05688
8.81197 4.1363 1.33244
8.20969 5.79438 1.37603
-6.40979 -4.33709 1.0594
-5.96734 -4.53262 1.02378
5.30141 8.93349 1.43466
3.58763 9.92454 1.46517
-7.38575 -1.09563 1.03456
-6.91821 -3.93505 1.10496
4.94422 -5.53829 1.02595
5.22282 -5.39264 1.04185
7.44949 -3.53033 1.15277
3.33302 9.99516 1.47593
8.35411 4.5722 1.34714
7.36154 -3.6714 1.16689
7.57228 -3.32841 1.17917
7.74604 -3.29893 1.19456
8.8963 2.80119 1.34241
4.82933 -5.63019 1.06612
7.34041 -2.84789 1.1462
-6.97256 -3.30684 1.12529
7.9013 -2.77369 1.22084
8.64182 -1.81527 1.29611
4.95768 8.488 1.45078
2.90855 9.29592 1.44858
7.71595 -1.88396 1.1705
7.18385 5.72111 1.36825
3.40637 9.42303 1.48071
3.13806 9.64646 1.50293
-7.38815 -1.04589 1.10697
-7.08956 -2.02738 1.09946
6.90047 6.24654 1.4052
-6.27382 -2.27556 1.00206
-7.25677 -1.37845 1.11561
7.89497 4.79076 1.40684
5.66372 7.29793 1.40151
5.24769 7.56632 1.40125
5.01036 7.93992 1.41926
6.74961 -3.22094 1.13093
7.23372 -3.11928 1.20629
7.62107 -2.75006 1.23456
-7.33473 -0.734747 1.12633
-7.1124 -1.95864 1.13917
6.77906 -3.08826 1.15194
3.75042 -5.78745 1.06631
-7.0678 -2.08033 1.15562
-7.36363 -1.09549 1.16958
7.32137 4.74877 1.3782
-7.21468 -1.44673 1.17132
-7.28824 -1.30407 1.18858
-7.11248 -2.02329 1.20309
7.03188 4.73762 1.384
-7.11624 -1.94958 1.21264
6.97136 4.83848 1.40944
6.57953 4.82592 1.36159
5.17121 6.20091 1.34492
4.63433 7.11235 1.41752
3.78237 7.85017 1.44809
-7.2657 -1.37663 1.2351
2.79482 -5.78175 1.08241
7.1055 4.40597 1.40837
6.47628 5.20827 1.40193
3.87467 -5.36663 1.11588
3.93807 -5.02275 1.08033
-7.28912 -1.25531 1.25535
-6.61001 -2.6299 1.20754
7.38655 2.83628 1.34193
6.99721 3.873 1.3628
-6.4251 -2.75765 1.19012
6.74207 4.07893 1.35266
5.67877 -3.51734 1.14962
-7.4139 -1.0421 1.29538
-6.3677 -2.28432 1.16362
5.53219 -3.64585 1.14193
5.31666 -3.77238 1.14255
3.56256 7.09358 1.39599
-6.81308 -1.73863 1.23547
4.48045 -4.46784 1.11341
-7.10847 -0.916719 1.27746
4.72489 -4.45743 1.14939
4.29551 6.44302 1.38154
6.55786 3.45895 1.33883
6.5961 3.66606 1.35557
-6.45336 -1.50334 1.1924
3.61055 -5.32877 1.17078
5.04597 5.5777 1.37701
-6.16508 -2.1868 1.19946
3.41553 -5.16212 1.15099
3.35685 6.70918 1.40317
-1.69589 -5.77613 1.14379
6.42076 2.72172 1.32702
-2.14151 -5.72327 1.17505
6.28547 2.7855 1.32346
-2.78624 -5.37427 1.18659
-3.55204 5.39472 1.40083
4.451 3.87617 1.34682
4.15293 -2.87997 1.17737
4.6286 -2.18625 1.23672
4.18373 3.27926 1.31651
3.71044 -2.9326 1.22465
4.00635 2.56682 1.32901
-1.4409 -4.11198 1.22045
-2.31892 -3.57662 1.2119
3.84946 2.35781 1.30756
-2.87487 3.54383 1.36944
-2.47876 -2.91446 1.18906
-2.3762 -2.93549 1.19394
1.84704 -2.81759 1.18414
1.86997 -2.79558 1.21414
1.99594 -2.53111 1.20025
-2.05017 2.81746 1.32651
2.80482 -0.555872 1.25922
2.78375 -0.336916 1.24076
-2.08769 -1.61809 1.21277
-2.07559 -1.45041 1.23794
-1.86041 -1.79442 1.28295
-1.99334 -1.13078 1.20454
-1.98491 -1.0698 1.23141
-1.94488 -0.879941 1.23177
-1.92941 -0.708104 1.22219
-1.9283 -0.701218 1.24943
-1.90488 -0.46951 1.22243
-1.87038 -0.345564 1.21973
-1.85515 -0.401006 1.22639
2.37882 -19.7154 -10.0207
-7.6258 -9.00326 0.466629
8.00326 -8.78355 -10.4485
8.24998 -8.61525 -10.4862
8.20173 -8.27662 -9.86966
6.94584 -11.9375 -11.3915
8.49974 -8.95643 -9.72292
7.83689 -8.92222 -9.12018
5.84169 -12.7816 -10.7156
9.40644 -8.8149 -9.72376
6.13866 -14.0764 -11.5614
8.2717 -8.66291 -9.00582
8.00289 -9.15221 -9.09199
7.2793 -9.22995 -8.75839
5.90049 -14.1317 -11.1742
7.70393 -9.28889 -8.70841
7.84124 -9.1004 -8.65361
7.11627 -10.5627 -9.06843
6.80759 -11.0535 -9.20351
10.0268 -9.16882 -9.54298
6.52754 -11.1558 -8.84917
8.01845 -8.61235 -7.83617
7.34666 -9.26355 -7.85744
8.49926 -8.66442 -8.06788
7.70455 -9.45376 -8.01258
6.47425 -12.7504 -9.33856
7.9176 -9.16291 -7.89861
4.99729 -16.0272 -10.7985
-0.470652 13.9473 -8.92297
7.71288 -9.22705 -7.71214
7.31951 -10.841 -8.32924
8.36075 -8.54881 -7.61845
10.8433 -9.59255 -9.18338
8.97046 -8.8005 -7.88164
11.7246 -9.99826 -9.65755
8.0562 -8.51847 -7.21362
4.03944 -16.842 -10.6154
4.24524 -15.3686 -9.7905
7.82846 -9.34002 -7.30388
3.95082 -15.6277 -9.6126
11.4409 -9.79479 -9.02102
6.84959 -11.0542 -7.72238
7.75831 -8.80417 -6.95182
5.47804 -13.976 -8.8699
6.4754 -12.6823 -8.33426
8.34543 -8.57759 -6.97452
9.66284 -9.0579 -7.7232
2.78677 -11.7815 -6.94022
5.46483 -13.8648 -8.43915
9.56963 -9.08164 -7.45839
6.60451 -11.0488 -7.24852
3.35249 -20.7416 -11.7752
8.85897 -8.91936 -7.04758
12.1455 -10.19 -8.88247
6.80997 -10.9847 -7.20073
4.67437 -14.5881 -8.4668
6.2086 -12.5965 -7.72621
0.898255 18.5406 -10.1028
14.5421 7.68381 -8.93428
4.19622 -14.2207 -8.00861
14.6528 -11.5953 -10.0735
14.8932 7.40044 -8.85634
13.9377 7.6789 -8.45309
4.75827 -14.8296 -8.27601
12.038 -10.1125 -8.27424
1.81511 -20.5295 -10.603
11.3751 -9.81698 -7.69845
2.08258 -20.2491 -10.3296
0.00803827 14.2787 -7.16615
-7.37103 15.3272 -8.52653
10.5594 -9.56914 -7.16093
7.49695 -9.40352 -5.99223
-8.59855 16.3058 -8.91241
11.597 -9.73967 -7.33071
10.4606 -9.5542 -6.8034
14.7091 -11.2771 -8.94076
16.5574 15.6833 -10.8314
7.46271 -11.0306 -6.34595
14.9263 7.37484 -7.80976
13.8635 -10.9782 -8.26581
-12.0988 17.3282 -9.68643
15.7513 -11.9354 -9.02945
9.75479 -2.44574 -4.61909
-9.13835 -1.66134 -4.22412
18.5313 17.881 -11.6159
3.90842 -9.08819 -4.49053
-10.3319 16.8819 -8.89177
-5.36906 4.46539 -3.14155
6.83875 -11.2595 -5.93133
9.40224 -9.06213 -5.75984
15.9214 7.26288 -7.71859
-6.70197 15.2275 -7.26977
1.49916 -18.754 -8.13761
-11.3128 17.2159 -8.87299
9.56202 -3.36334 -4.3412
6.99823 -11.0158 -5.51772
15.7374 -11.8968 -8.2591
14.5641 7.69855 -6.90797
18.5542 19.3025 -11.1859
1.0215 -22.7067 -9.46251
-4.56749 13.9809 -6.06256
-9.96805 -1.1149 -4.15725
14.0066 7.73382 -6.53103
20.198 21.9694 -12.1601
-13.1405 2.46264 -5.44683
15.0254 7.13881 -6.7261
-5.27123 14.4534 -6.19047
3.63318 -8.79618 -3.78839
13.8713 -10.9528 -6.90794
19.0829 21.3557 -11.1057
18.687 5.76233 -7.58146
1.53534 19.1488 -7.44569
-8.83515 15.9237 -7.02379
11.3588 -10.0154 -5.82548
19.0092 22.0369 -11.2063
0.684505 15.3369 -5.87751
-1.66667 12.8203 -4.97481
2.71245 -12.2429 -4.81144
-8.79576 -1.25623 -3.3775
0.704326 -23.7963 -8.9826
15.0958 -11.5687 -7.17363
9.47143 -3.45595 -3.80293
-7.91054 -3.51403 -3.17492
1.09739 -10.4774 -3.8743
7.00901 -11.2065 -4.83436
14.1113 7.87898 -5.83321
-8.31505 -2.85486 -3.16153
0.790471 15.2377 -5.43883
-3.99335 13.5152 -4.98881
5.72314 -10.9604 -4.35192
15.7396 -11.8952 -6.98864
18.9557 5.85441 -6.9784
2.09274 20.3955 -7.18581
21.313 25.764 -11.6157
-15.0847 18.6227 -8.22951
2.96262 -13.3038 -4.69196
-9.00485 16.2704 -6.35857
18.3426 -12.9918 -7.70517
-5.09217 14.639 -5.27359
1.36508 -22.3704 -7.42648
1.75126 19.4805 -6.4584
1.44861 -10.3253 -3.44593
38.5415 -19.7019 -14.2077
6.15531 -10.0255 -3.76615
17.4441 -12.3173 -6.84063
2.10657 20.523 -6.56288
-13.5359 18.073 -7.12259
1.45922 -22.897 -7.14806
-4.34838 14.896 -4.82526
-11.0993 16.8198 -6.11085
-2.80257 -28.4958 -8.6969
3.05958 -9.45598 -3.02083
0.798438 -24.4957 -7.36978
18.9686 -13.4639 -6.90356
17.4909 5.53338 -5.38198
-7.99005 15.4714 -5.07256
4.21842 -10.4688 -3.28076
3.61127 -10.5419 -3.17207
4.2288 -10.9139 -3.28624
-13.5001 18.0463 -6.27226
-9.41491 16.0971 -5.07645
-13.3135 1.99576 -3.69154
-17.1736 19.7324 -7.10599
26.0143 -17.1259 -8.441
-4.01266 -28.6007 -7.74338
3.77708 -9.1318 -2.64434
-9.93461 16.5172 -5.13366
46.4913 -13.5746 -12.8446
10.4935 -9.35917 -3.72245
-6.53856 15.1438 -4.3125
-14.6213 18.3331 -6.15637
-8.21807 -38.8714 -10.3464
4.94562 -9.54755 -2.78358
6.53824 -10.4643 -3.18383
-7.31552 15.5299 -4.36708
-10.7006 16.6687 -5.06413
-10.1876 -40.3647 -10.3502
-9.32905 -40.267 -10.0903
10.8967 -9.60582 -3.57242
-8.07991 15.6849 -4.28146
-11.895 17.2909 -5.08328
14.5184 7.66897 -3.89615
4.03861 -9.23454 -2.38578
15.119 7.4875 -3.97512
3.73969 -8.89209 -2.26792
-6.675 -33.2478 -7.85072
5.61 -9.85608 -2.62896
44.0631 -10.6631 -10.5383
-12.9953 17.7027 -5.05758
14.7735 7.56592 -3.75429
43.1316 -9.33038 -9.99782
-9.9338 16.549 -4.32299
3.70415 -9.22732 -2.16363
42.3104 -10.8541 -9.5348
15.0301 7.45629 -3.592
-10.7964 16.8546 -4.28991
-22.3821 -35.1864 -8.95778
4.80621 -9.72148 -2.34005
44.3446 -10.383 -9.74563
-15.0128 18.6012 -5.03141
-32.7316 -24.1588 -8.62226
41.0739 -13.7432 -9.16441
14.7559 7.79722 -3.47973
-36.22 24.4938 -8.94228
-8.61227 -35.2234 -7.34112
3.93536 -11.4589 -2.43615
43.8866 -9.46868 -9.13278
11.7249 -9.70527 -3.05293
42.3313 -10.8973 -8.7117
-27.4425 20.7089 -6.82527
6.12036 -10.2442 -2.37635
45.2042 -10.5707 -9.0683
-12.9903 17.7252 -4.24899
-27.3285 21.4171 -6.74822
15.911 12.0351 -3.81195
-6.99908 15.41 -3.25182
-33.6555 -24.3432 -7.94979
-32.1374 -25.1658 -7.84375
-36.4497 24.2885 -8.24917
-34.1553 -22.531 -7.73178
17.9038 5.62882 -3.5024
-34.6778 -20.9236 -7.56317
-15.5715 -44.8924 -8.84994
3.7586 -9.79014 -1.97502
-25.732 -64.0607 -12.8366
-17.3752 -46.8072 -9.13051
3.96511 -9.61093 -1.87568
13.005 -10.1622 -2.97699
44.7052 -9.9481 -8.22768
-14.98 18.5795 -4.26619
-27.4874 21.5587 -6.16856
14.9896 7.93464 -2.95324
-30.7956 -26.836 -7.11913
42.1904 -10.8068 -7.4786
-8.06828 15.5445 -2.96892
-9.93504 18.2986 -3.51974
43.9919 -10.3557 -7.6434
-31.3439 22.8309 -6.5293
-30.7345 -23.6454 -6.48081
-21.1672 20.2394 -4.87358
-33.0079 23.311 -6.74221
15.823 -11.8061 -3.23587
-10.5046 16.6781 -3.13751
-44.423 26.1398 -8.17795
-32.1477 -24.1506 -6.43657
-34.0229 -23.4679 -6.5093
3.42431 -9.4709 -1.57532
-24.1891 20.6634 -4.914
16.7996 -11.8762 -3.18757
-11.3569 16.9979 -3.10734
45.333 -10.6243 -7.06821
-23.8309 -55.2257 -9.08698
-30.07 22.5518 -5.62079
-39.2528 24.475 -6.86649
-32.1791 -24.9786 -6.07699
44.0005 -9.42899 -6.70134
-34.3241 -24.8235 -6.18901
-51.3235 28.6559 -8.45232
-36.1646 -24.1222 -6.25697
6.69248 -12.8434 -2.10367
-7.08476 15.6216 -2.38424
-13.3407 18.0093 -3.11958
-32.8448 23.6467 -5.65743
-25.6794 -57.1885 -8.64311
-16.7916 -49.0867 -7.13347
36.2441 -12.0534 -5.23938
-23.5974 20.7364 -4.1805
-32.8185 -24.5773 -5.35259
-31.1529 -25.5569 -5.32711
-34.4797 -23.7463 -5.36241
7.42347 -9.4027 -1.54939
42.2419 -10.8129 -5.59604
-34.2216 23.287 -5.26292
-30.1732 -16.1007 -4.35923
6.03002 -7.80925 -1.26044
44.1292 -10.372 -5.74818
-31.738 23.3255 -4.91525
14.4242 -11.2377 -2.24701
-30.6318 23.0709 -4.63926
-33.3004 23.5402 -4.9102
-10.5461 16.7736 -2.29027
-32.0199 -23.0291 -4.64004
12.9291 -10.4569 -1.94703
35.3696 -11.6876 -4.31122
6.32116 -10.3083 -1.39025
11.1489 -9.66121 -1.66251
16.3382 -12.1645 -2.29598
-11.2656 16.8925 -2.24912
6.72355 -12.5277 -1.55862
11.5526 -9.64751 -1.6672
42.0838 -10.7915 -4.77075
-39.9542 24.9117 -5.05329
44.1871 -10.3252 -4.88676
14.8311 -11.3885 -1.98992
-13.1902 17.8202 -2.27789
14.6769 7.76824 -1.659
13.9298 -10.9888 -1.77283
-14.2587 18.2364 -2.24576
6.36763 -12.2029 -1.32552
9.37438 -8.89196 -1.24912
16.9018 -12.3587 -2.04409
-29.2406 -13.9727 -3.05272
-15.2551 18.6807 -2.24869
-39.1454 -76.2621 -7.97893
-34.5263 -21.6047 -3.60616
16.0348 -12.0153 -1.80366
37.99 -12.6405 -3.58432
11.0677 -9.83822 -1.22409
42.4753 -10.856 -3.65736
-16.7747 -43.6519 -3.75613
-42.4787 -83.0612 -7.2673
17.4905 -12.7452 -1.70977
-30.8448 23.344 -2.95853
7.42459 -9.14573 -0.912081
-33.5963 23.7816 -3.05734
-17.1467 -42.418 -3.4194
-38.7741 -72.9632 -5.87637
-37.7306 -75.5684 -5.78643
12.512 -10.4126 -1.09605
16.9549 -12.349 -1.41848
-40.4254 25.1659 -3.11295
42.7209 -10.9374 -2.89552
-29.0306 -13.651 -1.92096
-42.8332 -82.7518 -5.64363
14.4274 -11.2475 -1.10272
30.7226 -20.2385 -2.01148
30.7087 -19.3544 -1.98509
15.244 7.52867 -0.881793
14.6864 7.78761 -0.854342
-13.1174 17.9005 -1.12609
-25.7928 -56.9171 -3.21114
-44.9553 -84.7259 -4.68486
9.62275 -9.06271 -0.661396
13.3821 -10.6421 -0.84015
15.841 10.0773 -0.886544
16.1235 11.3011 -0.916264
6.78988 -12.4531 -0.674869
-20.1968 -5.95942 -0.903874
-31.0738 -55.3764 -2.80235
10.1634 -13.721 -0.69834
17.9198 -12.9227 -0.903415
41.9647 -10.7193 -1.72431
-9.44746 -12.4954 -0.604311
43.4473 -10.1738 -1.75537
21.7593 26.1591 -1.15964
-33.4758 22.8837 -1.40465
-37.1328 -20.8225 -1.38576
-18.9228 -47.1596 -1.63352
16.3732 -12.2152 -0.666942
14.3138 3.87716 -0.437209
-27.214 -62.5347 -2.04617
-23.2791 20.7367 -0.889992
-12.7578 -38.685 -1.0961
42.3761 -9.00184 -1.21204
-43.2047 26.8732 -1.37455
-55.9964 20.1352 -1.42441
43.0347 -9.99297 -0.950908
-31.7599 24.0021 -0.794788
-30.9252 9.83635 -0.677819
30.0885 52.6796 -1.11318
-30.9787 22.863 -0.736526
12.9061 -10.5749 -0.289384
-35.2625 -21.9448 -0.643735
-32.1319 -64.6208 -1.07564
17.3661 -12.5239 -0.31147
-13.0433 -39.4326 -0.536975
-14.5473 18.467 -0.239026
-20.8579 -47.936 -0.569299
29.8522 -18.6974 -0.318369
-23.2666 20.7588 -0.210684
-9.98906 -12.8206 -0.0491505
6.98318 -11.6486 -0.0236557
14.5148 7.59046 0.000772121
-36.3044 -22.4179 0.227422
-24.6016 -42.0477 0.357987
-55.2877 30.2871 0.646444
6.65456 -11.807 0.140288
7.98097 -9.07426 0.120668
-42.0343 -22.3477 0.523454
-11.7988 -33.4132 0.394173
11.0522 -9.6343 0.192079
-23.6501 20.2077 0.410696
-12.5367 -19.4511 0.336159
-31.9974 22.769 0.701153
-35.974 -24.1176 0.775103
-35.4913 -26.219 0.769847
10.5892 -9.51605 0.23218
7.76183 -9.56758 0.26466
7.8694 -9.18494 0.2609
-73.9054 25.5913 1.83064
17.9587 -13.0363 0.540101
-29.1258 -8.7502 0.814434
-28.6873 22.4964 1.05188
11.5279 -9.87661 0.413929
17.1605 -7.43853 0.532427
-25.6209 21.7295 1.00194
-7.94627 -9.31825 0.389862
12.5442 13.6384 0.65936
6.09984 -12.5681 0.491554
8.87755 -8.73566 0.425533
24.3129 -4.30826 0.825693
18.2385 17.4174 0.911055
13.5232 23.4101 1.01727
-58.6879 19.2906 2.22621
24.1246 -4.68635 0.930911
-26.0911 21.3133 1.27535
9.34284 -8.88801 0.498481
22.1856 -3.05648 0.845995
12.0483 13.9545 0.755116
14.5054 18.7425 0.971026
6.47502 -12.2765 0.569742
17.1494 39.6369 1.80398
7.60957 -10.9655 0.562632
-7.58485 -7.46633 0.470449
-8.33694 -11.5343 0.635944
-30.0394 -11.8917 1.53915
16.2045 10.5196 0.963096
-7.76204 -7.22222 0.507992
14.9285 23.1927 1.42571
-6.98717 -8.22536 0.593462
14.2619 19.5296 1.32567
-26.7273 20.5807 1.86724
14.0703 22.9145 1.55755
-7.16359 -9.23436 0.667989
6.76099 -13.3981 0.861548
9.76938 12.2885 0.929525
14.419 19.1573 1.50369
14.5913 25.9688 1.83463
9.93958 27.8748 1.88261
-7.34932 -10.031 0.7956
9.23834 21.0531 1.54356
11.2972 9.93739 1.07269
11.3055 11.9553 1.16184
13.476 15.5717 1.47405
8.13023 -12.5326 1.05465
10.6525 8.89214 1.02121
12.6925 14.2359 1.42743
-14.5518 8.58146 1.27866
-11.2084 2.11153 0.863577
12.2135 15.8985 1.55621
11.3361 18.0663 1.65667
10.0503 -6.87785 0.950886
-7.71173 -8.15792 0.89828
12.5859 11.3929 1.385
11.6975 11.4436 1.35866
-7.03581 -6.19047 0.761819
-7.08996 -6.93286 0.822791
11.3086 11.8044 1.40989
10.5164 9.26397 1.27426
-11.4881 2.94171 1.09065
-7.65734 -7.13213 0.940392
11.5107 8.88171 1.39235
9.06309 12.8161 1.50749
7.05335 12.9784 1.44788
8.27139 12.8603 1.53356
-6.77228 -6.74854 0.950615
7.83781 -6.51497 0.997565
9.5336 11.9411 1.53159
9.8074 10.0183 1.44813
-6.90789 -5.42266 0.914254
9.50007 9.04625 1.39865
8.07101 10.973 1.42798
6.62685 12.8494 1.54041
9.48249 8.2745 1.3323
9.05926 10.09 1.47733
5.57211 12.2739 1.45917
-6.41571 -7.55589 1.0714
6.57375 11.1883 1.4278
5.12408 12.8388 1.52502
-6.84893 -3.9945 0.875991
-6.72222 -6.10095 1.0005
3.91254 -7.75399 0.961518
5.43053 -6.08407 0.916271
9.25839 7.45322 1.33598
8.94678 9.52126 1.47344
7.79539 11.103 1.51659
6.66763 10.5226 1.42061
-6.90302 -4.58515 0.940276
4.6964 -7.66259 1.03846
-10.7496 7.20632 1.50329
-7.11381 -2.1403 0.865056
8.92828 6.03133 1.28199
5.7744 11.7852 1.55094
4.87567 11.2752 1.44874
4.76656 -5.85466 0.8886
4.10347 -7.86768 1.07901
8.27752 3.83396 1.14351
10.8596 5.41661 1.4916
4.45085 12.383 1.63767
-6.17804 -5.40528 1.00721
-9.19331 1.31048 1.15825
8.16479 7.46752 1.40044
-6.45865 -5.33785 1.0602
7.69695 8.08413 1.43511
-6.90973 -3.58483 1.00843
4.96028 -5.95705 1.00078
5.01624 -5.41947 0.962858
8.31329 6.83972 1.4261
7.84934 7.76155 1.46872
-7.22937 -1.73016 1.00221
-7.05535 -2.21706 0.991601
-6.50672 -4.38716 1.04298
4.82266 -6.07905 1.0326
8.30272 6.29251 1.41704
-6.87296 -4.23227 1.08808
-6.06659 -4.45766 1.01294
4.94293 -5.52994 1.01846
7.39168 -3.51082 1.13893
8.29683 4.21227 1.32167
8.25815 4.53788 1.33709
-6.96309 -2.91685 1.08002
7.45842 -3.7225 1.19027
7.00072 -3.04809 1.07708
4.93351 -5.78001 1.09693
8.16336 -1.72733 1.2084
-6.98245 -3.26867 1.14405
7.31976 5.51557 1.37656
5.68025 7.3336 1.401
7.92483 3.88321 1.34848
7.84486 4.1603 1.35008
5.35893 7.69497 1.42556
4.99837 8.53791 1.49464
3.42356 9.36413 1.50378
-7.03203 -2.83633 1.15659
7.65793 -2.78588 1.24821
7.82072 -2.22874 1.25496
7.77069 -2.01033 1.24023
7.40481 4.17069 1.37036
7.00805 4.71228 1.38769
6.68323 4.87098 1.37508
5.32182 6.37722 1.38214
-7.2337 -1.36606 1.21964
4.92403 7.23108 1.45991
4.65919 7.13088 1.42974
-7.24976 -0.807562 1.22223
2.86823 -5.93439 1.1111
6.64862 4.05707 1.33072
6.44745 5.17906 1.40437
3.7713 7.80448 1.45447
-6.39906 -2.3079 1.15479
-6.30411 -2.69002 1.16956
3.77352 -5.24185 1.09961
-6.99917 -1.80238 1.26371
4.23546 -4.64232 1.10431
6.62032 3.48609 1.35118
5.00916 5.54053 1.36494
3.63355 -5.36248 1.17957
3.31164 6.64016 1.38304
6.45652 3.02968 1.35488
6.39215 2.69907 1.32467
-1.64853 -5.70599 1.1405
-2.17103 -5.76382 1.20117
6.22145 2.36526 1.33034
