ply
format ascii 1.0 
element vertex 1872
comment /media/mkaihara/Seagate Backup Plus Drive/model_iterations/model_92.ply
property float32 x 
property float32 y 
property float32 z 
end_header 
-27.569 -25.5626 -7.77093
3.02339 -9.4615 -2.06486
-29.1366 -30.7244 -8.72375
-20.1322 -31.435 -7.68593
3.84728 -9.31376 -2.07955
3.73222 -8.72431 -1.94774
-15.8659 18.7622 -5.03037
-25.8637 -68.5527 -15.0368
3.98218 -8.76841 -1.96947
-14.0416 3.07184 -2.93686
-33.9557 -23.9978 -8.47874
-28.9848 -80.0619 -17.3292
-11.5235 -37.1065 -7.90062
43.3518 -9.46766 -9.01436
14.8525 7.58783 -3.34137
-17.9633 -23.7963 -5.99093
12.2948 -10.0473 -3.1934
-19.522 -55.8445 -11.805
4.16981 -10.7284 -2.29605
-12.2229 17.5277 -4.24601
-26.5913 20.9234 -6.70773
-35.8949 -21.2493 -8.29237
-32.6105 -25.4679 -8.19992
-9.43154 -36.5601 -7.51671
14.4638 -11.4033 -3.6497
4.02153 -9.80457 -2.08928
3.21893 -9.8398 -2.02985
-36.2651 23.9624 -8.44759
-23.947 -57.6596 -12.0658
-16.4239 -47.422 -9.56943
3.48256 -8.89147 -1.82897
-20.5485 -33.2796 -7.42514
-32.402 -25.2876 -7.74964
-29.3944 -26.1013 -7.39943
-22.6528 -55.976 -11.4224
3.87714 -9.07092 -1.87899
-17.1449 -46.761 -9.31946
3.43625 -9.20616 -1.8145
-32.8744 -24.537 -7.4674
-31.6862 -27.1684 -7.60661
-33.5647 23.6306 -7.40002
-20.8183 -51.506 -9.91093
-31.6478 -25.4939 -7.14735
-25.2486 -65.3724 -12.3432
-34.8507 23.1924 -7.33041
-17.0553 -48.0947 -8.94613
3.39747 -9.55044 -1.77196
14.018 7.77987 -2.77974
-29.2344 -25.6228 -6.76066
3.46723 -9.4962 -1.75337
4.79063 -8.64357 -1.71275
-27.2884 21.4243 -5.99592
-31.2486 22.7276 -6.66496
-31.4612 -28.978 -7.38004
3.87968 -9.98418 -1.84846
13.8712 7.47769 -2.7072
-24.3505 -55.9496 -10.3758
-20.9577 19.9405 -4.88197
-31.9043 -25.3584 -6.91045
-20.3142 -50.3642 -9.20717
5.58853 -11.7101 -2.19126
41.7852 -11.8014 -7.36175
-18.714 -49.9438 -8.97824
40.9338 -10.6503 -7.11563
4.98586 -10.6994 -1.96535
-10.5094 16.7093 -3.20359
-30.6901 -23.7571 -6.32435
42.1602 -11.3221 -7.10479
-22.4578 20.4008 -4.92183
-21.0386 -52.0489 -8.91465
-23.261 20.4522 -4.88599
-24.5007 20.8863 -5.00953
-33.4877 23.5892 -6.33796
3.80405 -10.0767 -1.65544
-32.5014 -25.1303 -6.27945
-14.1311 -42.6303 -6.89796
-31.6107 23.0047 -5.9436
-23.4821 -56.5142 -9.31867
-7.77036 15.7353 -2.64717
-33.7584 -23.724 -6.21622
-33.0214 -24.2767 -6.20988
-28.1225 -26.3863 -5.80315
-33.6201 -24.1975 -6.21259
-31.7621 -25.425 -6.08156
-35.2358 -23.5348 -6.28969
-25.2192 21.1703 -4.85449
-33.5474 -25.1045 -6.17461
-32.4971 -24.6091 -6.01941
-25.8988 21.3415 -4.90991
-12.8284 -42.5099 -6.50797
-12.7754 17.4759 -3.11926
-7.78297 15.5719 -2.48348
3.50015 -9.53755 -1.44576
38.0929 -12.5281 -5.70419
-33.8876 -24.9626 -5.95375
-30.9808 -24.6223 -5.5692
-30.4634 -25.6937 -5.61159
-21.1063 -50.8554 -7.6722
-6.944 15.3875 -2.29287
-14.1822 18.1199 -3.12203
-12.0183 -42.0685 -5.9569
-7.52676 15.2553 -2.28525
-25.1931 -65.5818 -9.50417
-22.7103 20.6531 -4.08862
-25.4271 -57.6325 -8.36936
-31.7184 -24.485 -5.28892
44.8999 -10.3463 -6.06004
44.2839 -9.73496 -5.97363
-13.7775 -42.8162 -5.9107
6.60967 -10.8932 -1.67608
-15.2117 18.6321 -3.13096
-23.1199 20.3631 -3.99422
-33.0435 -24.6684 -5.30852
10.6684 8.74992 -1.78061
-34.1935 23.5109 -5.32812
-30.1617 22.9516 -4.77803
-31.3278 -24.5272 -5.01923
-13.0212 -37.0462 -4.96491
9.63605 -9.01853 -1.64713
12.731 -10.4045 -2.07025
-34.3291 24.0821 -5.24376
-36.5437 -22.7667 -5.36214
-30.9961 -25.6197 -4.99665
6.75277 -10.2699 -1.53422
-33.3449 -23.5692 -5.05987
-13.9511 -43.5245 -5.62141
13.1196 -10.937 -2.09705
41.4004 -10.76 -5.28239
-16.3977 18.8775 -3.05688
-16.2417 -39.3671 -5.20562
-8.8717 15.8608 -2.2142
43.2435 -9.96137 -5.37391
14.9218 7.78956 -2.02135
9.38261 -8.90282 -1.54427
-34.1635 -23.8363 -4.93952
-18.1031 19.6754 -3.12895
-20.9426 9.26764 -2.71377
-32.1356 -24.8789 -4.79304
11.2401 -9.66921 -1.73623
41.7439 -11.175 -5.08892
14.6243 -11.3551 -2.12851
14.8497 7.63301 -1.89792
-30.3875 23.1095 -4.35538
7.23597 -10.9881 -1.49333
-10.3985 16.6025 -2.19465
9.41227 -9.27919 -1.47154
12.7101 -10.4392 -1.83434
13.8959 -10.9679 -1.96954
9.41665 -9.0811 -1.45217
7.02997 -10.4106 -1.37633
44.2061 -9.65472 -4.92571
-11.0539 16.6049 -2.15165
-33.7098 23.7703 -4.47978
11.6581 -9.79465 -1.64444
6.14551 -12.6378 -1.47861
7.52228 -11.5146 -1.43161
9.80864 -8.87005 -1.39156
-15.7516 -45.517 -5.0497
16.4532 -12.1843 -2.14769
-31.5044 -63.2936 -7.3337
14.7933 7.44909 -1.69247
-31.4241 -25.0438 -4.12755
13.7512 -10.8802 -1.79744
-32.1972 -24.9054 -4.11861
14.7796 7.722 -1.67504
-12.8392 17.1702 -2.10732
-20.95 -53.1168 -5.53305
-33.8283 -68.3366 -7.30024
-23.738 20.7652 -2.97997
-31.2858 -25.6296 -3.84453
-31.2665 -25.9715 -3.87399
-22.3587 -58.5057 -5.90579
-14.2733 18.2643 -2.17021
-31.5444 -24.6788 -3.73788
-16.0599 -43.743 -4.34102
-14.2615 -44.3265 -4.3435
9.77812 -9.06314 -1.23912
-34.3503 -66.9123 -6.92972
8.53097 -8.62786 -1.10189
16.3871 -12.2099 -1.87008
-15.1855 18.6281 -2.1565
-36.2258 -22.5317 -3.86064
-33.6571 23.7632 -3.62898
-31.3426 -25.2861 -3.55889
13.9581 -11.1016 -1.58359
-32.4452 -19.7716 -3.24188
10.9969 -9.65071 -1.24611
-27.0529 21.9439 -2.92597
-11.5746 -36.0245 -3.19782
9.35902 -8.97376 -1.08888
-34.3901 23.6443 -3.4677
8.65298 -8.65456 -1.00544
16.6478 -12.1413 -1.68362
-17.0926 -44.4147 -3.82497
-21.9612 -50.2366 -4.29204
-15.577 -38.4552 -3.28894
-13.574 -38.0855 -3.21254
9.16346 -8.90507 -1.00414
11.2298 -9.73484 -1.16542
14.7673 -11.5505 -1.48469
-30.3998 23.1822 -2.9751
-29.4782 -13.7598 -2.52729
11.7956 -9.99302 -1.19858
-23.7883 -52.979 -4.44844
12.7036 -10.5444 -1.2511
-42.6484 -80.9119 -6.62004
9.90476 -9.09043 -0.97457
10.8535 -9.68799 -1.01427
-33.5571 -20.8321 -2.73247
11.8889 -9.99195 -1.07559
14.6156 -11.5076 -1.29326
-15.8433 -40.0333 -2.93041
-15.4589 -40.8958 -2.9974
18.4259 -13.3163 -1.50971
-23.6338 20.6927 -2.08486
-25.5996 -59.0532 -4.25672
12.7988 -10.5284 -1.10823
-14.9781 -41.554 -2.87095
15.1723 -11.4557 -1.23574
-33.5219 -67.8708 -4.75447
-15.4062 -47.7524 -3.11835
-33.367 23.5714 -2.50015
-33.9637 -67.1645 -4.58167
-17.364 -42.2971 -2.78831
30.5354 -20.2448 -2.23103
41.5104 -10.8249 -2.60493
36.1053 -8.70492 -2.25069
-15.4836 -41.5702 -2.68059
-27.3869 22.2268 -1.99961
-29.2065 -14.3791 -1.88119
-16.2033 -42.212 -2.52241
16.7723 -12.515 -1.17271
-27.3627 -16.4659 -1.71916
42.0864 -9.37467 -2.21797
-9.43154 -12.602 -0.799115
-15.7847 -42.0078 -2.23572
5.67427 -12.384 -0.67704
-14.3969 18.2508 -1.13361
-15.5649 -48.9223 -2.5219
14.795 7.76187 -0.804686
-16.7185 -42.8532 -2.18668
-15.0134 -48.8283 -2.41096
18.57 -13.1755 -1.09163
-17.7395 -51.4454 -2.53904
36.3871 -8.93685 -1.7561
-29.1066 -14.8836 -1.46275
-25.1533 -57.6357 -2.78943
-16.9188 -41.6281 -2.0008
9.6165 -9.07451 -0.589647
12.533 -10.2867 -0.727934
43.6847 -9.99553 -1.99342
-14.4238 -43.874 -1.9663
-33.2902 23.5332 -1.69738
-54.7734 29.7471 -2.48553
-34.3548 23.6425 -1.52971
-19.4163 -50.7754 -2.04093
-34.9837 -22.0299 -1.4778
9.70339 -9.03028 -0.487472
6.57556 -10.7824 -0.438358
-13.3791 -39.8844 -1.39304
7.41234 -13.0105 -0.5116
18.4662 -13.0791 -0.76461
-27.5222 -60.2781 -2.18257
-13.6596 -38.7522 -1.3318
20.8094 24.0004 -1.01949
-23.4552 20.8229 -0.987423
-21.5031 -55.0597 -1.83367
20.8467 -14.216 -0.767365
-27.84 -14.3267 -0.949033
-13.3695 -42.7874 -1.33331
-24.4332 20.7608 -0.920479
-24.4464 -56.2608 -1.74556
-18.07 -48.9061 -1.50457
-34.8342 -21.2246 -1.12823
-9.8275 -12.8936 -0.463069
-23.6239 -55.7115 -1.70869
17.8907 -13.3282 -0.568142
29.5183 49.2599 -1.48683
-30.5596 23.3165 -0.987696
-31.7376 23.2135 -0.971889
-27.4439 -13.1866 -0.746069
9.52492 -8.96331 -0.316663
-21.1755 -34.1074 -0.936404
-40.7762 14.1442 -0.943045
21.0452 -14.0815 -0.537907
18.2952 -13.1898 -0.423369
12.7426 -10.4684 -0.274873
-33.5042 10.5955 -0.580315
-28.5211 -13.5817 -0.500015
-37.5011 -21.3564 -0.655544
-18.5849 -45.5595 -0.761776
-8.03261 16.8927 -0.253997
-32.9157 -24.589 -0.569705
-34.2836 -23.3714 -0.531051
17.1706 -12.8108 -0.260083
18.0851 -13.0211 -0.28277
28.6163 -17.6456 -0.448979
-22.1194 -56.6522 -0.738501
-30.7472 23.4418 -0.411757
-28.6554 -61.1443 -0.719678
-19.068 -43.735 -0.511238
-54.441 29.8353 -0.51558
-34.728 -61.2616 -0.649546
-20.6792 -54.2334 -0.552036
37.0713 -8.95594 -0.350825
-14.5095 18.4161 -0.164342
-36.9474 -82.2783 -0.618334
-18.3672 -44.549 -0.328686
9.53214 -8.96941 -0.0408229
14.6936 7.73515 -0.0280818
-29.6572 -13.2301 -0.058636
-11.7518 -17.1101 0.0251648
-12.9731 -19.5265 0.044478
-19.1322 -43.9176 0.197138
9.39922 -8.94877 0.0590908
-33.3189 23.5798 0.212859
-22.5179 -56.8477 0.295195
-30.4709 -14.1421 0.201827
16.7048 -12.1884 0.11546
-13.2301 -20.2852 0.157842
14.608 -11.3792 0.145593
-54.108 19.3859 0.509599
7.03886 -12.0942 0.117389
15.8755 -11.7639 0.167601
-36.8998 -22.3291 0.45247
37.7472 -7.75828 0.401011
-35.7199 -22.3848 0.48019
-12.8254 -35.4231 0.439043
-13.3091 -35.7892 0.462049
-11.4186 -32.8801 0.422939
-9.81026 -30.3533 0.385514
24.8775 50.3723 0.732736
9.54394 -8.97683 0.169326
-12.905 -19.9973 0.323849
-11.1131 -33.7346 0.485885
8.53246 -8.47626 0.18228
6.24034 -12.7665 0.206876
7.10893 -10.9544 0.199273
9.30107 -9.01667 0.187032
7.99362 -9.07005 0.193292
9.67861 -8.96169 0.21721
37.2342 -7.97731 0.624559
-24.2981 20.8369 0.574122
-33.6102 -22.613 0.697013
-34.9572 -25.6478 0.759237
12.8291 -10.5391 0.271938
13.1368 -10.5958 0.316182
-9.95403 -12.6207 0.303404
6.78669 -11.1226 0.25401
7.94874 -9.34178 0.24113
25.3838 52.2267 1.16473
6.9356 -10.9015 0.259701
9.13655 -8.64479 0.267169
11.458 -9.84835 0.331009
17.1238 -7.64847 0.377449
7.16869 -10.8765 0.29477
-12.9115 -19.8207 0.564874
7.60961 -9.2645 0.273046
7.79219 -9.31856 0.281959
-26.1232 21.956 0.887244
-29.1961 -9.36266 0.769606
9.57205 -8.9062 0.336289
17.3319 -12.6612 0.541005
18.1522 -13.0706 0.556174
-23.3849 20.4738 0.810573
-28.2645 22.3378 0.941344
-29.2078 -8.76624 0.798569
-33.5402 -17.8837 1.03236
-13.4826 -20.3593 0.648777
14.6422 -11.3768 0.494663
22.5354 -3.27883 0.640797
-12.3041 -19.1856 0.659143
24.7292 -4.68465 0.732484
16.003 24.8347 0.88596
-28.3564 -20.8897 1.04209
7.1791 -11.2455 0.400554
6.92411 -10.633 0.386425
14.4252 23.4988 0.847019
-7.63854 -8.82648 0.356959
12.9366 -10.5854 0.51036
-7.33602 -9.53467 0.368461
-28.8287 -8.13706 0.997104
-11.984 -17.5181 0.710572
7.83107 -9.30171 0.402302
15.9746 10.9141 0.693104
10.7925 -9.39745 0.519827
11.8131 -9.98089 0.563467
21.9028 44.1052 1.85015
-7.46317 -8.14802 0.413041
9.59891 -8.91055 0.488932
22.6025 -3.17338 0.876189
25.4451 52.599 2.26326
-7.46636 -9.91015 0.485317
10.3677 -9.45581 0.550422
12.6356 -10.4358 0.66208
21.3773 -2.61998 0.87804
-29.4742 -17.8814 1.40963
8.69496 -8.65584 0.507046
-6.9365 -8.48151 0.471007
9.38627 -8.8791 0.540139
12.5063 14.3565 0.841159
-29.174 -8.56207 1.33638
14.4707 18.8482 1.06829
14.6648 25.2496 1.30151
20.8172 40.9352 2.03167
6.11225 -13.6181 0.665653
10.7765 -9.45422 0.64833
18.3409 -1.62769 0.842395
18.7857 35.7686 1.89544
14.5985 25.7214 1.38717
-11.2405 2.78805 0.558101
-7.26124 -9.5712 0.579373
9.1184 -8.93725 0.604702
11.3275 -8.69062 0.668581
19.9394 -2.28495 0.966803
11.5011 11.7211 0.815734
15.438 37.1268 1.97717
7.71876 -9.40743 0.59897
10.1242 -9.2208 0.678124
14.2385 24.1444 1.40397
19.3837 37.5885 2.14721
20.8164 -2.59313 1.06666
-7.4216 -8.52646 0.586509
9.33439 -8.88736 0.671133
16.3386 23.9594 1.52382
16.0447 29.087 1.73421
12.9084 -10.6399 0.888805
10.43 12.1926 0.858386
13.966 18.9576 1.2652
11.0044 -9.54195 0.787583
14.7399 19.2047 1.33541
-26.7507 20.506 1.84308
-6.982 -8.19136 0.595505
10.1277 12.2443 0.890103
-7.28044 -9.39858 0.665881
9.86668 12.2912 0.914329
-28.2213 19.8687 1.96097
6.05184 -12.781 0.809742
11.0522 11.9476 0.935675
-6.89363 -6.80348 0.56184
11.1417 11.8809 0.959272
-6.82276 -8.43081 0.649167
6.19809 -12.459 0.813188
14.3791 19.1315 1.43934
13.8094 22.5781 1.57909
12.9621 29.9561 1.95918
-6.18492 6.5875 0.555363
-8.18798 -7.75843 0.68239
-7.13246 -8.18224 0.6667
5.67379 -12.3392 0.821358
-7.49615 -6.9016 0.634014
6.95815 -11.0862 0.809402
6.94466 -10.4955 0.785538
11.2649 -9.72391 0.919079
12.0437 -10.075 0.97307
16.073 7.11839 1.12016
14.6255 18.9464 1.51453
-7.25025 -6.31864 0.62391
10.2036 -9.31914 0.891843
-7.39227 -6.27133 0.636045
11.3418 11.9679 1.12362
9.30686 20.9515 1.56115
-7.29308 -9.68083 0.809814
11.4952 12.4675 1.16349
-6.9656 -4.46388 0.569259
-6.76728 -8.21914 0.726138
-6.70884 -4.43977 0.555098
9.22492 -8.81959 0.888523
9.94987 -7.80632 0.89088
12.5184 15.7776 1.45639
9.7625 -8.24395 0.934369
11.2701 16.8515 1.52418
11.1887 17.8379 1.57305
9.40327 17.8972 1.52463
8.8122 19.0442 1.57827
7.12149 21.2247 1.68293
10.5634 18.233 1.60541
9.96833 -7.56306 0.956752
-7.04239 -7.2038 0.772068
-17.2958 -6.27333 1.43887
9.43089 -7.64563 0.951748
9.13947 18.2541 1.61124
-6.38856 -4.26576 0.609226
-6.84566 -8.2391 0.84928
4.8303 -5.728 0.595745
8.81033 19.383 1.68872
7.58043 18.534 1.60999
5.02289 -5.78904 0.617529
12.6403 11.406 1.3797
11.6473 11.6996 1.3519
6.69976 -9.34649 0.93483
12.1009 11.5742 1.37653
6.49821 19.0758 1.64941
-6.36471 -4.3937 0.630513
-7.18289 -9.50656 0.977999
11.4154 11.9595 1.36801
10.3795 9.08023 1.17437
-5.05891 -11.5419 1.06446
6.11563 -6.03584 0.750058
9.18038 -7.15179 1.00092
-6.80775 -6.70525 0.81196
10.3077 12.2155 1.39535
8.76308 -7.30187 0.991567
10.7036 12.0658 1.41166
-7.32664 -7.78251 0.937172
8.16131 -7.26561 0.970189
10.0847 12.3264 1.43179
-7.08744 -7.75918 0.93189
-6.955 -8.36078 0.976123
10.4746 12.1759 1.45851
10.365 13.3703 1.53276
-7.13466 -8.34902 1.0005
11.1054 10.7269 1.42025
-6.32257 -4.23661 0.700059
-6.87861 -8.61524 1.00874
-6.33658 -4.40007 0.711329
10.9931 8.48367 1.30314
10.5472 9.24613 1.30787
6.36588 15.1218 1.54306
10.3976 11.1858 1.44516
-11.2866 2.89221 1.10142
6.1472 -5.95528 0.815983
7.98048 -6.61585 0.995692
10.6475 9.11778 1.3609
9.41242 12.3848 1.50624
9.59683 12.3157 1.53829
7.56887 12.1046 1.41813
7.80249 13.0433 1.51288
11.1372 7.99765 1.39745
7.04127 12.5296 1.45048
8.96195 11.2311 1.46203
6.89153 13.3417 1.53675
5.76667 13.7023 1.52605
9.10628 10.3815 1.42731
8.92448 12.1582 1.56703
11.3029 7.60065 1.42096
9.16489 9.91145 1.40555
4.9691 -5.81469 0.821151
-6.85712 -4.66372 0.87501
5.47825 13.6482 1.56084
-7.07117 -4.5144 0.894937
8.83682 10.5883 1.48079
-6.77968 -6.78938 1.0265
5.90124 -5.82471 0.895674
9.61381 8.46438 1.38071
8.88258 9.27752 1.3815
9.1681 10.2202 1.48863
4.69042 13.5933 1.55175
4.22788 -8.04073 0.984139
6.39098 10.692 1.37071
-6.81223 -3.93115 0.86602
6.26387 11.7447 1.4768
-6.90652 -3.86941 0.877317
9.6444 7.15602 1.34301
6.58896 11.2451 1.4515
9.73988 6.98334 1.34642
5.3603 11.4268 1.42704
5.36126 11.9209 1.47623
4.62911 12.0463 1.46002
9.77171 6.64158 1.34659
-6.90359 -4.57141 0.948548
7.39009 -6.21608 1.10076
-7.34715 -0.787206 0.847694
-6.2847 -5.39901 0.95447
5.24534 -5.56398 0.882364
8.81178 7.83382 1.37367
4.41379 -7.17617 0.976023
10.3568 5.12727 1.3534
8.8958 7.73883 1.38606
5.19688 -5.60773 0.903286
8.54082 7.86168 1.37743
8.82959 8.98257 1.47367
-7.06152 -5.66209 1.07122
10.089 4.72414 1.32734
-6.93039 -3.85832 0.956057
9.08822 6.10943 1.32821
5.14193 11.2707 1.50162
-6.90485 -3.07074 0.918562
-6.88912 -3.25702 0.921871
4.8782 -5.9492 0.93906
5.9662 -6.12114 1.04076
9.32282 5.59194 1.34392
8.40775 7.17799 1.36687
-6.96254 -4.31807 1.00956
-6.89379 -4.5429 1.01786
8.1954 8.51946 1.46663
4.96509 11.1659 1.51724
-6.56201 -5.62787 1.07612
3.70561 -7.56797 1.05016
8.44474 7.68953 1.42913
6.07085 -5.6109 1.03646
9.11535 6.02702 1.38485
-6.14439 -5.42177 1.03429
8.49838 6.57437 1.37025
8.03418 7.45938 1.39461
-7.1142 -1.78623 0.938633
-7.026 -2.31012 0.944996
-6.4565 -5.32785 1.06831
8.78216 5.63031 1.33739
8.09668 7.98791 1.46593
-7.27817 -1.25575 0.947544
-6.90976 -4.12604 1.04082
7.38976 6.186 1.2482
8.02766 6.99673 1.38085
7.91126 8.06648 1.4641
-6.922 -2.83098 0.974042
-6.92327 -2.97109 0.974414
4.49887 9.96256 1.43642
8.95741 4.09248 1.29628
-7.26157 -1.60922 0.977923
6.8302 -4.25332 1.06939
4.92588 -5.9408 1.0232
-7.34791 -1.11939 0.995412
-7.02642 -2.20316 0.985489
-7.06366 -2.27256 0.991782
-6.00276 -4.40398 0.995317
5.18315 -6.55816 1.11408
6.90068 -4.1702 1.08549
8.02118 7.12375 1.45333
-7.16443 -1.72136 0.991073
-7.09518 -1.95917 0.990469
8.75112 4.83133 1.35769
8.28638 5.841 1.37842
-6.93273 -3.62516 1.06644
8.82735 4.14291 1.33751
3.29635 10.3595 1.48795
-7.32715 -1.20228 1.01693
-6.01806 -4.44734 1.02952
-5.99854 -4.54629 1.03076
7.13737 -3.92833 1.11978
8.02421 6.44751 1.42363
5.30579 8.96766 1.44276
-6.39166 -4.32785 1.05858
4.93141 -5.52413 1.02871
7.17486 -3.82416 1.13156
7.54719 -3.68026 1.16184
3.57196 9.90886 1.46639
3.38523 10.1855 1.49607
-7.38397 -1.08428 1.04244
-7.08592 -2.00725 1.0268
4.97096 -5.2862 1.0144
7.2363 -3.73223 1.14388
7.35211 -3.6668 1.16527
7.85877 -3.35067 1.21454
-7.16736 -1.87802 1.05424
-7.01954 -2.95066 1.10392
-6.01586 -4.37921 1.07056
7.89316 -2.77805 1.22431
8.19641 4.60037 1.37711
4.94941 8.47862 1.43878
8.3335 4.48763 1.39888
7.81889 -2.33731 1.203
7.11065 5.66043 1.36101
2.92296 9.32915 1.46136
-7.10585 -2.02291 1.10781
7.47453 -3.10582 1.22023
8.19336 4.52809 1.41902
5.74744 7.39154 1.42172
5.25365 7.57916 1.40517
5.08824 7.88322 1.42509
5.04107 7.98954 1.42969
7.32556 -3.16625 1.21892
7.66946 -2.75257 1.24087
-6.76666 -1.6854 1.05091
7.82083 -2.2537 1.24813
7.20179 5.40125 1.38232
-7.11545 -1.95569 1.14567
-6.93071 -2.79024 1.16173
6.78318 5.50195 1.36997
-7.36963 -1.09785 1.16439
-7.15653 -1.82727 1.15733
-7.05812 -2.07091 1.15306
-7.13305 -1.87566 1.15798
-6.9057 -2.93879 1.17867
4.77715 7.40712 1.40164
3.44699 -6.03313 1.10951
-7.28935 -1.30184 1.18679
3.52903 -5.70919 1.08124
3.56599 -5.61467 1.07065
7.05103 4.75285 1.38564
4.63187 7.3308 1.41118
-7.08295 -2.02689 1.20123
-7.10515 -1.95024 1.2096
6.94663 4.81362 1.39772
3.78891 7.87103 1.44606
6.05094 -3.31802 1.14956
6.61549 4.85989 1.36868
4.6352 7.12412 1.41766
3.83728 -5.30173 1.09996
7.08829 4.41392 1.40601
7.46184 2.85326 1.35011
6.30166 5.26791 1.39207
-7.29299 -1.25812 1.2609
6.73868 4.07417 1.35237
-6.45941 -2.77564 1.20013
5.50866 -3.62913 1.13316
5.6896 -3.51784 1.14848
2.7313 7.78331 1.42575
-7.38739 -1.04162 1.29405
5.33322 -3.783 1.13978
-6.31923 -2.26264 1.16446
-6.2794 -2.41983 1.17887
4.28184 -4.66541 1.10732
4.49454 -4.47768 1.11286
4.59208 -4.44937 1.12171
-6.81217 -1.7354 1.23894
4.31207 6.46923 1.38678
-7.17352 -0.930077 1.29366
-6.15173 -2.26054 1.16797
6.62728 3.68517 1.35934
6.08661 4.35223 1.35722
3.60998 -5.3293 1.17056
5.13061 5.66631 1.3981
2.49687 7.14449 1.42132
6.47544 3.04764 1.35317
-1.70559 -5.78007 1.14097
6.42359 -1.38536 1.24678
6.26505 2.7743 1.31917
6.21137 2.37881 1.327
-4.47279 3.95823 1.40525
4.31767 3.52826 1.33358
4.20405 3.28668 1.32097
4.6649 -1.67763 1.24473
4.81799 -1.38073 1.25374
-2.15988 4.84106 1.32564
3.72885 -2.95439 1.22291
3.6749 -2.55075 1.19411
3.40883 -2.96359 1.22649
3.99734 2.56493 1.32713
-2.59277 -3.53204 1.25059
-2.32403 -3.56769 1.21577
3.74918 2.05464 1.29965
3.72606 1.97721 1.29915
-2.85516 3.50181 1.39496
-2.29424 -2.4172 1.18689
1.9589 -2.78583 1.21473
-2.1306 2.77756 1.33087
-2.03513 2.76552 1.33702
2.25374 -1.87204 1.2267
2.3828 -1.4998 1.22347
-2.01965 1.88127 1.30007
-2.06251 -1.44178 1.22813
1.45256 -2.07393 1.24767
-1.99065 -1.0869 1.21433
-1.92344 -0.707169 1.2201
-1.92521 -0.702975 1.24571
-1.95476 -0.34415 1.22937
-1.89155 -0.564311 1.23011
-1.89119 -0.530545 1.23523
8.20366 -8.68228 -7.45084
12.0739 -10.2435 -8.76306
-8.88205 15.8579 -7.05449
20.2538 24.6626 -11.4623
-8.82676 -2.52782 -2.58724
-34.9989 -23.3794 -7.77467
-34.5802 -22.6145 -6.09615
-34.3118 -23.3177 -6.16035
-31.6005 -20.2665 -2.82295
9.25439 -8.81456 -0.390602
-7.8652 16.9535 -0.461064
-29.7665 -11.5186 0.735563
-6.93634 -8.2901 0.46181
16.3921 23.5382 1.55857
11.2426 15.8111 1.6047
-6.70753 -6.68051 0.885396
4.16192 12.0761 1.47173
8.6658 9.02665 1.46363
7.96392 -8.75486 -10.3689
8.82169 -8.52982 -10.4854
6.94958 -11.9254 -11.5029
6.86546 -11.3392 -10.8854
8.14374 -8.25602 -9.52278
7.01534 -12.0185 -11.3165
7.05886 -10.9623 -10.4462
7.99355 -8.3688 -9.19422
6.72082 -11.2741 -10.2794
6.43893 -11.6865 -10.204
7.74938 -8.84168 -8.96325
6.19907 -14.3031 -11.7974
8.28894 -8.69096 -9.09106
6.29382 -11.8986 -10.1666
6.14199 -12.0782 -10.1047
7.48281 -9.43492 -8.99149
7.90132 -9.04695 -8.91798
10.4467 -9.43124 -10.4679
6.11558 -14.105 -11.364
6.09817 -13.6628 -11.0009
6.12566 -12.5664 -10.2829
9.18192 -8.81194 -9.33608
9.26958 -9.05825 -9.45316
5.85962 -12.4951 -10.026
9.34542 -8.97514 -9.24752
6.85313 -11.1127 -9.26635
5.61081 -12.9603 -9.99621
9.67367 -9.0641 -9.39524
7.60072 -9.3342 -8.46361
9.97775 -9.16892 -9.5203
10.8953 -9.47454 -10.1318
11.4142 -9.67625 -10.0498
8.37495 -8.59814 -7.94684
7.42262 -9.2887 -7.85652
8.15755 -8.70795 -7.88712
7.61927 -9.34141 -7.88699
7.8279 -9.39147 -7.83617
8.31069 -8.52535 -7.61118
0.362118 15.8806 -10.1343
7.519 -9.31355 -7.61765
10.8865 -9.58602 -9.22315
7.21603 -10.6877 -8.16223
8.14582 -8.48774 -7.41932
4.61045 -15.4003 -10.1106
8.70396 -8.69129 -7.61051
7.91249 -9.02248 -7.40254
4.04627 -18.0142 -11.3734
8.18845 -8.61789 -7.26772
4.08548 -17.3093 -10.8524
0.147889 14.8871 -9.05797
6.64609 -11.2489 -7.95517
7.73417 -9.25818 -7.31994
10.1033 -9.29199 -8.32941
6.81226 -11.2382 -7.88977
8.05072 -9.19346 -7.33566
11.2408 -9.67274 -8.86674
5.39555 -13.8452 -8.81339
7.7261 -9.25574 -7.15032
9.33607 -9.01925 -7.69226
6.89346 -11.1017 -7.73467
7.97392 -9.11735 -7.10747
9.73477 -9.17068 -7.79455
14.7871 7.38879 -9.59927
8.65461 -8.81821 -7.1398
6.92427 -10.9514 -7.4469
2.63807 -11.2056 -6.62111
7.85046 -9.06092 -6.86656
9.58706 -9.12306 -7.51793
10.7697 -9.47508 -8.09235
3.28035 -20.6114 -11.7372
6.79331 -10.9703 -7.23412
10.0854 -9.27235 -7.67261
12.3019 -10.3225 -9.0062
9.22504 -8.99267 -7.19909
4.61035 -14.2782 -8.36534
7.99293 -9.2039 -6.77049
14.7089 7.51979 -9.0683
9.67903 -9.08986 -7.29269
0.83873 17.4603 -9.54488
2.74282 -19.8734 -10.9393
11.1038 -9.62234 -7.97797
4.22644 -14.4005 -8.12456
14.6227 7.64677 -8.88725
14.9998 10.3559 -9.78524
13.9615 7.70208 -8.51877
10.924 -9.59463 -7.73197
13.2186 -10.7646 -9.06881
3.04526 -19.3484 -10.2968
11.3263 -9.79958 -7.62115
2.16906 -20.3973 -10.3532
10.2363 -9.31958 -6.96148
14.2171 -11.2453 -9.10172
13.7531 -11.1241 -8.85586
10.9783 -9.62926 -7.27568
7.49692 -9.32346 -5.92496
3.56124 -8.46395 -4.52554
-8.72474 -1.91563 -4.39197
2.22522 -20.1893 -9.96222
4.5295 -9.29462 -5.05681
0.405524 13.6516 -6.68497
7.59585 -9.25565 -5.843
-8.5787 16.3742 -8.9541
-9.22791 -2.4395 -4.59926
14.9305 -11.53 -9.066
19.2728 5.51427 -9.58589
-10.3485 -2.56212 -5.04268
1.90968 -20.5712 -9.8239
17.0785 16.0485 -11.098
7.56703 -11.1875 -6.3734
19.9185 5.37629 -9.7152
13.9763 -11.0655 -8.29025
2.92419 -17.3085 -8.16276
19.2497 5.69549 -9.27332
17.7493 -12.9353 -10.1457
9.84192 -2.4859 -4.69003
20.1713 5.11261 -9.60029
17.2016 16.1751 -10.8788
1.81108 -20.2501 -9.30465
9.6508 -9.02449 -6.05053
-9.23821 -1.67682 -4.2822
9.43156 -3.46071 -4.57552
6.69808 -11.2919 -5.97217
9.88901 -2.61199 -4.63915
19.1428 5.83717 -9.00918
17.5754 17.4323 -11.1265
9.34805 -3.07932 -4.43001
15.357 -11.8171 -8.69645
7.0205 -11.5351 -6.04039
7.13616 -10.894 -5.80528
9.53729 -3.39688 -4.51151
-10.1147 16.5805 -8.64796
17.5586 -12.8147 -9.66024
19.4275 5.59648 -8.96037
16.0233 7.2678 -7.79044
17.6797 17.8568 -11.1115
16.3462 -12.1571 -8.97914
-11.3961 17.331 -9.11833
-6.63274 15.1609 -7.25682
-5.26006 4.934 -3.14288
20.0201 5.43575 -9.01823
9.53626 -3.39717 -4.36876
18.066 18.31 -11.0538
15.7469 -12.1182 -8.55075
14.7916 7.39558 -7.05706
3.83417 -9.2917 -4.27086
-11.3161 17.2123 -8.72174
6.92881 -10.8824 -5.44028
-13.6619 3.34822 -5.92666
0.743358 -22.4379 -9.46064
15.7366 -11.9154 -8.25538
-5.1919 5.71757 -3.23185
0.999449 -22.3037 -9.35875
1.2314 -20.7984 -8.72854
14.1046 7.56454 -6.69348
18.3876 19.1615 -11.0943
3.779 -8.94617 -4.05007
14.7033 7.69394 -6.90679
17.7649 18.9724 -10.7844
-9.54308 -1.09526 -3.96538
4.00485 -8.49752 -3.84887
13.9716 7.71455 -6.55097
6.82828 -10.9621 -5.28041
-13.6986 2.559 -5.70105
-8.06975 15.6355 -7.15137
19.0717 20.7228 -11.4078
15.0041 7.20936 -6.70625
-5.33513 14.5739 -6.22353
13.8945 -10.9849 -6.93796
1.5278 19.1639 -7.46527
-8.86973 16.021 -7.11749
18.8913 5.76115 -7.65189
-1.76234 13.3664 -5.22245
5.28773 -9.38007 -4.15278
-2.39966 13.5956 -5.30317
19.3847 22.4236 -11.3637
4.65601 -8.50736 -3.68317
19.3143 5.54085 -7.6455
0.879369 -26.6761 -10.1426
14.8377 -11.434 -7.0501
19.8687 5.38278 -7.70385
9.42247 -3.43292 -3.7492
0.534765 -22.8153 -8.50402
3.242 -10.7736 -4.20361
19.9724 23.2353 -11.3765
0.910478 -8.73062 -3.25518
13.9696 -11.0633 -6.57131
20.2733 5.15628 -7.69093
17.7306 17.5195 -9.10751
-13.1075 2.29634 -4.83819
20.6054 24.6053 -11.6381
2.28264 -13.2363 -4.83931
12.9849 -10.5007 -6.00957
0.796236 15.4002 -5.51682
-8.21999 -2.8051 -3.10673
0.41037 -21.9582 -7.85021
-4.27042 14.02 -5.2142
0.638972 -22.0106 -7.82488
15.779 -11.9174 -7.00905
-15.9998 18.4975 -8.6204
5.91812 -11.3192 -4.49139
-11.2033 16.9077 -7.08535
0.0929121 -18.5942 -6.53585
14.205 -11.2579 -6.33819
20.2281 5.32724 -7.3008
0.658576 -23.1452 -7.99614
-5.08758 14.7729 -5.35469
3.63634 -8.44154 -3.16402
4.87082 -9.02271 -3.51378
-14.7541 18.318 -8.05216
2.27339 -10.8799 -3.8092
-9.03301 16.3877 -6.37993
3.01824 -13.6578 -4.7694
-15.2378 18.7034 -8.17965
20.047 5.45048 -6.98229
21.7587 26.9161 -11.5656
35.664 -20.1327 -13.6873
-5.38775 14.2933 -5.07452
1.90568 20.6258 -6.87163
1.26746 -10.2508 -3.41521
-5.33329 14.6888 -5.07686
-12.803 17.5282 -7.04265
18.4525 -13.149 -7.3587
3.55862 -8.67008 -3.00486
6.2084 -10.0946 -3.7982
2.31288 -11.0066 -3.57921
-4.63322 -34.7897 -11.1538
-1.15035 -24.0747 -7.67123
14.9315 10.2834 -5.72092
-13.4389 17.8836 -7.07196
-18.3199 19.7601 -8.47157
6.94432 -11.0672 -4.0397
1.38811 -21.9697 -6.80967
-2.60835 -27.7665 -8.55947
7.08854 32.7251 -10.2154
0.771176 14.9885 -4.55788
-11.3289 17.094 -6.18215
-2.74011 -26.8927 -8.13953
-14.5984 18.2531 -6.97501
-5.38032 -35.2679 -10.6214
0.841882 -25.227 -7.54659
-5.4837 15.0858 -4.77604
2.06989 20.5696 -6.08967
-21.668 20.2039 -8.74153
18.1182 5.7656 -5.59616
-4.36268 14.6583 -4.498
-8.06282 15.6438 -5.16466
4.25066 -9.1324 -2.9608
4.62752 -11.5956 -3.65087
-12.6825 2.23422 -3.70126
-33.8346 -47.9263 -16.8795
-15.4661 18.6062 -6.95628
6.93971 -11.053 -3.75764
2.56212 -9.5404 -2.80689
12.8886 -10.4325 -4.71918
-8.47101 -2.46531 -2.50168
20.804 26.8295 -9.61727
-8.59925 -2.26643 -2.51297
-2.59533 -26.4723 -7.46329
-13.0919 2.0062 -3.6885
4.3785 -11.3058 -3.36537
-9.47393 16.2938 -5.17566
-13.2885 17.7232 -6.08533
-5.48694 14.6469 -4.27633
-8.70868 -42.2836 -11.8101
-21.8673 20.4064 -8.04157
-9.90178 16.4202 -5.13975
-27.2184 20.9088 -9.13165
11.3659 11.4392 -4.25415
4.31743 -11.2712 -3.19778
46.4896 -13.5146 -12.8264
-8.41774 -39.719 -10.6698
4.08399 -8.6457 -2.51784
11.1374 -9.90625 -3.89954
-14.7104 18.4191 -6.13037
6.52389 -10.4041 -3.17871
3.1746 -9.636 -2.62295
-30.8782 -45.2241 -14.1389
-4.45258 -29.1997 -7.64062
3.53517 -10.3553 -2.82167
4.06265 -9.37451 -2.6262
15.5344 -11.6808 -4.95955
-7.28739 15.5267 -4.34261
-32.3091 -43.0881 -13.6557
4.30273 -11.1212 -3.01831
4.25089 -7.6967 -2.23782
6.52096 -10.637 -3.11184
44.2242 -13.3707 -11.5199
-28.8144 21.7394 -8.9245
-11.7345 17.2406 -5.14228
-28.2141 -41.1576 -12.268
-10.1523 -39.9559 -10.1673
-24.9344 20.943 -8.00281
4.3423 -10.3139 -2.7497
-12.2772 17.5862 -5.20124
-7.98432 15.558 -4.21599
10.2479 -9.2437 -3.30469
39.8135 -13.2251 -10.0398
15.0423 7.52274 -4.00346
-6.46867 -37.038 -8.95487
3.96115 -9.07738 -2.34688
46.3658 -12.4094 -11.3925
-12.525 -46.1131 -11.3178
3.84664 -11.0329 -2.75411
4.9013 -8.68068 -2.34529
-13.0053 17.7236 -5.11694
10.9753 -9.6182 -3.33562
-6.31789 -32.0336 -7.44881
-27.6596 21.363 -7.92281
41.0298 -8.97286 -9.53166
-31.0909 22.5737 -8.61478
-35.9796 -23.5783 -9.63813
40.2382 -12.4389 -9.45709
5.4445 -9.45681 -2.43648
-12.4716 2.84575 -2.80687
40.1096 -11.754 -9.23533
42.0502 -11.9982 -9.62126
-5.48053 14.3815 -3.3663
13.3377 -10.7327 -3.7686
37.6353 -12.0947 -8.6911
-23.8124 20.7539 -6.85226
-31.0106 -76.4519 -17.8991
4.30103 -9.68068 -2.29735
4.53094 -9.16372 -2.20822
-14.8372 18.4859 -5.0629
-31.5421 22.9116 -8.325
-32.4427 23.0234 -8.5045
-29.6772 -78.7356 -18.0329
-10.8812 17.0032 -4.28135
-8.65301 -36.7281 -8.02259
3.18413 -9.66671 -2.17048
3.95741 -9.80756 -2.25518
45.1692 -10.4724 -9.89847
14.8755 7.45088 -3.52671
-15.4245 18.988 -5.1802
5.155 -9.0391 -2.18633
26.0887 37.7456 -9.58655
14.9134 7.80488 -3.49422
-30.5788 -23.6162 -8.01455
-11.6504 17.1658 -4.21666
-15.8927 18.7906 -5.01087
-35.8955 24.0957 -8.78546
43.8423 -9.56283 -9.15138
-13.6736 -43.9967 -9.36214
4.12713 -9.71385 -2.14752
11.5653 -9.61389 -3.06014
-12.2065 17.5175 -4.2629
-20.7381 -59.5165 -12.5939
-13.3275 -41.399 -8.60918
4.06112 -9.90035 -2.1189
-34.6249 -23.6761 -8.26842
-27.2113 21.3566 -6.80852
-33.6396 -24.0629 -8.06188
-7.01798 15.5092 -3.30529
-27.6857 -65.0511 -13.7302
-34.0443 -22.6643 -7.88091
3.42916 -9.34415 -1.92219
45.252 -10.4846 -8.92029
-12.9654 17.7022 -4.1954
3.98138 -9.32673 -1.93544
-36.9871 -22.467 -8.19159
-21.6945 -35.242 -7.86972
-16.0864 -46.4145 -9.29323
37.4669 -12.3594 -7.45885
-36.6806 24.6358 -8.26962
-34.1905 -23.6127 -7.80538
-33.128 -24.2377 -7.70487
-22.081 -54.7026 -11.0982
-17.4194 -47.3148 -9.35105
3.81518 -9.1949 -1.83888
42.0349 -11.3291 -8.08495
5.74527 -9.692 -2.06507
-25.4515 -57.7115 -11.5462
-21.1349 -52.4571 -10.2276
-14.8067 18.4571 -4.19633
-31.5594 -25.4533 -7.20649
-20.5926 -27.4402 -6.13461
-40.1941 25.3629 -8.38586
-27.223 21.3753 -6.02465
-34.7441 23.7751 -7.31
3.90079 -10.0277 -1.86592
4.76467 -8.59959 -1.70865
13.9368 7.48441 -2.72802
14.0076 8.03815 -2.76559
-31.393 22.8285 -6.65459
41.7187 -11.8031 -7.38194
41.5247 -10.7545 -7.30268
-31.7163 -25.1887 -6.87025
-21.4168 20.3968 -4.96687
-21.1028 -52.4526 -9.55169
14.7877 7.41155 -2.77377
-32.2816 22.8534 -6.60708
-24.4467 -58.2842 -10.4423
43.011 -11.5868 -7.24084
-10.526 16.7111 -3.18776
-21.4082 -53.1099 -9.13145
-35.4168 -24.4484 -6.78113
-23.1499 20.3392 -4.82567
-24.582 20.9847 -5.00958
-40.9086 24.7687 -7.4107
-11.4079 17.0744 -3.17069
3.46502 -9.50961 -1.56548
3.85939 -10.2059 -1.68968
-7.75925 15.7384 -2.68106
-31.6311 23.0219 -5.98055
-32.2233 -24.8883 -6.19099
-28.3488 -26.517 -5.88028
41.7083 -10.8428 -6.55102
44.2984 -9.65102 -6.90774
-6.66121 14.8378 -2.43447
9.81368 -5.14409 -1.64453
-33.9843 -24.5113 -6.2396
10.1659 -9.14022 -2.03748
44.4343 -10.2793 -6.77369
-37.2136 -24.7725 -6.57902
-31.9829 -26.3808 -6.06441
-13.0657 -43.2903 -6.65237
16.8318 -12.1778 -3.04354
-25.8163 21.2553 -4.85999
-25.6072 -57.3752 -9.05278
-7.75436 15.5318 -2.48312
-12.917 17.6118 -3.11447
6.0152 -11.4921 -1.85378
-13.6322 18.2209 -3.19703
-35.3575 23.8847 -5.99894
6.73937 -11.0085 -1.80431
37.1871 -12.2724 -5.50832
-31.6035 -25.3239 -5.65171
-33.6256 24.165 -5.73645
-21.2764 -51.2792 -7.66716
44.582 -9.97345 -6.30003
-7.00005 15.4817 -2.32275
-23.6008 -61.594 -8.95934
7.73431 -9.35994 -1.62962
-14.2303 18.1699 -3.11163
13.1654 -10.5004 -2.27886
-22.5866 20.5452 -4.10595
41.6284 -10.763 -5.70889
44.3127 -9.70623 -6.00486
-22.9692 20.2131 -4.00111
-33.1639 -24.816 -5.40996
-15.136 18.5347 -3.09448
-34.6512 23.1277 -5.40868
-38.8616 -16.4089 -5.44631
6.99765 -10.4069 -1.60926
10.7207 8.77725 -1.77866
-34.2924 -23.6321 -5.32931
-32.0103 23.3682 -5.01347
-36.0953 -22.5238 -5.33255
41.4992 -10.7324 -5.3648
6.77764 -10.3396 -1.54503
-7.79398 15.5899 -2.15882
-25.4353 21.3574 -4.06703
-34.0187 23.9753 -5.13382
6.27294 -12.0308 -1.65319
44.2664 -9.4441 -5.54453
14.9269 7.82033 -2.02574
-18.4768 -44.7496 -5.83729
7.06713 -10.5033 -1.52448
-20.7219 9.18364 -2.68263
-14.7721 -44.6845 -5.53312
-32.3091 -24.9098 -4.77009
-31.7885 -25.4227 -4.76295
41.5773 -11.1373 -5.05951
11.1964 -9.64215 -1.71208
-30.4153 23.0622 -4.39154
6.62364 -10.7924 -1.44988
7.47332 -9.20106 -1.35606
11.5463 -9.69284 -1.71248
9.43321 -4.60193 -1.18857
14.906 7.65978 -1.88846
-10.523 16.7526 -2.23316
-32.7806 23.9529 -4.54827
38.4602 -12.6606 -4.54131
9.33335 -9.00048 -1.43465
-11.247 16.8682 -2.20434
6.76603 -12.7384 -1.56272
44.4054 -9.65083 -4.92686
10.7179 8.80743 -1.49471
16.6867 -12.3954 -2.23134
41.7684 -10.8329 -4.62423
9.59431 -8.95558 -1.39065
8.36153 -8.44647 -1.24521
-31.3409 -25.08 -4.17955
-31.3349 -62.8516 -7.32587
14.9034 7.47424 -1.70317
-32.2465 -24.8641 -4.17768
-13.0652 17.8106 -2.24318
-12.9776 17.387 -2.15683
10.1798 -9.06329 -1.3354
-21.6222 -54.9121 -5.78532
6.29189 -12.0492 -1.3159
16.5579 -12.114 -1.97243
41.6582 -11.1941 -4.13538
-31.9192 -64.5208 -6.84256
-21.6325 -56.7699 -5.76912
-23.6895 20.7209 -2.94227
45.087 -10.03 -4.31477
9.69129 -8.9637 -1.2222
39.2729 -12.9551 -3.8542
-15.2615 18.7081 -2.18664
-30.0073 -13.6813 -3.00597
-33.5934 -65.4875 -6.78381
15.7809 -11.8118 -1.79348
8.6165 -8.70725 -1.10942
12.8418 -10.6002 -1.45027
44.6779 -10.3554 -3.92935
9.37803 -9.00506 -1.09308
10.9181 -9.61477 -1.22304
-34.7838 23.8876 -3.51126
16.7566 -12.2195 -1.71808
-17.4405 -45.3831 -3.89401
14.617 -11.4295 -1.47992
-11.9876 -33.5597 -2.81267
-30.3466 23.0741 -2.94808
-33.6983 23.8191 -3.18558
-23.4847 -53.6451 -4.52082
-52.3158 28.4724 -4.51
-21.7315 20.4526 -2.17081
-33.9285 23.9987 -3.01168
16.2958 -12.1761 -1.48845
41.6815 -11.154 -3.14411
-41.1179 -77.7986 -6.3503
13.9153 -11.0098 -1.27016
-15.9934 -42.4261 -3.12932
10.7333 -9.58556 -0.986137
-23.7142 20.7639 -2.1287
12.8202 -10.5786 -1.11288
17.8528 -12.9485 -1.47066
15.9611 -12.0726 -1.322
-15.0812 -41.8139 -2.87534
43.4053 -11.2887 -2.80398
-33.1461 -67.1592 -4.57031
35.514 -8.61567 -2.24319
42.6008 -9.75058 -2.68351
6.01986 -13.0126 -0.857228
30.5846 -20.2377 -2.19523
-10.0086 16.7079 -1.14515
-15.9838 -41.6948 -2.54268
16.5242 -12.3493 -1.15859
-9.7314 -12.6152 -0.873077
14.8932 7.64074 -0.904841
13.8432 -10.9583 -0.94569
-12.9871 17.5995 -1.1425
-16.9062 -41.9034 -2.39982
14.7876 7.77575 -0.818661
-16.7429 -42.7968 -2.25499
-14.3741 18.219 -1.10977
9.5406 -8.99929 -0.601697
-24.8402 -56.9804 -2.81295
12.4049 -10.1978 -0.744704
-16.5037 -46.0056 -2.17019
-17.6839 -43.5696 -2.01331
6.82421 -12.6009 -0.636
-14.3383 -43.7076 -1.95963
-53.7798 29.2472 -2.47937
18.2302 -13.097 -0.911335
16.7127 -12.4225 -0.811304
-43.5286 -84.485 -3.58595
-18.8216 -49.3565 -1.94579
-34.2292 23.5186 -1.5185
42.1575 -10.8624 -1.56815
-35.9231 -71.4574 -2.67632
-26.79 -58.7103 -2.17321
19.9047 23.0207 -1.00991
-21.7753 20.4054 -0.972003
8.0711 -14.2448 -0.550151
9.39748 -8.97132 -0.421292
11.262 -9.91448 -0.487909
18.4833 -13.0691 -0.744304
34.5071 -13.0149 -1.2244
21.6441 26.2001 -1.08905
-27.6451 -13.8666 -0.969241
-23.2602 20.7132 -0.948839
-32.2399 22.8338 -1.23247
-25.8963 -59.5364 -2.0113
-14.168 -40.0806 -1.30975
-22.2892 -56.8563 -1.84954
-17.1271 -46.418 -1.41791
-34.4626 -20.8955 -1.07329
11.4108 -9.68022 -0.401043
16.2552 -12.0904 -0.534333
-41.86 25.8958 -1.29746
-30.812 23.4449 -0.957336
-31.3338 22.9637 -0.917853
9.5431 -8.9837 -0.303758
-41.973 14.5069 -0.980904
-32.3301 -54.137 -1.42064
21.1256 -14.1289 -0.559024
30.1986 -18.3114 -0.797659
14.1726 3.91673 -0.299841
26.685 46.6309 -0.986514
23.3912 -10.8898 -0.454733
46.5825 -10.7264 -0.889707
-31.019 -22.2914 -0.696448
-30.0269 -29.4924 -0.667448
-19.5482 -47.9663 -0.863135
12.6722 -10.4207 -0.270136
18.4113 -13.3039 -0.347462
-29.5632 -13.1401 -0.424496
-33.2833 -24.9085 -0.578354
-34.7347 -70.0226 -1.05617
-28.7261 -61.1383 -0.926412
-34.3921 -23.488 -0.543649
-30.8328 23.4571 -0.455449
16.9066 -12.6254 -0.250828
29.0419 -18.0074 -0.402632
-31.2878 22.9697 -0.431486
-19.602 -44.9561 -0.525329
-12.3124 -37.0589 -0.393804
-34.4929 -60.7756 -0.644582
-14.5488 18.4547 -0.179932
-26.9589 -13.5919 -0.243566
-15.2488 18.588 -0.163967
-22.9065 20.4576 -0.157458
-21.3213 19.9985 -0.132417
-10.6163 -13.6482 -0.060705
14.656 7.69912 -0.0198373
11.0717 -9.73558 -0.00790518
-34.929 -19.1313 0.0609498
-11.6011 -34.4785 0.117825
16.8677 -12.2548 0.0902592
-19.3085 -44.3286 0.214171
18.6711 -13.1552 0.121052
7.14683 -12.2852 0.103609
25.8279 -10.5966 0.171443
-56.4737 20.165 0.572925
16.1665 -11.981 0.191913
37.1069 -7.57579 0.357071
-29.3526 -8.27678 0.357078
-36.7829 -22.2014 0.473979
-11.5732 -33.1586 0.376088
-13.0031 -36.0319 0.455377
-10.505 -32.2898 0.406797
6.30022 -12.8776 0.182928
7.18995 -11.0765 0.173542
-28.6585 22.496 0.558761
11.2755 -9.84735 0.22494
-24.5053 20.9563 0.533047
10.8652 -9.70128 0.228494
12.9208 -10.6368 0.263527
36.0725 -7.71995 0.613461
-35.0308 -23.4701 0.767064
-31.7737 22.7183 0.767948
6.11369 -12.7735 0.274725
6.99931 -11.0149 0.251348
8.00614 -9.39463 0.240956
26.5451 54.5825 1.32093
7.70976 -9.42018 0.275133
10.1004 -9.14832 0.32867
-29.0871 -9.32709 0.736116
-23.6812 20.67 0.851383
-28.0453 22.1136 0.959544
-29.2165 -8.77272 0.804198
9.16626 -8.87272 0.344529
9.59884 -8.92137 0.357118
-26.0154 21.926 0.925401
25.2136 -5.10073 0.716068
12.9305 -10.6076 0.498083
14.5893 23.767 0.860745
6.16137 -12.7105 0.444451
7.43035 -11.5827 0.431769
-28.7333 -8.10372 0.979894
-12.7248 -19.4831 0.766492
-28.4119 -8.88011 1.02953
15.9995 10.9509 0.70086
-30.1739 -18.6976 1.24087
15.4902 26.9076 1.10839
-30.7899 -16.795 1.29986
23.3957 -4.22466 0.858809
-28.1529 -20.0228 1.28018
-7.31525 -7.97614 0.408554
9.0283 -8.80388 0.468663
12.3232 13.4803 0.704424
25.1282 51.8372 2.18226
24.0156 51.1315 2.12778
-11.607 -9.18747 0.58384
8.702 -8.64777 0.485231
-26.0965 21.4972 1.37365
21.7147 -2.94289 0.887678
-29.1228 -17.6893 1.39601
9.38885 -8.90241 0.530402
12.3414 14.2137 0.810064
6.54822 -12.4009 0.595471
14.6746 19.0674 1.05801
20.4175 28.202 1.52516
-9.54907 -13.8844 0.740629
-10.0482 -15.715 0.827895
7.57234 -10.9137 0.585177
8.60332 -8.69251 0.552605
24.0354 -3.68198 1.09775
-30.1621 -8.78967 1.43438
6.71935 -11.0464 0.594844
-8.29963 -8.16781 0.548156
20.7079 41.7802 2.23131
-28.8815 -17.8499 1.60501
-9.82383 -13.7798 0.805426
9.6333 -8.93796 0.618846
14.929 41.4864 2.13461
-30.5823 -13.5458 1.59671
-6.78095 -8.26697 0.526242
14.1642 32.9391 1.82983
-30.0554 -11.7698 1.62013
-7.61251 -6.99996 0.522913
-6.71629 -7.61362 0.513733
15.7923 28.6077 1.697
10.4501 12.2194 0.869073
14.0324 19.0957 1.27254
9.31911 -8.90072 0.690377
14.6163 19.0178 1.32457
15.0243 23.2048 1.52239
-27.9566 19.6843 1.87523
-6.99256 -8.21776 0.598495
-26.8817 20.6263 1.88498
6.06337 -12.8023 0.792567
-7.12913 -9.18757 0.663268
9.86015 12.3159 0.927991
14.6324 24.6538 1.67509
6.42968 -12.9135 0.830194
13.604 22.1944 1.5378
-8.28636 -8.14517 0.700227
11.4332 11.5121 0.967669
14.4643 19.2377 1.44624
-7.42524 -10.0517 0.777263
6.98322 -11.1283 0.800609
11.2188 -9.67679 0.898073
5.84632 -10.7172 0.757534
-7.21289 -6.66695 0.613949
14.2578 20.2256 1.5659
16.034 7.11728 1.13906
-7.05322 -6.16245 0.61478
6.4294 -13.3762 0.989077
9.21348 20.8115 1.53545
10.3117 12.4288 1.10414
13.3615 17.9665 1.56179
12.1916 20.2135 1.6335
11.2377 11.871 1.14746
6.57772 -9.80959 0.836356
11.3869 11.6499 1.17901
9.77663 -6.90132 0.851431
12.2412 11.8505 1.25139
9.89168 -8.35336 0.948388
-6.20786 6.72821 0.684045
10.3498 9.11325 1.03599
11.7465 17.5629 1.58985
11.2977 17.9995 1.60134
-6.96491 -7.7202 0.80642
10.6762 18.4269 1.63406
9.48014 -8.92551 1.00618
-6.42739 -4.3068 0.610456
9.02532 18.082 1.61497
10.0483 -6.87595 0.974832
12.3372 11.4466 1.36052
9.57361 18.588 1.68362
-7.29181 -9.67197 0.986702
6.69706 -9.35125 0.935915
12.1248 11.599 1.37494
12.0278 11.8289 1.40093
11.3093 11.8208 1.35442
-5.07441 -11.5817 1.06361
10.1996 12.761 1.39007
-6.97694 -6.09675 0.798279
-6.83376 -6.71236 0.80931
-5.23548 -11.4826 1.07317
-7.32253 -7.77016 0.919607
9.25589 -7.23353 1.01487
-7.14266 -8.08272 0.944109
-7.03731 -7.71277 0.918388
9.28582 12.3947 1.37311
-6.97416 -8.3987 0.975445
10.7276 9.00111 1.27628
10.3428 13.3209 1.52374
10.4373 9.16664 1.27165
7.61464 13.8223 1.45152
-6.5174 -8.15993 0.956994
-6.92688 -9.04971 1.05198
11.0946 10.7004 1.42227
11.1576 9.10343 1.34756
10.7672 10.7024 1.42313
6.38386 14.7522 1.51041
-11.4909 2.94381 1.11294
-6.37225 -4.17808 0.714142
-6.82168 -6.30868 0.861865
9.32156 13.1461 1.55463
-6.07708 6.6035 0.884395
7.94193 -6.59383 1.00596
7.83298 13.0607 1.51277
-7.08899 -7.63951 1.05011
9.21176 11.5182 1.48764
6.92242 12.291 1.43159
6.97358 12.8473 1.49019
9.45558 9.01843 1.35231
5.77407 13.7646 1.547
9.04038 12.2955 1.59111
-6.11669 -4.46369 0.793975
5.87422 13.4977 1.55048
6.1335 13.4349 1.55259
-6.98391 -4.43632 0.885256
8.69574 8.94426 1.32993
9.0536 10.0859 1.47402
7.25349 10.8913 1.42209
5.75794 11.341 1.38275
-6.3146 -7.42854 1.06585
10.2007 6.41084 1.33303
8.92377 8.07675 1.32679
7.2319 11.5598 1.50561
6.77008 11.5064 1.47596
5.28993 11.7466 1.43323
4.8042 11.9415 1.43993
4.62795 13.4588 1.56554
9.7993 7.00653 1.34512
8.68436 9.23137 1.41626
5.31719 11.377 1.41409
-6.85758 -6.73935 1.07038
6.79725 10.6094 1.41936
4.25108 12.9677 1.54214
9.72747 -3.18757 1.14129
-6.11417 -5.42293 0.946451
7.27562 -6.10851 1.07832
10.3511 5.67941 1.35416
-7.39699 -0.987876 0.855567
-6.2679 -5.36517 0.949947
5.2416 -5.5498 0.879432
5.00418 11.478 1.45442
-6.89575 -4.56764 0.958786
4.4471 -7.25135 0.983703
10.3469 5.11853 1.35463
8.81827 7.82662 1.38411
-6.01066 -4.37451 0.866683
-6.49735 -5.28287 0.989545
4.08528 -7.85295 1.05271
4.96111 -5.84371 0.919614
10.1099 4.72726 1.33788
8.4527 8.2078 1.42707
5.21099 11.3524 1.52465
8.98778 6.2263 1.3387
7.94849 8.27208 1.43705
-6.50204 -5.75764 1.08141
3.7018 -7.56331 1.05462
8.61873 6.64537 1.36854
-6.47949 -5.35409 1.06408
9.03447 5.97582 1.38292
8.12696 7.09127 1.3761
8.0558 7.4535 1.4013
5.76933 -5.33836 1.00908
-6.98538 -4.45171 1.06359
8.04056 7.93871 1.46556
-7.37314 -1.0446 0.962625
-6.93582 -2.83159 0.978762
8.93141 4.08085 1.28595
8.3479 6.58582 1.39583
4.99277 -6.02122 1.02811
4.91083 -6.18539 1.04576
6.85943 -4.27595 1.07587
-7.14761 -1.72169 0.986061
-7.02294 -2.22422 0.985326
-6.03455 -4.4291 1.00106
8.08267 6.61552 1.41596
8.56684 4.41738 1.31412
8.58417 5.13876 1.3665
7.97364 7.08942 1.45223
-6.82052 -3.74016 1.05659
8.81812 4.1392 1.33338
8.21675 5.79937 1.37722
-6.40856 -4.33625 1.05916
-5.9664 -4.5319 1.02357
5.30948 8.94711 1.43689
3.59539 9.94612 1.46843
-7.38332 -1.09527 1.03416
-6.91661 -3.93414 1.10466
4.94438 -5.53847 1.026
5.22312 -5.39294 1.04192
7.4512 -3.53114 1.15305
3.34065 10.0181 1.4794
8.3602 4.57554 1.34814
7.36317 -3.67221 1.16716
7.57409 -3.32921 1.17947
7.74801 -3.29977 1.19488
8.90155 2.80285 1.34322
4.82946 -5.63034 1.06617
7.34205 -2.84853 1.14647
-6.97089 -3.30605 1.12497
7.90344 -2.77444 1.22118
8.64478 -1.81589 1.29657
4.96498 8.50055 1.45296
2.915 9.31669 1.45191
7.71805 -1.88447 1.17083
7.18996 5.72599 1.36943
3.41351 9.44287 1.48391
3.14511 9.66828 1.50642
-7.38571 -1.04555 1.10653
-7.08763 -2.02682 1.0991
6.90685 6.25233 1.40652
-6.27255 -2.2751 1.0018
-7.25453 -1.37803 1.1152
7.90085 4.79434 1.4079
5.67026 7.30638 1.40316
5.25422 7.57576 1.40303
5.01712 7.95067 1.42122
6.75077 -3.2215 1.13114
7.23527 -3.11994 1.20656
7.62297 -2.75074 1.23488
-7.33223 -0.734499 1.12588
-7.11043 -1.9581 1.1388
6.78025 -3.08881 1.15215
3.75008 -5.78692 1.06623
-7.06589 -2.07977 1.15525
-7.36122 -1.09514 1.16913
7.32672 4.75225 1.37923
-7.2125 -1.4463 1.17089
-7.28596 -1.30366 1.18814
-7.11053 -2.02273 1.2027
7.037 4.74107 1.38503
-7.11427 -1.94904 1.21224
6.97651 4.84206 1.41051
6.58438 4.82948 1.36261
5.1763 6.20705 1.34628
4.63999 7.12107 1.41931
3.78819 7.86231 1.4504
-7.26346 -1.3762 1.23465
2.79419 -5.78046 1.0822
7.1104 4.40901 1.40936
6.48137 5.21238 1.40306
3.8743 -5.36612 1.1158
3.93765 -5.02222 1.08024
-7.28683 -1.25492 1.25488
-6.60855 -2.62932 1.20721
7.39049 2.83779 1.34266
7.00159 3.87544 1.36367
-6.42379 -2.75709 1.18982
6.74642 4.08157 1.35355
5.67919 -3.51759 1.14972
-7.41145 -1.04176 1.29488
-6.36637 -2.28384 1.16331
5.53251 -3.64606 1.14202
5.31685 -3.77252 1.14262
3.5675 7.10347 1.398
-6.81129 -1.73818 1.23508
4.48023 -4.46762 1.11338
-7.10624 -0.916434 1.27698
4.72479 -4.45734 1.14939
4.3003 6.45025 1.38314
6.5616 3.46094 1.33962
6.60002 3.66825 1.3564
-6.45179 -1.50298 1.19204
3.61008 -5.32809 1.17066
5.05045 5.58267 1.37828
-6.16387 -2.18637 1.19916
3.41496 -5.16127 1.15082
3.3613 6.71814 1.40512
-1.69632 -5.77751 1.14402
6.42389 2.72306 1.32769
-2.14193 -5.72435 1.17523
6.28854 2.78688 1.32414
-2.78661 -5.37497 1.1867
-3.54799 5.38846 1.39901
4.45375 3.87859 1.3477
4.15258 -2.87973 1.17731
4.62858 -2.18624 1.23675
4.18592 3.281 1.31725
3.70992 -2.93219 1.22452
4.00799 2.56789 1.32961
-1.44144 -4.11337 1.22079
-2.31949 -3.57744 1.2121
3.8509 2.35872 1.30811
-2.87295 3.54135 1.36832
-2.4793 -2.91507 1.18922
-2.37674 -2.93612 1.19411
1.84619 -2.81637 1.1837
1.86914 -2.79441 1.2137
1.99512 -2.53012 1.19985
-2.04921 2.81595 1.32562
2.80456 -0.555819 1.25918
2.78355 -0.336888 1.24075
-2.08814 -1.61841 1.21289
-2.07601 -1.45067 1.23805
-1.86089 -1.79483 1.28313
-1.99373 -1.13098 1.20461
-1.98528 -1.06997 1.23148
-1.94522 -0.880076 1.23181
-1.92971 -0.708205 1.22222
-1.9286 -0.701315 1.24945
-1.90514 -0.469572 1.22242
-1.87062 -0.345611 1.21971
-1.85541 -0.401061 1.22638
2.37854 -19.7103 -10.0181
-7.62232 -8.99915 0.466414
8.00607 -8.7866 -10.4521
8.25268 -8.61803 -10.4895
8.2044 -8.27928 -9.87284
6.94817 -11.9413 -11.3951
8.50295 -8.95977 -9.72652
7.8395 -8.92514 -9.12315
5.84338 -12.785 -10.7184
9.41045 -8.81863 -9.72785
6.14047 -14.0802 -11.5644
8.27473 -8.66605 -9.00907
8.0058 -9.1555 -9.09522
7.28175 -9.23301 -8.76127
5.90239 -14.1359 -11.1774
7.70671 -9.2922 -8.71149
7.84402 -9.10359 -8.65662
7.11863 -10.5661 -9.07131
6.80994 -11.0572 -9.20654
10.0318 -9.17338 -9.54767
6.52978 -11.1595 -8.85205
8.02127 -8.61535 -7.83889
7.34928 -9.26681 -7.86018
8.50248 -8.66767 -8.07089
7.70754 -9.45739 -8.01562
6.4767 -12.755 -9.34184
7.92058 -9.16632 -7.90152
4.99822 -16.0294 -10.7999
-0.471199 13.9451 -8.92169
7.71568 -9.23037 -7.71488
7.32245 -10.8453 -8.33247
8.36398 -8.55209 -7.62136
10.8492 -9.5978 -9.18837
8.97407 -8.80401 -7.88476
11.7321 -10.0046 -9.66361
8.05932 -8.52176 -7.21637
4.03978 -16.8423 -10.6156
4.24605 -15.3708 -9.79183
7.83151 -9.34362 -7.30666
3.95118 -15.6283 -9.61292
11.448 -9.80081 -9.0265
6.85227 -11.0584 -7.72527
7.76084 -8.80699 -6.95403
5.47985 -13.9802 -8.87251
6.47783 -12.6868 -8.33719
8.34857 -8.5808 -6.97711
9.66752 -9.06226 -7.72689
2.7875 -11.7842 -6.94172
5.46753 -13.8714 -8.44301
9.57435 -9.0861 -7.46202
6.60694 -11.0528 -7.25106
3.35181 -20.735 -11.7716
8.86274 -8.92312 -7.05052
12.1535 -10.1968 -8.8883
6.81248 -10.9887 -7.20326
4.67605 -14.5927 -8.46944
6.2111 -12.6014 -7.72912
0.897881 18.5477 -10.1068
14.5559 7.69115 -8.94303
4.19769 -14.2251 -8.01105
14.6653 -11.6051 -10.082
14.9074 7.40759 -8.86511
13.9508 7.68617 -8.46131
4.75965 -14.8333 -8.27804
12.0457 -10.119 -8.27945
1.81488 -20.5229 -10.5997
11.3821 -9.82296 -7.70309
2.08237 -20.2437 -10.3269
0.00741298 14.2787 -7.16627
-7.35849 15.3002 -8.51127
10.5653 -9.57454 -7.16492
7.50007 -9.40741 -5.99467
-8.58298 16.2755 -8.89558
11.6046 -9.74607 -7.33546
10.4665 -9.5595 -6.80713
14.7217 -11.2867 -8.94832
16.5817 15.7066 -10.8479
7.46645 -11.0361 -6.34902
14.9411 7.38219 -7.81774
13.8742 -10.9866 -8.27206
-12.0731 17.291 -9.66534
15.7657 -11.9462 -9.03759
9.75857 -2.4467 -4.62096
-9.134 -1.66055 -4.22205
18.5638 17.9126 -11.6367
3.90928 -9.09014 -4.49146
-10.3109 16.8471 -8.87315
-5.36508 4.462 -3.13904
6.84213 -11.2649 -5.93415
9.40668 -9.06639 -5.76252
15.9378 7.27041 -7.72679
-6.68958 15.1984 -7.25562
1.49942 -18.7535 -8.13736
-11.2884 17.1784 -8.85337
9.56556 -3.36459 -4.34287
7.00159 -11.0211 -5.52027
15.7515 -11.9074 -8.26639
14.5787 7.70632 -6.91514
18.5883 19.3382 -11.207
1.02126 -22.6925 -9.45661
-4.56111 13.9599 -6.05326
-9.96265 -1.1143 -4.15494
14.0206 7.74157 -6.53778
20.2413 22.0167 -12.1868
-13.1289 2.46044 -5.4419
15.0406 7.14607 -6.73312
-5.26212 14.4273 -6.17902
3.63395 -8.79801 -3.78916
13.8829 -10.9619 -6.9136
19.1208 21.3983 -11.1283
18.7074 5.76866 -7.58994
1.53614 19.1673 -7.45321
-8.81618 15.8889 -7.0082
11.3658 -10.0215 -5.82903
19.0489 22.0832 -11.2302
0.684229 15.3447 -5.8807
-1.66571 12.8085 -4.97017
2.71262 -12.2431 -4.81152
-8.79173 -1.25566 -3.3759
0.704078 -23.7738 -8.97419
15.1099 -11.5795 -7.18023
