ply
format ascii 1.0 
element vertex 1860
comment /media/mkaihara/Seagate Backup Plus Drive/model_iterations/model_40.ply
property float32 x 
property float32 y 
property float32 z 
end_header 
-7.70679 -3.47188 -3.13361
-7.75031 -3.38554 -3.11669
12.5561 -10.2394 -5.96085
9.53524 -3.45373 -3.69542
-6.63429 -6.75495 -3.38742
8.82298 -8.9115 -4.46186
13.3322 -10.8046 -5.98242
21.2046 26.0368 -11.5951
12.9854 -10.5256 -5.12828
32.6778 -17.832 -10.8559
48.0937 -16.0899 -14.6297
11.4862 -10.2255 -4.30157
4.41609 -5.93112 -2.05684
46.9371 -14.7844 -13.5267
-24.5379 -34.4556 -11.1456
50.2415 -13.0663 -13.4707
-25.7645 -35.981 -11.4511
-24.1766 -33.981 -10.5711
11.3544 -9.91185 -3.78682
42.9811 -10.9731 -10.6696
42.1695 -11.7413 -10.2337
43.7096 -10.989 -10.578
42.1233 -11.9645 -10.0853
-34.6679 -22.4253 -9.45425
-35.851 -22.7671 -9.4883
14.656 -11.3413 -4.09829
45.4445 -10.3835 -10.3788
-13.2843 -19.369 -4.98958
4.13746 -9.48846 -2.19206
-32.4883 -25.9311 -8.70162
-31.0753 -24.3435 -8.21204
11.9807 -10.1686 -3.28192
-33.7805 -27.1755 -8.88034
47.0433 -10.8148 -9.91356
-33.3721 -22.2779 -8.16265
-27.1233 -22.7144 -7.12032
-32.3584 -24.811 -8.13071
42.648 -11.2047 -8.83677
-31.9311 -23.809 -7.91028
-27.6029 -24.112 -7.25394
13.1175 -10.5179 -3.33276
-28.4426 -24.09 -7.34689
-29.3008 -25.1676 -7.62737
-33.6144 -22.8773 -8.00177
-28.798 -23.9641 -7.37144
-29.8529 -24.5522 -7.5833
-35.4173 -22.004 -8.10873
47.0449 -10.8066 -9.38411
-27.6504 -25.2314 -7.21616
-32.3851 -24.2361 -7.73485
-33.6557 -22.9801 -7.72368
-31.6644 -22.1147 -7.3284
-30.0919 -24.4516 -7.28041
-30.5448 -25.1456 -7.47289
-30.0615 -25.0462 -7.38583
-22.9381 -30.6851 -7.22573
43.746 -11.4167 -8.47384
-34.6693 -21.5624 -7.62047
-33.7601 -23.316 -7.62541
-31.7274 -23.9481 -7.40171
-30.6339 -24.0806 -7.28428
-21.4287 -51.3443 -10.3541
-31.5987 -24.1436 -7.27725
-30.742 -24.7895 -7.19741
-30.8025 -25.5387 -7.33339
-22.106 -51.4692 -10.2997
-16.4545 -45.9321 -8.94071
-33.8035 -23.6041 -7.51564
40.7793 -10.6744 -7.69566
3.8763 -9.87498 -1.92246
-30.6226 -25.1616 -7.13444
3.96684 -9.33792 -1.82468
42.5973 -11.9303 -7.91231
-30.768 -25.5113 -7.05489
-15.1509 -21.9639 -4.72232
8.85632 -4.27431 -1.71352
45.6007 -10.4225 -8.25858
44.5294 -12.7512 -8.12157
-29.4621 -25.3008 -6.77312
41.4363 -12.7798 -7.48635
-30.6689 -24.0483 -6.70218
-30.0715 -25.4488 -6.64262
-30.4459 -23.82 -6.43702
42.1726 -12.22 -7.25744
45.587 -10.4473 -7.59034
-23.2378 -54.8061 -9.38302
-31.404 -24.4377 -6.12919
46.133 -10.5653 -7.19902
-31.1145 -24.5698 -5.97964
-32.8459 -23.3108 -5.93982
-28.8304 -24.5134 -5.57074
-33.4738 -22.6372 -5.8764
-20.5674 -50.3525 -7.92582
-33.6908 -22.9918 -5.76968
42.8558 -11.1613 -6.31327
-32.0019 -24.1159 -5.65087
-31.4882 -24.1422 -5.63788
-30.1344 -25.0815 -5.49457
-29.0139 -25.8842 -5.46591
-30.4217 -24.8674 -5.47239
39.698 -13.0382 -5.82966
-34.9101 -22.3127 -5.71447
-32.3779 -24.1869 -5.53446
-31.6351 -24.0535 -5.45062
-32.6814 -23.1683 -5.43455
-32.5022 -23.6951 -5.48608
-30.3972 -25.092 -5.35797
13.351 -10.6141 -2.30812
-34.0418 -21.5517 -5.39256
-33.0042 -22.9581 -5.4075
-31.9874 -24.1179 -5.33164
6.84034 -10.2649 -1.63887
-34.4934 -21.6459 -5.30998
-33.0429 -21.0864 -5.06005
-33.3392 -23.0266 -5.25515
10.4197 -9.20583 -1.79763
-33.368 -22.7444 -5.1638
-21.9086 -49.9841 -6.89999
-34.4035 -21.7469 -5.10848
-33.1322 -23.0298 -5.04812
-30.7523 -24.6236 -4.94735
10.8518 -9.45623 -1.8106
11.6418 -9.79468 -1.89359
-32.622 -22.0879 -4.84506
-33.1797 -22.8212 -4.96043
-32.1883 -24.2872 -4.96606
10.6489 -9.36874 -1.75566
-36.7157 23.0016 -5.19806
-19.8226 10.102 -2.64992
-18.9676 9.44671 -2.53802
-27.1816 -14.6941 -3.60314
-26.5194 -16.3172 -3.58629
45.3098 -10.1478 -5.32329
7.19164 -10.2832 -1.42042
9.95665 -8.9089 -1.48683
42.1022 -11.0199 -4.83518
-27.2531 -16.6666 -3.47651
46.4055 -10.6017 -5.16465
-28.9671 -14.8863 -3.50906
10.4224 -9.14624 -1.48623
10.1521 -9.01054 -1.4405
13.0719 -10.6179 -1.78998
14.8449 -11.4253 -1.97592
9.49217 -4.74125 -1.11134
9.48578 -3.50824 -1.06571
9.48365 -3.4001 -1.05684
-27.8149 -16.6022 -3.38727
10.1663 -9.09342 -1.38567
15.3254 -11.5408 -1.93739
-28.0046 -12.8757 -3.09221
42.937 -11.1541 -4.34212
9.73789 -8.85375 -1.27509
13.9274 -11.0521 -1.70922
14.7133 -11.3276 -1.77869
9.47744 -3.40086 -0.967034
15.3536 -11.7482 -1.82972
-24.1085 20.5148 -2.91073
-22.9327 -52.1642 -5.25727
9.43469 -8.32707 -1.17679
-24.8877 20.7916 -2.88779
11.5748 -9.84794 -1.34815
15.8444 -11.983 -1.74634
16.8302 -12.3825 -1.81955
9.8645 -9.08676 -1.15367
-33.7313 -65.1058 -6.30406
13.4747 -10.8421 -1.47402
-34.7604 -21.7694 -3.47347
11.5661 -9.91837 -1.28225
46.3059 -10.0692 -3.93105
39.7093 -13.002 -3.34887
-29.8142 -14.2915 -2.64481
18.2707 -13.1219 -1.71143
17.054 -12.5069 -1.48836
-16.6961 -44.6486 -3.2511
-14.7223 -38.0429 -2.73916
41.9085 -10.9655 -2.9369
43.5444 -9.88003 -2.93794
11.7928 -10.0248 -1.00233
13.2399 -10.7497 -1.09758
13.6065 -10.7862 -1.09675
-16.5336 -41.2109 -2.74376
-33.8878 23.3243 -2.42459
16.8316 -12.453 -1.22988
15.7931 -11.9275 -1.14073
17.4652 -12.7701 -1.24649
-36.632 22.9908 -2.35847
-9.49753 -12.45 -0.834273
-15.5591 -39.4908 -2.29641
-13.8807 -39.3365 -2.23703
-28.1523 -16.4903 -1.70594
-16.9132 -41.4572 -2.35021
-14.5061 -40.174 -2.23984
-27.6316 -13.4913 -1.59189
38.5586 -8.23046 -2.032
-39.8902 -76.0446 -4.22669
18.0857 -13.0214 -1.08247
-27.4089 -13.7544 -1.46093
-16.1378 -40.015 -1.98987
-26.1772 -16.2525 -1.32792
-36.7473 23.0824 -1.56504
44.7414 -9.65629 -1.56592
-30.5475 -14.0223 -1.02854
-26.4569 -56.8134 -1.92984
-12.6235 -36.6669 -1.1958
-31.8696 -24.0275 -1.19649
-26.038 21.2493 -0.908933
36.5075 -8.67416 -1.01669
-34.9196 -21.6967 -1.00612
-34.5765 -21.8688 -0.994565
-33.1899 -65.9915 -1.69225
-18.4836 -42.23 -0.975521
-34.8618 -21.8676 -0.779036
17.0444 -12.4764 -0.40618
-34.3643 -21.7308 -0.55728
17.1701 -12.5718 -0.24479
13.2724 15.0993 -0.209843
-33.5271 -22.3618 -0.391308
11.1938 -9.67025 -0.132969
-35.6771 -20.7211 -0.344214
-28.5484 -8.59086 -0.12442
-29.1792 -9.35978 -0.084134
11.5644 -10.0023 -0.00309831
-12.8446 -19.7724 0.034603
42.8304 -9.50062 0.134401
9.13214 -8.928 0.104483
15.1904 -11.6046 0.153454
11.3914 -9.84561 0.140331
13.374 -10.7489 0.180239
18.3118 -13.1395 0.219016
-27.4651 -13.3065 0.336311
-33.0299 -21.9456 0.455603
-34.4611 -18.5016 0.444581
-35.3443 -21.7661 0.516511
-13.5041 -20.5 0.282506
-12.7092 -19.9436 0.313774
-13.1918 -19.7607 0.340574
15.1242 -11.5997 0.281298
-29.9236 -12.9478 0.574311
-36.1332 -19.4615 0.793203
-13.9681 -21.9172 0.517484
-30.0846 -13.1965 0.694117
-35.5052 -19.7682 0.827959
18.3533 -13.1739 0.472381
10.5529 -9.27996 0.300263
10.4589 -9.28601 0.347441
-8.19174 -9.71867 0.358891
10.5803 -9.31841 0.418693
13.6085 -10.8695 0.539138
10.4223 -9.50137 0.463813
13.3154 -10.7315 0.564572
-9.21388 -13.0048 0.592804
10.5654 -9.51842 0.530401
13.3087 -10.6644 0.67279
-29.9994 -16.7369 1.389
-31.8396 -18.4135 1.49584
9.58672 -9.1573 0.560282
-28.8135 -17.2037 1.4699
23.3739 46.339 2.30169
9.65292 -8.9888 0.585419
10.5302 -9.42775 0.670808
12.3626 -10.3233 0.753312
-6.10265 6.56935 0.442856
-6.86299 -8.14888 0.533673
-7.11704 -9.23468 0.574166
-28.0881 -11.0801 1.58231
-6.82028 -8.44881 0.560689
12.0118 11.8557 0.89692
16.83 25.1307 1.60627
16.2415 24.5936 1.54904
8.92081 -8.66843 0.668019
8.70154 -8.60964 0.673921
15.0708 25.8562 1.66349
-28.4244 -8.52455 1.65463
-7.51463 -8.00817 0.617372
10.4431 -9.42403 0.808708
-6.75147 -8.19312 0.636042
-6.71094 -8.43073 0.647942
-7.54939 -7.94361 0.679816
-6.88765 -8.21555 0.671127
9.59824 -8.92487 0.820957
10.5228 -9.41405 0.886125
10.5928 12.3838 1.06046
-7.31759 -9.47993 0.789841
12.7111 19.2983 1.55996
13.2739 21.1887 1.68301
9.4345 23.4657 1.76072
-7.08393 -8.2862 0.756452
-7.08954 -7.60564 0.738927
9.56015 -8.89453 0.926978
11.4611 12.0491 1.23191
11.952 16.9906 1.56299
12.6869 11.6064 1.32196
12.9636 11.5466 1.35276
12.3644 11.659 1.32348
12.1418 11.7903 1.34034
-7.20003 -9.3557 0.935714
11.7061 12.0471 1.3528
-7.3529 -6.1265 0.756464
-7.04452 -8.08212 0.862984
-6.74633 -8.2879 0.860693
-7.25949 -6.23741 0.762436
9.28586 -7.60942 0.995087
-7.34519 -8.08714 0.909644
-7.36935 -9.86462 1.02893
-7.27155 -7.85724 0.900288
9.22138 -6.98626 0.979722
11.7492 12.0227 1.42959
-6.35089 -4.32913 0.65791
-7.06129 -8.34083 0.941712
-6.81875 -8.39196 0.960527
9.01927 -6.87891 1.01199
8.23607 -7.15174 0.980905
5.94185 -5.9165 0.774328
10.9108 11.1924 1.49763
-7.0169 -5.72069 0.864197
10.8491 9.37433 1.39382
-7.14988 -5.70499 0.891954
7.75617 -6.58631 1.00143
11.1494 9.90319 1.47456
10.9971 9.15404 1.4375
9.67814 11.6439 1.51658
-6.49357 -6.48872 0.920102
-6.86025 -4.50742 0.831038
-6.96034 -7.2987 1.02174
10.8552 9.15336 1.46926
10.2066 9.52861 1.43175
9.37524 10.1995 1.4478
-6.84506 -4.44804 0.859853
-7.12492 -5.66266 0.973034
-7.09633 -5.70239 0.971878
-6.905 -4.62052 0.906724
-7.04793 -5.49293 0.971156
8.76732 10.3666 1.5087
-6.88393 -3.42367 0.861318
-6.95629 -4.33995 0.914122
-6.83068 -3.48366 0.860927
-6.87355 -3.56777 0.867954
-6.87955 -4.22464 0.907878
-6.9004 -4.39504 0.923138
-6.90027 -4.48052 0.925838
8.81185 8.88032 1.41707
-6.93809 -3.84556 0.909513
-6.9027 -4.06252 0.907323
-6.90215 -4.14604 0.915016
5.85732 -5.78403 0.951434
-6.91506 -3.40931 0.898007
-6.92579 -4.36329 0.949541
-6.8955 -4.43476 0.951176
-6.88936 -2.82401 0.872665
-6.87118 -3.60971 0.908327
-6.95535 -4.12627 0.951279
-6.90208 -4.19501 0.946018
8.5758 8.11139 1.40086
-6.90503 -2.97666 0.906699
-6.88343 -3.96205 0.953457
-6.86673 -3.64867 0.943728
-6.91006 -4.11823 0.984744
-6.89583 -4.30151 0.99601
-6.45807 -5.34951 1.02491
6.01411 -5.96311 1.03496
-6.89491 -3.74457 0.972365
-6.89316 -3.90891 0.983909
-6.99792 -4.73085 1.05345
-6.92215 -4.37934 1.03337
-6.85528 -3.47175 0.973114
-7.06471 -2.16569 0.943845
-6.87223 -3.07645 0.965481
-6.89085 -3.15387 0.97464
-6.13521 -5.47759 1.07145
-6.91187 -3.22411 0.99689
-6.36999 -4.35569 1.01628
-6.78469 -3.77699 1.02866
-6.87107 -4.1764 1.06654
-7.03601 -2.13059 0.981572
-6.98675 -2.33096 0.99053
-6.89442 -3.26009 1.01833
-6.8937 -3.53245 1.03657
-6.90131 -3.38688 1.04968
-7.01751 -2.15669 1.01972
-6.91745 -3.17329 1.0533
-6.88756 -3.25684 1.05289
-6.83555 -3.64268 1.06872
-6.89105 -2.93965 1.04674
-6.85678 -3.40389 1.06802
-6.87198 -3.7471 1.10067
-6.92084 -3.22961 1.07962
-5.99499 -4.48426 1.06489
-6.87581 -3.57751 1.11279
7.73582 6.38058 1.44968
5.24738 8.4146 1.43486
-6.87948 -3.48591 1.11618
7.31206 -3.52833 1.17859
-6.87151 -3.27275 1.11008
-6.86802 -3.38427 1.11617
-6.85183 -3.19411 1.11175
-7.1497 -1.74953 1.08439
-6.90286 -2.9361 1.11361
-6.9083 -3.02331 1.11809
7.1656 5.64128 1.41228
-6.36575 -2.28096 1.04855
7.09587 5.19769 1.40399
-6.99944 -2.40571 1.19019
-6.45157 -2.81547 1.14772
3.82688 8.02031 1.46555
-6.29961 -2.2577 1.11042
-6.46764 -2.28566 1.16801
-6.13867 -2.2764 1.13989
2.58886 7.48524 1.50313
7.85326 -8.54509 -10.2008
7.98057 -8.82812 -10.4151
7.71174 -8.77196 -10.1628
8.21388 -8.34593 -10.0306
6.95722 -11.49 -11.0057
8.16547 -8.29281 -9.54898
6.96184 -11.9075 -11.1988
8.04294 -8.43029 -9.25989
7.98863 -9.18637 -9.47811
8.25964 -8.72033 -9.33922
7.87592 -9.00551 -9.1245
8.32078 -8.73048 -9.15136
6.33204 -13.9953 -11.4652
7.50751 -9.4435 -9.01632
7.944 -9.10166 -8.944
6.22942 -14.3607 -11.5292
6.27416 -12.887 -10.5328
9.25807 -8.85989 -9.38339
9.24216 -9.01558 -9.39663
5.97108 -12.745 -10.2126
5.90796 -13.1167 -10.3007
9.39055 -9.01698 -9.31488
9.24546 -9.05817 -9.19372
6.93278 -11.2242 -9.35856
5.61938 -12.9701 -10.0026
6.52289 -11.0209 -8.80831
8.47736 -8.86322 -8.37675
11.8075 -10.019 -10.3952
8.26884 -8.65359 -7.92147
7.45559 -9.30045 -7.86123
8.27624 -8.81358 -7.97561
9.19346 -8.81579 -8.38617
7.6303 -9.35546 -7.88541
12.1566 -10.1527 -10.3079
4.67226 -15.8116 -10.6602
9.21271 -8.85218 -8.21595
5.02196 -15.3863 -10.4335
7.78372 -9.33339 -7.77895
8.27917 -8.50101 -7.5876
0.347958 15.6756 -10.0007
4.74666 -15.1529 -10.1093
10.9355 -9.61696 -9.26071
7.94324 -9.1081 -7.65949
8.19085 -8.52507 -7.46081
4.73002 -15.7938 -10.3573
-0.396065 13.5824 -8.49685
8.86805 -8.8335 -7.72987
4.22864 -18.6813 -11.8288
7.9458 -9.08693 -7.45252
8.29807 -8.60199 -7.3804
4.2687 -15.4274 -9.80375
8.24961 -8.67251 -7.31866
4.25506 -18.1736 -11.3836
0.150921 15.0484 -9.16703
3.76477 -17.8755 -11.0558
4.18315 -15.7833 -9.87298
7.07315 -10.8593 -7.77783
8.08289 -9.24477 -7.37631
4.20325 -16.5937 -10.2016
8.32334 -8.70038 -7.17329
9.44874 -9.0377 -7.79209
10.7252 -9.24687 -8.46705
7.04337 -11.1065 -7.82146
7.75959 -9.30032 -7.18921
9.09792 -8.85009 -7.52117
8.02902 -9.19965 -7.14551
8.61356 -8.80796 -7.19112
9.74104 -9.19512 -7.80779
6.79942 -13.384 -8.66585
9.28313 -9.01324 -7.4726
5.8197 -13.424 -8.44367
6.91069 -10.9071 -7.4419
9.59985 -9.14656 -7.55056
12.0027 -10.2941 -8.92723
10.8369 -9.5242 -8.11623
6.90735 -11.1431 -7.35907
9.17887 -9.12348 -7.25738
9.29487 -9.0612 -7.25817
12.6797 -10.5842 -9.22541
4.66661 -14.4058 -8.46431
10.2469 -9.4294 -7.7842
8.5607 -8.73984 -6.8099
2.74354 -17.2978 -9.66203
8.12238 -9.36442 -6.88965
14.8603 7.60054 -9.12762
2.70552 -19.8242 -10.8832
2.42941 -8.8038 -4.95322
2.97432 -19.8657 -10.854
14.8308 7.72487 -8.98202
2.36087 -20.1496 -10.7743
11.0113 -9.65694 -7.79127
9.82424 -9.07303 -7.08218
15.023 7.53888 -8.89741
2.36478 -8.8216 -4.82695
1.65323 -19.7434 -10.2342
2.38256 -20.7902 -10.734
14.024 -11.2052 -9.19848
-9.26456 -2.59652 -4.8978
11.3954 -9.86806 -7.65603
2.17 -20.2263 -10.2523
10.1726 -9.28705 -6.95961
0.849408 17.522 -8.72545
11.0493 -9.69373 -7.32778
-8.8393 -1.9444 -4.43949
2.20746 -20.1571 -9.95691
3.86161 -9.21111 -4.90575
11.3132 -9.70753 -7.2981
1.99403 -19.8538 -9.75342
-8.30776 15.9384 -8.71366
2.50578 -11.2081 -5.49522
1.99336 -21.0684 -10.0775
0.630509 17.1151 -8.11277
14.9902 7.66285 -7.95044
17.5177 16.4082 -11.3551
17.8873 17.1401 -11.5135
14.4366 -11.4159 -8.53432
9.83592 -2.61828 -4.71887
17.4519 16.4268 -11.0776
9.78307 -2.47618 -4.6694
-10.1516 16.6651 -8.89332
-9.53599 -2.06618 -4.42514
9.88542 -2.61566 -4.64223
10.2187 -2.40636 -4.75602
9.79144 -2.98694 -4.63403
-5.3711 4.4273 -3.13751
8.11334 -8.35033 -5.24975
18.0349 17.574 -11.3097
17.9023 17.7455 -11.3347
19.3392 5.88312 -9.07004
7.1675 -10.9395 -5.82645
20.4833 5.37814 -9.41161
9.59035 -3.43198 -4.52945
-9.82178 16.1406 -8.38911
-5.31997 4.87473 -3.19582
19.4425 5.61689 -8.94766
-11.1888 17.0556 -8.9749
18.1819 18.0357 -11.2323
-6.48182 14.8549 -7.11361
9.61805 -3.61062 -4.47768
20.2193 5.47947 -9.08445
18.3326 18.6011 -11.2632
18.1233 18.7533 -11.2438
14.9575 7.65496 -7.16391
3.86884 -9.37106 -4.29745
-11.1343 16.9352 -8.56263
-13.3955 3.28095 -5.81347
1.26608 -21.4496 -9.00386
3.25705 -10.2068 -4.48237
14.2711 7.68757 -6.77968
18.9242 19.7567 -11.4479
3.87554 -9.19913 -4.15713
14.9028 7.77059 -6.97389
18.5968 19.8259 -11.2914
14.1057 7.79181 -6.62925
4.00441 -8.47925 -3.8444
6.80025 -10.8942 -5.26014
-13.3313 2.50758 -5.55201
15.0631 7.54969 -6.8698
-7.94391 15.3663 -7.03132
1.19023 -10.5975 -4.33167
0.757933 -21.6808 -8.78629
-12.896 2.33579 -5.27303
-9.2875 -1.43396 -3.75212
-5.04651 5.59955 -2.98804
2.83612 -11.7598 -4.77161
14.2871 -11.2719 -7.11419
4.11324 -9.48276 -4.0514
1.52525 19.23 -7.49829
3.9575 -13.2039 -5.32866
19.127 5.84735 -7.70983
0.877837 -25.977 -9.92564
4.75867 -8.69147 -3.76121
11.7783 -10.1971 -5.91984
19.4902 5.61237 -7.68961
20.4443 24.2394 -11.8456
20.0888 5.45601 -7.76841
20.7368 24.172 -11.8712
3.27583 -10.8866 -4.24144
-12.925 17.4058 -7.99796
11.9484 -10.1399 -5.76189
20.4861 5.22989 -7.75246
21.3588 25.5361 -12.0973
-8.15699 -2.8126 -3.12599
19.4108 5.75873 -7.29098
2.28592 -13.2528 -4.83868
0.809542 15.8209 -5.67963
-4.24922 13.8437 -5.16236
-8.21067 -2.79577 -3.09482
6.76518 -10.564 -4.4536
-15.8124 18.2702 -8.54068
16.067 -12.1325 -7.13244
-10.9806 16.5527 -6.94277
19.4549 5.93154 -7.06416
3.72577 -8.68903 -3.26075
-8.71662 15.8495 -6.15359
3.003 -13.5456 -4.73183
19.087 -13.6536 -8.02816
34.5681 -21.4167 -13.8202
-14.7693 18.0923 -7.88207
20.2048 5.48988 -7.0208
37.5117 -21.1827 -14.3855
41.2347 -20.2932 -15.3158
16.5533 7.42513 -6.04523
3.46181 -10.2996 -3.62275
1.34906 -10.9228 -3.63812
-6.20311 14.7956 -5.2312
-12.5586 17.2243 -6.93699
15.8763 -12.2011 -6.51391
6.06373 -9.87898 -3.72561
3.34981 -10.1625 -3.43119
-1.11952 -23.5 -7.51565
2.32692 -11.036 -3.59298
3.24349 -10.0942 -3.35967
2.83124 -9.05442 -2.99172
13.7047 -10.8366 -5.4912
-17.7358 19.1712 -8.17686
-8.68414 -2.64507 -2.84335
28.9717 -15.892 -10.3661
1.36279 -21.3483 -6.60606
20.0518 25.9627 -9.89072
3.23464 -9.90006 -3.13991
3.45423 -8.98679 -2.89783
-14.193 17.7507 -6.79813
-21.1079 19.6845 -8.5477
-7.86054 15.2842 -5.05572
4.79543 -12.045 -3.79753
4.16272 -8.9486 -2.90136
2.0865 20.6708 -6.10279
-4.29408 14.4352 -4.41072
4.06812 -8.98176 -2.88285
-15.0975 18.1636 -6.81017
-31.5587 -45.0994 -15.7478
7.16899 -11.1627 -3.78456
2.5485 -9.4877 -2.78522
-8.38603 -2.19666 -2.44402
4.45829 -11.0655 -3.36316
-2.42197 -24.4419 -6.88427
-9.16238 15.7988 -5.02883
4.37871 -11.2979 -3.34039
8.60761 -8.39582 -3.30387
-12.9237 17.2189 -5.89216
46.218 -15.3233 -13.2723
-8.70306 -2.43434 -2.44709
-24.1011 20.2285 -8.51044
3.25628 -10.0081 -2.84408
3.40954 -10.0153 -2.85738
-4.16471 -29.9509 -8.12083
-26.4609 20.2939 -8.88866
43.2133 -14.2571 -12.0255
46.5962 -13.4885 -12.8337
-8.33368 -37.5165 -10.1276
-8.08105 -38.1137 -10.2723
-14.266 17.8773 -5.93468
9.87837 -8.98336 -3.48968
11.3665 -10.0927 -3.94853
-10.5046 16.3904 -5.03543
-4.19362 -27.4967 -7.2281
3.27078 -9.88747 -2.69216
3.53093 -10.331 -2.82521
-25.8839 20.5199 -8.4718
4.29197 -11.0909 -3.00869
4.41716 -9.71079 -2.69081
9.50792 -9.19479 -3.33414
6.9399 -11.4026 -3.34994
-26.8431 20.7123 -8.47083
44.5251 -12.9605 -11.5704
-11.3732 16.7563 -5.02512
11.862 -10.2147 -3.86899
3.37647 -10.2696 -2.65988
-24.2017 20.3299 -7.73183
10.0069 -9.03723 -3.24387
-7.74595 15.1104 -4.07509
4.07372 -12.0352 -3.06114
15.1667 7.61776 -4.06219
3.3962 -11.1612 -2.79676
3.17414 -9.89877 -2.47743
4.82507 -12.577 -3.24282
-6.57317 -37.6049 -9.08765
-10.885 -41.8187 -10.2476
3.97712 -9.11125 -2.35139
-28.4912 21.2923 -8.40253
14.9763 7.66524 -3.94092
-9.31203 16.0852 -4.36416
3.94754 -11.3811 -2.83527
-12.6679 17.2709 -5.00481
-26.0785 20.6932 -7.73101
3.48728 -10.3294 -2.49991
11.0842 -9.51587 -3.37103
15.7437 -11.8685 -4.51619
-36.784 26.0266 -10.3041
-12.1697 -42.3691 -10.0498
10.9521 -9.57609 -3.32796
-11.4652 -41.2103 -9.70671
-6.02353 -30.5509 -7.08794
41.2019 -12.7378 -9.77188
-26.682 20.6128 -7.60734
14.7833 -11.4722 -4.20739
-30.3242 22.0275 -8.41028
4.4492 -5.80473 -1.64181
5.30734 -9.20018 -2.37645
-26.9349 -69.4883 -16.4819
-9.51692 15.9316 -4.0867
-12.6656 -43.4998 -9.97045
4.11807 -9.8038 -2.34002
13.5219 -10.9078 -3.83011
4.01924 -9.20313 -2.20839
41.5856 -12.298 -9.49649
-23.19 20.2144 -6.70855
3.40129 -10.1202 -2.29089
4.41151 -9.93025 -2.35101
15.0509 7.56572 -3.61945
-28.5266 21.3452 -7.65874
-20.9066 -33.147 -8.42064
-8.16418 -34.5827 -7.60155
-24.099 20.3256 -6.71741
-30.5888 22.2178 -8.04576
3.25961 -9.96491 -2.23728
4.88347 -8.88107 -2.14922
14.8623 7.76074 -3.54925
4.24912 -10.5361 -2.41737
42.2725 -11.0164 -9.25681
-10.3982 16.2882 -4.0762
4.34829 -9.16928 -2.12848
3.15434 -9.13085 -2.00174
5.17032 -9.07054 -2.18734
14.8655 7.48024 -3.46781
-37.4258 24.645 -9.32774
-26.8817 -24.9255 -7.57829
3.02821 -9.47474 -2.06765
-28.2815 -29.823 -8.46907
-19.5348 -30.503 -7.45948
-33.226 -84.9911 -18.8323
3.86374 -9.35311 -2.08801
3.74449 -8.75261 -1.95384
-15.4155 18.2291 -4.88607
-23.7839 -63.0443 -13.8333
3.99637 -8.79935 -1.97618
-34.9131 23.381 -8.54332
-13.9007 3.04105 -2.90743
-33.0667 -23.3695 -8.25779
-26.1727 -72.2981 -15.6546
-11.0409 -35.5577 -7.57327
44.4895 -9.71633 -9.24957
15.0224 7.67475 -3.38085
-17.5759 -23.2833 -5.86273
12.4006 -10.1338 -3.22031
-18.2209 -52.1267 -11.0229
4.19762 -10.7991 -2.31059
-11.8728 17.0248 -4.12259
-25.7902 20.2931 -6.5049
-34.9738 -20.7039 -8.08054
-31.7449 -24.7919 -7.98331
-8.96611 -34.7594 -7.14955
14.6158 -11.5231 -3.68727
4.04221 -9.85442 -2.09949
3.23498 -9.88786 -2.03935
-34.9973 23.1248 -8.15179
-22.3833 -53.897 -11.2819
-15.483 -44.7081 -9.02489
3.4974 -8.92919 -1.83642
-19.8895 -32.2129 -7.18856
-31.5492 -24.6221 -7.54667
-28.6386 -25.4303 -7.21017
-21.2132 -52.4215 -10.7003
3.89846 -9.121 -1.88895
-16.192 -44.1642 -8.80482
-25.0638 -56.9528 -11.4462
3.45071 -9.24442 -1.82174
-32.0208 -23.8999 -7.27445
-30.8186 -26.4245 -7.39934
-32.4201 22.8249 -7.14725
-19.5937 -48.4784 -9.3311
-30.8207 -24.8278 -6.9615
-23.324 -60.3926 -11.4065
-33.6664 22.4044 -7.08102
-16.0465 -45.2518 -8.42019
3.41357 -9.59503 -1.7799
14.1774 7.86849 -2.81256
-34.3934 23.568 -7.23157
-28.4903 -24.9706 -6.58948
3.48526 -9.54517 -1.76204
4.81045 -8.67934 -1.71959
-26.4492 20.7655 -5.81106
-30.2239 21.9825 -6.44604
-30.568 -28.1555 -7.17151
3.90221 -10.0416 -1.85866
14.0252 7.56084 -2.73842
-22.8214 -52.4379 -9.72721
-20.3464 19.3589 -4.73889
-31.0687 -24.6942 -6.73035
-19.1298 -47.4294 -8.67322
5.63343 -11.8034 -2.20808
42.8643 -12.1063 -7.5504
-17.6527 -47.115 -8.47212
41.9544 -10.9159 -7.2917
5.0205 -10.7732 -1.97839
6.72175 -11.1689 -2.20198
-10.1937 16.2067 -3.10584
-29.9311 -23.1695 -6.16875
43.2628 -11.6184 -7.28918
-21.7924 19.7963 -4.77544
-19.7622 -48.8924 -8.37642
-22.5706 19.8453 -4.74052
-23.7603 20.2552 -4.85775
-32.3454 22.7848 -6.12166
3.82853 -10.1411 -1.66558
-31.6499 -24.4718 -6.11572
-13.3922 -40.4036 -6.53971
-30.5608 22.2408 -5.74605
-21.9598 -52.8523 -8.7172
-7.51141 15.2097 -2.55705
-32.8875 -23.1119 -6.05664
-32.1676 -23.649 -6.05011
-27.4018 -25.7101 -5.65519
-32.745 -23.5675 -6.05166
-30.9326 -24.761 -5.92351
-34.3118 -22.9176 -6.12554
-24.4473 20.5225 -4.70564
-32.6586 -24.4394 -6.0118
-31.6573 -23.9731 -5.86462
-25.1007 20.6839 -4.75836
-12.1413 -40.2361 -6.16185
-12.4016 16.9643 -3.02704
-7.5274 15.0593 -2.40021
3.51724 -9.58356 -1.45244
39.0101 -12.8299 -5.84019
-32.988 -24.2999 -5.79644
-30.2009 -24.0025 -5.42971
-29.6734 -25.0274 -5.46679
-19.8752 -47.8902 -7.22667
-6.70043 14.8462 -2.21058
-13.7651 17.5869 -3.02947
-11.3545 -39.748 -5.63017
-7.27575 14.7456 -2.20744
-23.2032 -60.4034 -8.75611
-22.0258 20.0308 -3.96519
-23.7711 -53.8799 -7.82623
-30.9116 -23.8621 -5.15507
46.14 -10.6323 -6.2261
45.4799 -9.99803 -6.1337
-13.0186 -40.4588 -5.58699
6.66169 -10.979 -1.68877
-14.76 18.0789 -3.03738
-22.4325 19.7578 -3.87534
-32.1831 -24.026 -5.17096
10.7917 8.85141 -1.80247
-33.0225 22.7059 -5.14588
-29.1674 22.1952 -4.62066
-30.5384 -23.9091 -4.89339
-12.4508 -35.425 -4.74884
9.69892 -9.07737 -1.65757
12.8474 -10.4996 -2.08866
-33.1315 23.2423 -5.06108
-35.58 -22.1663 -5.22144
-30.194 -24.9567 -4.86798
6.79921 -10.3406 -1.54437
-32.4962 -22.9693 -4.93174
-13.1652 -41.0738 -5.30645
13.2451 -11.0416 -2.11654
42.4569 -11.0347 -5.41595
-15.9151 18.3219 -2.9665
-15.532 -37.6481 -4.97935
-8.59139 15.3591 -2.14312
44.3909 -10.2259 -5.51528
15.0989 7.8821 -2.04627
9.44096 -8.95815 -1.55358
-33.279 -23.219 -4.81227
-17.5604 19.0857 -3.0349
-20.5765 9.10574 -2.66671
-31.3074 -24.2376 -4.67011
-24.6917 -55.9435 -7.18583
11.3278 -9.74459 -1.74937
42.8207 -11.4633 -5.21892
14.7813 -11.477 -2.15075
15.0238 7.72258 -1.92106
-29.3777 22.3417 -4.21092
7.29318 -11.075 -1.50467
-10.0755 16.0867 -2.12572
9.47571 -9.34179 -1.48114
12.8263 -10.5346 -1.85061
14.0363 -11.0787 -1.98888
9.47822 -9.14052 -1.46137
7.07864 -10.4826 -1.38547
45.3924 -9.91388 -5.05669
-10.7204 16.1038 -2.08612
-32.5485 22.9517 -4.32591
11.7561 -9.87717 -1.65787
6.21124 -12.7726 -1.49376
7.58488 -11.6102 -1.44302
9.87288 -8.92817 -1.40039
-14.846 -42.9004 -4.76053
16.6547 -12.3336 -2.1733
-29.323 -58.9112 -6.82699
14.9652 7.53571 -1.71297
-30.6186 -24.4017 -4.02226
13.889 -10.9892 -1.81491
-31.3669 -24.2631 -4.01292
14.9542 7.81329 -1.69567
-12.4639 16.6684 -2.04543
-19.6222 -49.751 -5.18335
-31.2941 -63.2175 -6.75429
-23.0183 20.1359 -2.88993
-30.4742 -24.9647 -3.74527
-30.448 -25.2915 -3.77305
-20.7736 -54.3589 -5.48815
-13.8439 17.715 -2.10474
-30.7463 -24.0543 -3.64377
-15.2082 -41.424 -4.11161
-13.4364 -41.7627 -4.09315
9.84404 -9.12429 -1.24719
-31.8768 -62.0943 -6.4315
8.57944 -8.6769 -1.10792
16.5866 -12.3586 -1.89218
-14.7296 18.069 -2.09169
-35.2859 -21.947 -3.76103
-32.4979 22.9451 -3.5047
-30.5373 -24.6364 -3.4679
14.1028 -11.2168 -1.59949
-31.7037 -19.3196 -3.1683
11.0821 -9.72546 -1.25541
-26.1938 21.2473 -2.83361
-11.0426 -34.369 -3.0514
9.41954 -9.03184 -1.09566
-33.2027 22.8283 -3.34875
8.70332 -8.70494 -1.01107
16.8518 -12.2901 -1.7036
-16.1821 -42.0491 -3.62168
-20.7198 -47.3975 -4.04981
-14.8863 -36.7501 -3.14344
-12.9426 -36.3143 -3.06355
9.22142 -8.96146 -1.01025
11.3191 -9.81228 -1.17434
14.9303 -11.6781 -1.50052
-29.3846 22.4083 -2.87648
-28.9241 -13.5011 -2.48031
11.8962 -10.0783 -1.20842
-22.3638 -49.8066 -4.18239
12.8226 -10.6433 -1.26239
-38.9712 -73.9356 -6.04943
9.97246 -9.15261 -0.98096
10.9376 -9.76317 -1.02181
-32.7586 -20.3363 -2.6679
11.991 -10.0779 -1.08446
14.776 -11.634 -1.30693
-15.1024 -38.1615 -2.79354
-14.7002 -38.8888 -2.85048
18.6815 -13.5009 -1.52993
-22.9181 20.0663 -2.02237
-23.8807 -55.0888 -3.97099
12.9191 -10.6275 -1.11822
-14.2126 -39.4303 -2.72434
15.3442 -11.5856 -1.24921
-31.0305 -62.8267 -4.40103
-14.4403 -44.7592 -2.92296
-32.2256 22.7654 -2.41566
-31.4904 -62.2736 -4.24788
-16.5125 -40.2228 -2.65156
31.2886 -20.7444 -2.28465
42.5755 -11.1027 -2.67066
36.8948 -8.89533 -2.29904
-14.7059 -39.4825 -2.54598
-26.5071 21.513 -1.93627
-28.6545 -14.1073 -1.84612
-15.3868 -40.085 -2.39521
16.9857 -12.6743 -1.18702
-26.8466 -16.1553 -1.68713
43.1783 -9.61811 -2.2745
-9.3448 -12.4861 -0.791896
-14.9835 -39.8757 -2.12202
5.74057 -12.5288 -0.684556
-13.9609 17.6985 -1.09973
-14.5559 -45.7515 -2.35817
14.9728 7.85518 -0.814966
-15.8765 -40.6954 -2.07628
-14.0216 -45.6029 -2.25138
18.8335 -13.3626 -1.10645
-16.5894 -48.1107 -2.37406
37.1964 -9.13575 -1.7943
-28.5558 -14.6019 -1.43551
-23.4891 -53.8226 -2.60434
-16.1001 -39.6137 -1.90364
9.68235 -9.13677 -0.593449
12.6485 -10.3816 -0.734279
44.8716 -10.2674 -2.0465
-13.6144 -41.4128 -1.85559
-32.1541 22.7305 -1.64073
-52.3013 28.4049 -2.37525
-33.1774 22.8325 -1.47865
-18.2201 -47.6475 -1.91456
-34.1108 -21.4801 -1.44127
9.76938 -9.09179 -0.49056
6.62771 -10.868 -0.441585
-12.7037 -37.871 -1.32216
7.50002 -13.1646 -0.517267
18.7252 -13.2627 -0.774713
-25.6663 -56.2135 -2.03451
-13.0122 -36.9158 -1.26814
21.4406 24.7285 -1.05188
-22.7411 20.1892 -0.958435
-20.118 -51.5145 -1.7147
21.18 -14.4435 -0.778916
-27.3362 -14.0674 -0.932279
-12.6089 -40.3533 -1.25676
-23.6922 20.1314 -0.893701
-22.8681 -52.6285 -1.63191
-16.9793 -45.9539 -1.41291
22.701 -10.216 -0.751035
-33.9821 -20.7053 -1.10096
-9.73435 -12.7714 -0.45877
-22.1064 -52.133 -1.59798
18.1373 -13.512 -0.575379
31.4588 52.499 -1.58757
-29.5349 22.5349 -0.955964
-30.6746 22.4363 -0.940772
-26.9647 -12.9563 -0.733482
9.58738 -9.02214 -0.318531
-20.4734 -32.9765 -0.904929
-39.5923 13.7337 -0.917188
21.3807 -14.3061 -0.54579
-52.1401 18.8054 -1.02425
18.551 -13.3744 -0.428708
12.8617 -10.5664 -0.277108
-7.07661 15.3184 -0.295748
-32.7104 10.3446 -0.567885
-28.0031 -13.3349 -0.491375
-36.5383 -20.808 -0.639056
-17.6032 -43.153 -0.720504
-7.70799 16.2105 -0.244249
-32.0762 -23.9618 -0.555287
-33.4163 -22.78 -0.5178
-33.3111 -67.3069 -0.929647
17.3959 -12.979 -0.262975
18.3359 -13.2018 -0.286138
29.245 -18.0333 -0.457855
-20.6123 -52.7925 -0.686713
-29.7117 22.6527 -0.399476
-37.0434 -20.7072 -0.468915
-26.7481 -57.0755 -0.67027
-18.1324 -41.589 -0.485106
-51.992 28.4935 -0.494724
-32.539 -57.4003 -0.6072
-19.3402 -50.7226 -0.514821
37.9189 -9.16088 -0.358028
-14.0668 17.8546 -0.160362
-33.5163 -74.6378 -0.558598
-17.4297 -42.2754 -0.310728
9.59557 -9.02918 -0.0409042
13.1206 15.0163 -0.0413637
14.8711 7.82863 -0.0288201
-29.1071 -12.9847 -0.0580154
-11.5891 -16.8733 0.0249372
-12.7574 -19.2019 0.0439522
-18.192 -41.7594 0.188803
9.46049 -9.00717 0.0596562
-32.1914 22.7821 0.203793
-20.9869 -52.9825 0.277092
-29.8851 -13.8701 0.197509
16.9158 -12.3424 0.117365
-12.998 -19.9293 0.155344
14.7666 -11.5028 0.147542
-52.0628 18.6534 0.488108
7.11204 -12.2202 0.118792
16.0671 -11.9061 0.170032
-35.9517 -21.7553 0.440647
38.6165 -7.93713 0.411011
-34.8172 -21.819 0.46789
-12.2934 -33.9544 0.422088
-12.7638 -34.3238 0.444376
-10.9748 -31.6026 0.407669
-9.44766 -29.2316 0.37235
26.7558 54.1759 0.785974
9.60785 -9.03705 0.170637
-12.6833 -19.6537 0.318587
-10.6508 -32.3315 0.46695
8.58091 -8.52445 0.183454
6.3173 -12.9242 0.20956
7.1682 -11.0459 0.201084
9.36279 -9.07661 0.188444
8.04194 -9.12498 0.1946
9.74382 -9.02216 0.21885
38.0852 -8.15983 0.639587
-23.5673 20.2104 0.555136
-32.7889 -22.0603 0.679897
-34.0229 -24.9623 0.738986
12.9521 -10.6402 0.274833
13.2645 -10.6988 0.319547
-9.86275 -12.505 0.300601
6.84508 -11.2184 0.256326
7.99881 -9.40073 0.24279
27.3378 56.2486 1.25249
6.99295 -10.9918 0.261981
9.19303 -8.69832 0.268974
11.5533 -9.93039 0.333996
17.3002 -7.72737 0.38164
7.2273 -10.9655 0.297314
-9.40393 -12.1401 0.388336
-12.6926 -19.4846 0.555641
7.65638 -9.32157 0.274851
7.84076 -9.37674 0.283848
-25.3013 21.2654 0.857428
-28.6907 -9.20049 0.755663
9.63553 -8.96535 0.338684
17.563 -12.8302 0.548644
18.4062 -13.2536 0.56441
-22.6877 19.8636 0.784626
-27.3573 21.6211 0.909169
-28.7051 -8.61529 0.784176
-32.7991 -17.4885 1.00926
-13.2473 -20.004 0.637827
14.8052 -11.5037 0.500504
22.8253 -3.32109 0.649324
-12.1051 -18.8753 0.648829
25.0855 -4.75225 0.743413
16.5536 25.6895 0.915637
-27.7506 -20.4434 1.01983
7.24197 -11.3441 0.40418
6.97796 -10.7158 0.389538
14.9098 24.2884 0.874688
-7.59837 -8.78003 0.354912
13.0622 -10.6883 0.515584
-7.29475 -9.48101 0.366267
-28.3417 -7.99953 0.979587
-11.8114 -17.2658 0.700606
7.87967 -9.35954 0.404921
16.2197 11.0816 0.703436
10.8756 -9.46994 0.524022
11.9152 -10.0673 0.568561
23.3658 47.0513 1.97261
-7.42795 -8.10953 0.410887
9.66311 -8.97024 0.492357
22.8947 -3.21449 0.887808
27.474 56.7935 2.44247
-7.42133 -9.85034 0.482295
10.4459 -9.52723 0.554753
12.7544 -10.534 0.668548
21.6366 -2.65183 0.888942
-28.8799 -17.5207 1.38104
8.74711 -8.70784 0.510216
-6.90411 -8.44186 0.468635
9.44796 -8.93757 0.543836
12.7512 14.6377 0.857228
-28.6755 -8.4157 1.31287
14.8413 19.3309 1.09518
15.2053 26.1804 1.34888
22.0874 43.4333 2.15478
6.2015 -13.8172 0.675326
10.8594 -9.52711 0.653505
18.5283 -1.64438 0.851173
19.7833 37.6682 1.99538
15.15 26.6933 1.439
-11.1487 2.76527 0.552682
-7.22009 -9.5169 0.575983
9.17745 -8.99522 0.608755
11.4124 -8.75585 0.673775
20.1633 -2.31068 0.977881
11.6861 11.9097 0.828537
16.4068 39.457 2.10059
7.76754 -9.46699 0.602857
10.1972 -9.28732 0.68317
14.7387 24.9928 1.4528
20.4674 39.6903 2.26661
21.0616 -2.62374 1.07948
-7.38502 -8.48439 0.583437
9.39518 -8.94533 0.675642
16.8763 24.7479 1.57353
16.733 30.3351 1.8081
13.0339 -10.7434 0.897681
10.6088 12.4017 0.872786
14.33 19.4519 1.2978
11.0916 -9.61761 0.793998
15.1238 19.705 1.36984
-25.9572 19.8979 1.78622
-6.95077 -8.15468 0.592648
10.3035 12.4569 0.905257
-7.24037 -9.3468 0.662099
10.0403 12.5075 0.930134
-27.4018 19.2919 1.90182
6.12591 -12.9376 0.819587
11.2351 12.1454 0.95089
-6.86879 -6.77892 0.559531
11.325 12.0764 0.974792
-6.79168 -8.39235 0.646036
6.26897 -12.6017 0.822441
14.755 19.6318 1.47667
14.2602 23.3154 1.63032
13.6121 31.4586 2.05712
-6.10658 6.50398 0.547259
-8.14807 -7.72058 0.678813
-7.10007 -8.14504 0.663473
5.73877 -12.4806 0.83068
-7.46591 -6.87372 0.631163
7.01724 -11.1805 0.81631
6.99698 -10.5747 0.791503
11.3574 -9.80388 0.926804
12.1503 -10.1643 0.981881
16.2703 7.20575 1.13385
15.0015 19.4334 1.5532
-7.22401 -6.29574 0.621325
10.2785 -9.3877 0.898543
-7.36492 -6.24809 0.633359
11.5294 12.1659 1.14202
9.6438 21.7103 1.61756
-7.25141 -9.62548 0.805096
11.6926 12.6817 1.18329
-6.94543 -4.45093 0.567173
-6.73776 -8.18323 0.722782
-6.69072 -4.42775 0.553164
9.28415 -8.87632 0.89435
10.0104 -7.85388 0.896434
12.791 16.1212 1.48794
-6.65871 -6.65116 0.65377
9.82367 -8.2957 0.940356
11.5459 17.264 1.56136
11.4837 18.3084 1.61441
9.67451 18.4137 1.56854
9.0995 19.6654 1.62971
7.43177 22.15 1.75644
10.8579 18.7415 1.65009
10.0275 -7.60802 0.962565
-7.01495 -7.17568 0.768789
-17.1255 -6.21153 1.42414
9.48409 -7.68883 0.95724
9.4147 18.804 1.65976
-6.37311 -4.25542 0.607301
-6.81546 -8.20271 0.845344
4.83494 -5.73352 0.596368
9.10446 20.0304 1.74515
7.84061 19.1705 1.66537
5.02887 -5.79595 0.618317
12.8379 11.5843 1.40118
11.835 11.8882 1.3736
6.73911 -9.4015 0.940358
12.2931 11.758 1.39831
6.75445 19.8285 1.71473
-6.34928 -4.38302 0.628537
-7.14319 -9.45396 0.972499
11.6041 12.1571 1.39054
10.5125 9.19666 1.18936
-5.02189 -11.4575 1.05686
6.12976 -6.04981 0.751859
9.22813 -7.18906 1.00624
-6.78409 -6.68191 0.808833
10.4858 12.4267 1.41943
8.80728 -7.33877 0.996676
10.8844 12.2696 1.43545
-7.29471 -7.74855 0.932849
8.19907 -7.2993 0.974776
10.2619 12.5431 1.45694
-7.05757 -7.72643 0.927728
-6.92339 -8.32272 0.971503
10.6542 12.3848 1.48352
10.5632 13.6259 1.56207
-7.10161 -8.31029 0.995673
11.2709 10.8869 1.4414
-6.30766 -4.22659 0.697936
-6.84635 -8.57477 1.00385
-6.3214 -4.3895 0.709165
11.1261 8.58631 1.31888
10.6848 9.36683 1.32491
6.54724 15.553 1.5873
10.5609 11.3615 1.46787
-11.194 2.86847 1.09135
6.16148 -5.96915 0.817951
8.01316 -6.643 0.999866
10.7848 9.23534 1.37845
9.58244 12.6086 1.5335
9.76783 12.5353 1.56576
7.71385 12.3367 1.44542
7.96498 13.3151 1.54454
11.2666 8.09061 1.41371
7.18756 12.7901 1.48079
9.10896 11.4154 1.48609
7.0493 13.6474 1.57217
5.91833 14.0631 1.56657
9.24264 10.5371 1.44874
9.08518 12.3772 1.59537
11.4297 7.68592 1.43694
9.29528 10.0525 1.4256
4.97472 -5.82128 0.822155
-6.8376 -4.65041 0.872049
5.62639 14.0177 1.6035
-7.05007 -4.5009 0.891781
8.97303 10.7516 1.50372
-6.75595 -6.76556 1.0226
5.9133 -5.83665 0.897584
9.73039 8.56707 1.39751
9.00142 9.40172 1.40005
9.30274 10.3704 1.51059
4.82912 13.996 1.59825
4.24069 -8.06516 0.987115
6.50469 10.8824 1.39532
-6.79369 -3.92042 0.863138
6.39087 11.9831 1.50703
-6.88722 -3.85856 0.874333
9.74583 7.23133 1.3572
6.71205 11.4554 1.47886
9.84051 7.05553 1.3604
5.47458 11.6708 1.45785
5.48223 12.1903 1.50996
4.74395 12.3459 1.49681
9.86898 6.70773 1.36006
-6.88384 -4.5583 0.945345
7.41504 -6.23708 1.10458
-7.31989 -0.784302 0.8438
-6.26841 -5.38496 0.951576
5.25213 -5.57121 0.883589
8.91191 7.92291 1.38938
4.4224 -7.19024 0.977971
10.446 5.17144 1.36513
8.99566 7.82577 1.40172
5.20344 -5.61483 0.904513
8.63849 7.95166 1.39329
8.94416 9.0992 1.49291
-7.03863 -5.64368 1.06733
10.1713 4.76274 1.33825
-6.91091 -3.84744 0.952824
9.17241 6.16608 1.3406
5.25229 11.5131 1.53434
-6.88553 -3.06213 0.915392
-6.87001 -3.24797 0.918726
4.88406 -5.9564 0.940273
5.97979 -6.13512 1.04322
9.40447 5.64096 1.35579
8.4963 7.25365 1.38138
-6.94254 -4.30563 1.00614
-6.87415 -4.52992 1.01445
8.29761 8.62581 1.48508
5.07238 11.4076 1.55056
-6.54317 -5.61165 1.07261
3.7128 -7.58271 1.05221
8.53951 7.7759 1.4453
6.08355 -5.62267 1.03873
9.19905 6.08242 1.39768
-6.12908 -5.4082 1.03128
8.58136 6.63863 1.38375
8.12224 7.54122 1.41005
-7.09153 -1.78053 0.934938
-7.00497 -2.30319 0.941501
-6.43906 -5.3134 1.06498
8.85852 5.67931 1.34913
8.19151 8.08155 1.48327
-7.25282 -1.25138 0.9435
-6.89034 -4.11441 1.03735
7.45848 6.24359 1.25993
8.11051 7.06902 1.39525
8.00518 8.16234 1.48167
-6.90243 -2.82296 0.970654
-6.90373 -2.96269 0.971042
4.58657 10.1573 1.465
9.02198 4.12202 1.30573
-7.23714 -1.6038 0.973908
6.84576 -4.26303 1.07194
4.93202 -5.94825 1.02456
-7.32165 -1.11539 0.991087
-7.00524 -2.19651 0.981834
-7.04226 -2.26566 0.988097
-5.98998 -4.39455 0.992686
5.19333 -6.5711 1.11635
6.91672 -4.17992 1.08813
8.10544 7.19866 1.46878
-7.14119 -1.71577 0.987137
-7.07301 -1.95304 0.98667
8.81981 4.8693 1.36848
8.3599 5.89288 1.3908
-6.91329 -3.61496 1.06286
8.89098 4.17281 1.34728
3.37782 10.6167 1.52575
-7.30131 -1.19805 1.01258
-6.00512 -4.43772 1.02679
-5.98564 -4.53646 1.02804
7.15515 -3.93814 1.12269
8.1013 6.50953 1.43747
5.38833 9.10744 1.46563
-6.37606 -4.31723 1.05547
4.93631 -5.52966 1.02983
7.19287 -3.83379 1.13452
7.5684 -3.69063 1.16523
3.65064 10.1281 1.49957
3.46583 10.429 1.53268
-7.35729 -1.08037 1.0379
-7.06393 -2.00102 1.02291
4.97544 -5.291 1.01543
7.25479 -3.74179 1.14693
7.37157 -3.67653 1.16849
7.88267 -3.36088 1.21837
-7.14447 -1.87201 1.05014
-6.99944 -2.9422 1.10011
-6.00301 -4.3698 1.06774
7.91745 -2.78662 1.22822
8.2577 4.63482 1.38757
5.02338 8.60569 1.46077
8.39518 4.52089 1.4094
7.84284 -2.34448 1.20681
7.17175 5.70916 1.37291
2.98905 9.54164 1.49558
-7.08372 -2.0166 1.10363
7.49495 -3.11432 1.2237
8.25407 4.56169 1.42971
5.81537 7.4791 1.43888
5.32 7.67513 1.42333
5.15664 7.98948 1.4447
5.11042 8.09973 1.44982
7.34455 -3.17447 1.22222
7.69174 -2.76058 1.24462
-6.74652 -1.68037 1.04704
7.84488 -2.26064 1.25211
7.26131 5.44596 1.39396
-7.09315 -1.94955 1.14133
-6.91097 -2.78226 1.15775
6.84012 5.54823 1.38171
-7.34316 -1.09391 1.15939
-7.13368 -1.82143 1.15288
-7.03651 -2.06455 1.14879
-7.11044 -1.8697 1.15355
-6.8863 -2.9305 1.17469
4.83841 7.5024 1.4201
3.4462 -6.03185 1.10939
-7.26415 -1.29733 1.18188
3.52749 -5.7068 1.08092
3.56433 -5.61215 1.0703
7.1035 4.78829 1.39618
4.69121 7.42506 1.42978
-7.06105 -2.02061 1.19676
-7.08293 -1.94413 1.20505
6.99872 4.8498 1.40844
3.84805 7.99448 1.4694
6.06 -3.32301 1.15143
6.66544 4.89667 1.37926
4.69256 7.2126 1.43573
3.83597 -5.29999 1.09975
7.13819 4.44507 1.41614
7.50314 2.8691 1.35777
6.35278 5.31075 1.40365
-7.26766 -1.25375 1.25569
6.78303 4.10106 1.3615
-6.4434 -2.76873 1.19646
5.51411 -3.63274 1.13444
5.69623 -3.52196 1.14997
2.7811 7.92658 1.45294
-7.36064 -1.03785 1.2885
5.33766 -3.78617 1.14089
-6.30372 -2.25706 1.16086
-6.26445 -2.41404 1.17533
4.28134 -4.66491 1.10736
4.49484 -4.47803 1.1131
4.59285 -4.45016 1.12207
-6.79195 -1.73024 1.23447
4.36077 6.54264 1.40301
-7.1485 -0.926851 1.28827
-6.1376 -2.25533 1.16455
6.66778 3.70776 1.36788
6.12822 4.38209 1.36678
3.60788 -5.3263 1.17006
5.17722 5.71797 1.41122
2.53885 7.26619 1.44654
6.51016 3.06405 1.36067
-1.70761 -5.78606 1.14175
6.43755 -1.38837 1.24967
6.29638 2.78824 1.32602
6.2398 2.38976 1.33333
-4.44025 3.92889 1.39329
4.34215 3.54846 1.34163
4.22628 3.30425 1.32846
4.66713 -1.67843 1.24561
4.82171 -1.38178 1.25499
-2.1346 4.78133 1.30707
3.72513 -2.9515 1.22202
3.67128 -2.54828 1.19328
3.40395 -2.95943 1.22511
4.01387 2.57571 1.33316
-2.59627 -3.53641 1.25138
-2.32799 -3.57325 1.21691
3.76158 2.06161 1.3045
3.73792 1.98367 1.30384
-2.83661 3.47777 1.38363
-2.29823 -2.421 1.18781
1.95129 -2.77553 1.21081
-2.12083 2.76304 1.3222
-2.02609 2.75126 1.32842
2.24739 -1.86699 1.22401
2.3773 -1.49649 1.22139
-2.01452 1.87522 1.29437
-2.06587 -1.4438 1.22866
1.44614 -2.06574 1.24348
-1.99365 -1.08828 1.21457
-1.9259 -0.707929 1.21995
-1.92763 -0.703705 1.24553
-1.95646 -0.344454 1.22865
-1.89378 -0.564877 1.22978
-1.89336 -0.531071 1.23485
8.24075 -8.72114 -7.48376
12.1638 -10.3194 -8.82708
-8.68622 15.5034 -6.89398
20.748 25.2675 -11.7478
-8.78659 -2.51634 -2.57544
-34.0835 -22.7679 -7.57229
-33.6989 -22.0381 -5.94154
-33.4262 -22.7159 -6.00214
-30.8824 -19.8059 -2.75925
9.31284 -8.87029 -0.392868
-7.54507 16.2636 -0.442583
-29.2304 -11.3112 0.721786
-6.90511 -8.25274 0.459545
16.917 24.2921 1.60807
11.4969 16.169 1.64096
-6.68498 -6.65802 0.882108
4.27255 12.398 1.51154
8.77904 9.14469 1.48288
7.99536 -8.78881 -10.4087
8.85921 -8.56555 -10.529
6.97583 -11.9679 -11.5432
6.89095 -11.3792 -10.9232
8.17621 -8.28851 -9.55992
7.03987 -12.0578 -11.3531
7.08575 -11.0023 -10.4837
8.02582 -8.40217 -9.23049
6.74628 -11.3147 -10.3159
6.4628 -11.7274 -10.2391
7.78031 -8.87638 -8.99802
6.22258 -14.3524 -11.8372
8.3248 -8.72807 -9.12944
6.31701 -11.9398 -10.2011
6.16314 -12.1169 -10.1365
7.51476 -9.47448 -9.02859
7.93292 -9.08243 -8.95258
10.509 -9.48707 -10.5291
6.13454 -14.1437 -11.3946
6.11349 -13.6923 -11.0244
6.14731 -12.6075 -10.3159
9.2278 -8.85556 -9.38175
9.31603 -9.10312 -9.49945
5.88042 -12.5361 -10.0583
9.39205 -9.01941 -9.29264
6.88328 -11.16 -9.30496
5.6301 -13.0009 -10.0268
9.72697 -9.11367 -9.44594
7.63223 -9.37216 -8.49755
10.034 -9.22016 -9.57285
10.959 -9.52926 -10.1898
11.4882 -9.73844 -10.1136
8.41144 -8.63514 -7.98069
7.45455 -9.32804 -7.88926
8.19477 -8.74731 -7.92228
7.65267 -9.3817 -7.92048
7.86225 -9.43198 -7.86948
8.34788 -8.56312 -7.6445
0.355035 15.8626 -10.1238
7.5522 -9.35407 -7.65025
10.9545 -9.64536 -9.27957
7.25142 -10.739 -8.20059
8.18188 -8.52497 -7.45145
4.62183 -15.4298 -10.1295
8.7407 -8.72734 -7.64187
7.94697 -9.06125 -7.43392
4.0553 -18.0395 -11.3888
8.22432 -8.65522 -7.29883
4.08959 -17.313 -10.8546
0.14126 14.8663 -9.04618
6.67718 -11.2999 -7.99045
7.76702 -9.29682 -7.35007
10.1671 -9.35048 -8.38102
6.84348 -11.288 -7.92404
8.08751 -9.2349 -7.36826
11.3164 -9.73743 -8.92527
5.41631 -13.8936 -8.84343
7.76027 -9.29608 -7.18101
9.38455 -9.06563 -7.73134
6.92605 -11.1527 -7.76946
8.00977 -9.15779 -7.13855
9.79009 -9.22243 -7.83793
14.9325 7.462 -9.69647
8.69847 -8.8626 -7.17521
6.95595 -11.0001 -7.47933
2.64589 -11.2342 -6.63732
7.88592 -9.10135 -6.89675
9.64191 -9.17495 -7.56007
10.8358 -9.53275 -8.14103
0.126458 15.3034 -8.63197
3.27732 -20.5658 -11.7115
6.82237 -11.0156 -7.26344
10.1455 -9.32725 -7.71742
12.3995 -10.404 -9.07634
9.27381 -9.03983 -7.23634
4.62938 -14.331 -8.39539
8.03215 -9.24865 -6.80285
14.8557 7.5954 -9.16154
9.73429 -9.14143 -7.33349
0.832303 17.4732 -9.55343
2.73799 -19.8098 -10.9046
11.1763 -9.68473 -8.02905
4.24866 -14.4697 -8.16242
14.7685 7.72362 -8.97859
15.1725 10.4762 -9.90141
14.099 7.77856 -8.60546
10.9959 -9.65742 -7.78189
13.3309 -10.8557 -9.14449
3.03984 -19.2896 -10.2659
11.4039 -9.86638 -7.6724
2.16678 -20.3379 -10.3233
10.3033 -9.38041 -7.00618
14.3413 -11.3429 -9.17979
13.8791 -11.2257 -8.93558
11.0552 -9.6965 -7.3257
7.53313 -9.36806 -5.95277
3.56863 -8.48083 -4.53434
-8.68263 -1.90638 -4.37035
2.2187 -20.0941 -9.91582
4.53839 -9.31147 -5.06587
0.399759 13.6605 -6.69058
7.63215 -9.29943 -5.87013
-8.42206 16.0676 -8.78384
-9.18069 -2.42701 -4.57538
15.0781 -11.6436 -9.15411
19.4939 5.5777 -9.69762
-10.2877 -2.54708 -5.01276
1.90824 -20.5122 -9.79583
17.3495 16.3052 -11.2788
7.60978 -11.2495 -6.40798
20.1534 5.43984 -9.83147
14.0972 -11.1607 -8.36068
2.93737 -17.369 -8.19029
19.4736 5.76187 -9.38291
17.9569 -13.086 -10.2625
9.88473 -2.49681 -4.71106
20.4105 5.17334 -9.71569
17.4782 16.4372 -11.0584
1.8071 -20.1618 -9.26446
9.70475 -9.07458 -6.08367
-9.19015 -1.6681 -4.25955
9.4701 -3.47496 -4.59469
6.73719 -11.3566 -6.00554
9.93227 -2.62352 -4.66004
19.3663 5.90546 -9.11611
17.8802 17.7367 -11.3243
9.38569 -3.09183 -4.44839
15.52 -11.9423 -8.78726
7.06286 -11.6035 -6.0753
7.17408 -10.9508 -5.83486
9.57691 -3.41109 -4.53072
-9.92279 16.26 -8.47846
17.7661 -12.9656 -9.77262
19.6551 5.66219 -9.06703
16.1976 7.34716 -7.87732
17.9917 18.1741 -11.3125
16.5224 -12.2877 -9.07439
-11.1439 16.9431 -8.91132
-6.50977 14.8709 -7.11535
-5.21651 4.89223 -3.11509
20.2599 5.50096 -9.12781
9.57581 -3.41135 -4.38734
18.3956 18.6462 -11.2604
15.9131 -12.2456 -8.63947
14.9456 7.47296 -7.13271
3.84601 -9.31939 -4.28318
-11.0719 16.8365 -8.52864
6.96655 -10.9406 -5.46868
-13.5249 3.31457 -5.8665
0.742674 -22.2852 -9.39687
15.8912 -12.0318 -8.33504
-5.1428 5.6623 -3.19928
0.996612 -22.143 -9.29204
1.23215 -20.7431 -8.70528
14.2488 7.6423 -6.76411
18.739 19.5299 -11.3112
3.78906 -8.96914 -4.06016
14.8579 7.77527 -6.98161
18.0971 19.3295 -10.9911
-9.49041 -1.08923 -3.94316
4.01155 -8.51087 -3.85486
14.1157 7.79454 -6.62074
6.86607 -11.0218 -5.30841
-13.5671 2.53437 -5.6457
-7.90126 15.3029 -6.99646
19.4674 21.155 -11.6497
15.1621 7.28558 -6.77889
-5.24024 14.3032 -6.10552
14.0259 -11.0886 -7.00246
1.53506 19.3421 -7.53781
-8.67553 15.6651 -6.95659
19.111 5.82828 -7.7424
-1.7489 13.2205 -5.16439
5.30825 -9.41581 -4.16818
-2.37562 13.4277 -5.23641
19.8194 22.929 -11.624
4.66822 -8.52914 -3.69241
19.5423 5.60638 -7.73723
0.871148 -26.2636 -9.98766
14.9889 -11.5503 -7.12075
20.1072 5.44751 -7.79774
9.46073 -3.44693 -3.76483
0.530528 -22.4577 -8.37269
3.25898 -10.8278 -4.22395
20.4352 23.7765 -11.6456
0.908685 -8.70954 -3.24767
14.0998 -11.1661 -6.63144
20.52 5.21909 -7.78582
18.0619 17.8483 -9.28176
-12.9876 2.2753 -4.79347
21.1111 25.2121 -11.9294
2.29367 -13.2908 -4.85845
13.0969 -10.5911 -6.06047
0.794106 15.4805 -5.54764
-8.18566 -2.79339 -3.09361
0.408999 -21.6739 -7.75005
-4.18854 13.7373 -5.10654
0.636687 -21.7906 -7.74763
15.9518 -12.0477 -7.08455
-15.5924 18.0249 -8.39769
5.94373 -11.3663 -4.50959
-10.9322 16.4955 -6.90997
0.0948156 -18.3888 -6.46489
14.3384 -11.3632 -6.39661
20.4753 5.39244 -7.3913
0.655467 -22.8816 -7.90618
-4.97683 14.4402 -5.23134
3.6452 -8.46165 -3.17135
4.88628 -9.05067 -3.5244
-14.3766 17.8475 -7.8428
2.27855 -10.8999 -3.81589
-8.813 15.9842 -6.22005
3.04319 -13.764 -4.80518
-14.8473 18.222 -7.96674
20.2924 5.51729 -7.06905
22.371 27.6761 -11.8969
36.5433 -20.6284 -14.0217
-5.26538 13.96 -4.95335
1.92291 20.8889 -6.96273
1.2676 -10.2451 -3.41332
32.8563 -20.6547 -12.7613
-5.21428 14.3511 -4.95749
-12.4792 17.0828 -6.8612
18.7006 -13.3259 -7.45619
3.56303 -8.67969 -3.00817
6.2378 -10.1416 -3.81542
2.31538 -11.0134 -3.58127
-4.48613 -33.7232 -10.8149
-1.12403 -23.6018 -7.52258
15.127 10.4184 -5.79807
-13.0952 17.4242 -6.88793
-17.816 19.2155 -8.23586
3.00361 -9.68653 -3.19956
6.98844 -11.1367 -4.06438
1.38042 -21.7808 -6.75176
-2.53996 -27.0809 -8.35055
7.2866 33.6756 -10.5181
0.769385 15.0733 -4.58566
-11.0344 16.6475 -6.01816
-2.66215 -26.1611 -7.92084
-14.2138 17.7707 -6.78844
-5.22015 -34.2519 -10.3178
0.832738 -24.8073 -7.42256
-5.34594 14.6977 -4.65037
2.09161 20.8544 -6.17736
-21.0614 19.6376 -8.49468
18.3271 5.83214 -5.66191
-4.26365 14.3118 -4.38918
-7.85752 15.2414 -5.02919
4.26589 -9.16454 -2.97089
4.65301 -11.6574 -3.66967
-12.5705 2.21447 -3.66835
-32.2947 -45.747 -16.1152
-15.0545 18.1098 -6.7686
6.9887 -11.1306 -3.78323
2.5676 -9.55873 -2.81207
12.9973 -10.5202 -4.75818
-8.43439 -2.45467 -2.49083
21.3818 27.5777 -9.88968
-8.56103 -2.25637 -2.50176
-2.51172 -25.6496 -7.23437
-12.9748 1.98824 -3.65532
4.40552 -11.3739 -3.38493
-9.22264 15.8588 -5.03507
-12.9354 17.2508 -5.92101
-5.34324 14.2556 -4.15936
-8.33142 -40.4743 -11.3083
-21.2408 19.8213 -7.80932
-9.63861 15.9813 -5.00004
-26.4097 20.2873 -8.85884
11.5223 11.5974 -4.31523
4.345 -11.3416 -3.21704
47.8156 -13.9 -13.1901
-8.01185 -37.8179 -10.1632
4.10023 -8.68005 -2.52749
11.2213 -9.98072 -3.92829
-14.3063 17.9121 -5.95966
6.5578 -10.4573 -3.19453
3.18573 -9.66844 -2.63144
-29.5068 -43.2163 -13.5141
-4.27799 -28.0689 -7.34816
3.55281 -10.4056 -2.83482
4.07947 -9.41273 -2.63653
15.7073 -11.8108 -5.01376
-7.07903 15.0789 -4.2147
-30.9486 -41.2743 -13.0835
4.329 -11.1877 -3.03568
4.26431 -7.72127 -2.24477
6.56282 -10.7048 -3.13106
45.4467 -13.7405 -11.8363
-27.9218 21.0658 -8.64675
-11.4135 16.7675 -4.9991
-27.1209 -39.5645 -11.7954
-9.67677 -38.0942 -9.69714
-24.1949 20.3216 -7.76405
4.36315 -10.3623 -2.76215
-11.9408 17.1029 -5.05634
-7.76524 15.1278 -4.09712
10.3153 -9.3044 -3.32597
40.7934 -13.5505 -10.2852
15.2119 7.60775 -4.05
-6.17799 -35.3926 -8.56042
3.97393 -9.10599 -2.35404
47.679 -12.7609 -11.7133
-11.8467 -43.6257 -10.7112
4.21607 -9.02109 -2.37522
3.88083 -11.1303 -2.77749
4.92136 -8.71615 -2.35457
-12.6459 17.2326 -4.97337
11.055 -9.68792 -3.35931
-6.08266 -30.8537 -7.17703
-26.8187 20.7134 -7.6809
42.0466 -9.19547 -9.76657
-30.0883 21.8456 -8.336
-35.0165 -22.9472 -9.38127
-5.28211 -25.1522 -5.73262
41.2316 -12.746 -9.68892
5.47076 -9.50212 -2.44777
-12.3586 2.81998 -2.78141
41.1088 -12.047 -9.46385
43.1261 -12.3051 -9.8658
28.0003 39.4371 -10.5968
-5.3152 13.9422 -3.26089
13.4657 -10.8357 -3.80403
38.5026 -12.3734 -8.88987
-23.1066 20.1386 -6.64801
-28.3415 -69.8765 -16.365
4.3233 -9.7304 -2.30871
4.55245 -9.2071 -2.2183
-14.4165 17.961 -4.91762
-30.5059 22.159 -8.05067
-31.3656 22.259 -8.22131
-26.9336 -71.4614 -16.3726
-10.5688 16.5138 -4.15623
-8.26384 -35.0852 -7.66663
3.20092 -9.71697 -2.1813
3.98077 -9.86513 -2.26789
46.4151 -10.7615 -10.1699
15.0432 7.53503 -3.56776
-14.9815 18.4419 -5.02972
5.17828 -9.07979 -2.19585
27.1949 39.3491 -9.99899
-27.342 -26.7571 -7.94412
15.0864 7.89555 -3.53607
