ply
format ascii 1.0 
element vertex 1863
comment /media/mkaihara/Seagate Backup Plus Drive/model_iterations/model_89.ply
property float32 x 
property float32 y 
property float32 z 
end_header 
-6.97618 -4.35239 0.91723
-6.84917 -3.49312 0.863807
-6.89239 -3.57758 0.870878
-6.89869 -4.23642 0.910907
-6.91986 -4.40747 0.926233
-6.91984 -4.49326 0.928949
8.70363 8.77118 1.39958
-6.95746 -3.85632 0.912585
-6.92193 -4.07387 0.910365
-6.92141 -4.15764 0.91808
5.84588 -5.7727 0.949496
-6.9342 -3.41878 0.901057
-6.94542 -4.37569 0.95273
-6.91496 -4.44731 0.954353
-6.90856 -2.83189 0.875698
-6.88997 -3.61961 0.911361
-6.97502 -4.13796 0.954486
-6.92137 -4.20677 0.949173
8.47881 8.01958 1.38491
-6.92425 -2.98497 0.909821
-6.90243 -3.97302 0.956621
-6.8855 -3.65867 0.946861
-6.92936 -4.12977 0.98802
-6.91518 -4.31362 0.999315
-6.47547 -5.36398 1.0281
6.00094 -5.95 1.03261
-6.91393 -3.75493 0.975598
-6.91223 -3.91976 0.987171
-7.01854 -4.74484 1.05704
-6.94175 -4.39179 1.03681
-6.87391 -3.48121 0.976333
-7.08612 -2.17227 0.947372
-6.89113 -3.08493 0.96874
-6.90987 -3.1626 0.977928
-6.15053 -5.49134 1.07455
-6.93103 -3.23308 1.00025
-6.38532 -4.36622 1.01923
-6.80287 -3.78716 1.03198
-6.89011 -4.18802 1.07002
-7.05718 -2.137 0.985204
-7.00723 -2.33781 0.994101
-6.91343 -3.2691 1.02174
-6.91266 -3.5422 1.04
-6.92036 -3.39626 1.05317
-7.03848 -2.16315 1.02345
-6.9367 -3.18215 1.05685
-6.90651 -3.26583 1.0564
-6.85408 -3.65259 1.07219
-6.91016 -2.94783 1.05027
-6.87547 -3.41321 1.07153
-6.89079 -3.75739 1.10426
-6.94007 -3.23861 1.08324
-6.00775 -4.49386 1.06766
-6.89464 -3.58734 1.11643
7.66479 6.32191 1.43617
5.17526 8.29866 1.41473
-6.89833 -3.4955 1.11984
7.29344 -3.51932 1.17546
-6.89033 -3.28174 1.11374
-6.8868 -3.39355 1.11983
-6.87052 -3.20285 1.11541
-7.17251 -1.75512 1.08858
-6.92206 -2.9443 1.11736
-6.92752 -3.03176 1.12184
7.10633 5.59454 1.40038
-6.38129 -2.28653 1.0518
7.04105 5.15745 1.39292
-7.01994 -2.41278 1.19438
-6.46739 -2.82241 1.1512
3.76888 7.89818 1.4426
-6.31482 -2.26317 1.11382
-6.48403 -2.29148 1.1717
-6.15267 -2.28162 1.14322
2.54639 7.36069 1.47711
7.82327 -8.51295 -10.1629
7.95076 -8.79583 -10.3773
7.68292 -8.73979 -10.1259
8.18105 -8.31299 -9.99139
6.93356 -11.4532 -10.9709
8.13327 -8.26052 -9.51215
6.93705 -11.8676 -11.1618
8.01128 -8.39755 -9.22429
7.95592 -9.14944 -9.44048
8.22581 -8.68514 -9.30192
7.8451 -8.97094 -9.08986
8.2856 -8.69405 -9.1136
6.31445 -13.9612 -11.4377
7.47624 -9.40487 -8.98002
7.9131 -9.06699 -8.91027
6.21074 -14.3228 -11.4992
6.25241 -12.8459 -10.4997
9.21219 -8.81636 -9.33786
9.19759 -8.97261 -9.35233
5.94984 -12.7031 -10.1797
5.88719 -13.0744 -10.2682
9.34475 -8.97351 -9.27046
9.20156 -9.01572 -9.15108
6.90258 -11.177 -9.31993
5.60062 -12.9307 -9.97289
6.49755 -10.9798 -8.7761
11.73 -9.95382 -10.3283
8.23332 -8.61683 -7.88822
7.42411 -9.26178 -7.82907
8.23712 -8.77221 -7.93876
9.15051 -8.7751 -8.34784
7.59794 -9.31644 -7.85302
12.0704 -10.0811 -10.2362
4.66153 -15.7842 -10.6423
9.17138 -8.81307 -8.17992
5.00348 -15.3369 -10.4009
7.75034 -9.29401 -7.7466
8.24319 -8.46442 -7.55533
0.354932 15.6965 -10.0132
4.73371 -15.1192 -10.0874
10.8693 -9.55928 -9.20582
7.90928 -9.06972 -7.62765
8.15529 -8.48841 -7.42912
4.71471 -15.7512 -10.3301
-0.391082 13.6166 -8.51778
8.82892 -8.79508 -7.69655
4.2245 -18.6789 -11.8275
7.91243 -9.04936 -7.42211
8.26185 -8.56482 -7.34889
4.25821 -15.3985 -9.78587
8.21377 -8.63524 -7.2876
4.24571 -18.148 -11.368
0.157397 15.0628 -9.17486
3.7541 -17.84 -11.0346
4.17233 -15.7522 -9.85409
7.04236 -10.8135 -7.74559
8.04628 -9.20345 -7.34382
4.1952 -16.5733 -10.1895
8.28599 -8.66171 -7.14182
9.39995 -8.99144 -7.7527
7.01058 -11.0562 -7.78677
7.72364 -9.2577 -7.15683
9.05223 -8.80598 -7.48417
7.99266 -9.15851 -7.11404
8.57285 -8.76669 -7.15787
9.68681 -9.14427 -7.76521
6.76353 -13.3163 -8.62302
9.23461 -8.96648 -7.43436
5.78757 -13.3532 -8.40031
6.87996 -10.86 -7.4104
9.54785 -9.09739 -7.51051
11.9139 -10.2183 -8.86244
10.7728 -9.46842 -8.06922
6.87769 -11.0969 -7.32912
9.13128 -9.07656 -7.22057
9.24643 -9.01435 -7.22115
12.5888 -10.509 -9.16056
4.6487 -14.3567 -8.43627
10.1863 -9.37402 -7.73911
8.521 -8.69967 -6.779
2.744 -17.3204 -9.67456
14.7162 7.52633 -9.03652
2.71105 -19.8934 -10.9207
2.4255 -8.79105 -4.94631
2.97443 -19.8923 -10.8687
14.6867 7.64922 -8.89209
2.36391 -20.2093 -10.806
10.9405 -9.59523 -7.74215
9.77017 -9.02345 -7.04398
14.8772 7.46516 -8.80852
2.36108 -8.80929 -4.82047
1.6573 -19.8371 -10.2821
2.38723 -20.8672 -10.7734
13.8973 -11.1042 -9.11681
-9.31209 -2.60986 -4.92329
11.3193 -9.80261 -7.60593
2.17291 -20.2903 -10.2845
0.854707 17.4898 -8.70773
10.9742 -9.62808 -7.27891
-8.88238 -1.95389 -4.46153
2.21216 -20.236 -9.99545
3.84966 -9.1835 -4.89152
11.2388 -9.64409 -7.25103
1.99634 -19.9147 -9.78314
-8.46176 16.2413 -8.88197
2.50295 -11.2007 -5.49174
1.99538 -21.1337 -10.1085
14.8383 7.58481 -7.86757
17.2469 16.1526 -11.1751
17.5981 16.861 -11.3227
14.3085 -11.3151 -8.45992
9.79442 -2.60714 -4.69836
17.1766 16.1659 -10.8984
9.74204 -2.4657 -4.64921
-10.3667 17.0235 -9.08748
-9.58663 -2.07716 -4.44895
9.84337 -2.60444 -4.6219
10.173 -2.39552 -4.73418
9.75041 -2.97433 -4.6141
-5.41134 4.46121 -3.16262
8.07614 -8.31222 -5.22615
17.7314 17.2765 -11.1148
17.6038 17.4475 -11.141
19.1217 5.81677 -8.96633
7.13031 -10.8838 -5.79746
20.2447 5.31538 -9.30046
9.55126 -3.4179 -4.51054
-10.0112 16.4576 -8.55628
-5.36316 4.91518 -3.22351
19.2239 5.55359 -8.84543
-11.4395 17.4421 -9.18128
17.8755 17.7296 -11.0384
-6.60072 15.1364 -7.25104
9.57851 -3.59568 -4.45886
19.9855 5.41601 -8.97792
18.0117 18.2734 -11.0613
17.8042 18.421 -11.041
14.8047 7.57639 -7.08859
3.85584 -9.34047 -4.28388
-11.3756 17.3068 -8.75318
-13.5272 3.3133 -5.87137
1.26356 -21.4778 -9.01605
3.24902 -10.184 -4.4727
14.1288 7.61047 -6.70991
18.5758 19.3907 -11.2323
3.8639 -9.1724 -4.14542
14.7503 7.69066 -6.9004
18.2542 19.4583 -11.0785
13.9646 7.71344 -6.56078
3.99839 -8.46739 -3.83905
6.76358 -10.8364 -5.23294
-13.4563 2.53115 -5.60466
14.909 7.4721 -6.79749
-8.11119 15.696 -7.185
1.19048 -10.6084 -4.33605
0.756898 -21.771 -8.8227
-13.0127 2.35697 -5.32131
-9.33583 -1.44141 -3.77192
-5.09388 5.65327 -3.01796
2.83337 -11.754 -4.76936
14.1546 -11.1676 -7.04934
1.51898 19.0656 -7.43125
3.93637 -13.1381 -5.30298
18.9107 5.7811 -7.62117
0.885661 -26.3651 -10.0722
4.74547 -8.66794 -3.75125
11.6909 -10.1217 -5.87675
19.2678 5.5482 -7.60043
19.974 23.6793 -11.5677
19.8551 5.39243 -7.6767
20.2715 23.6269 -11.5994
3.25847 -10.8311 -4.22063
-13.2441 17.8382 -8.19935
11.8562 -10.0618 -5.71822
20.2451 5.16828 -7.65999
20.8492 24.924 -11.8031
-8.19045 -2.82414 -3.13895
19.1887 5.69273 -7.2062
2.28005 -13.2286 -4.83025
0.810909 15.7273 -5.64384
-4.33207 14.1274 -5.2707
-8.24464 -2.80733 -3.10776
6.72909 -10.5084 -4.43078
-16.223 18.7463 -8.76577
15.8942 -12.0022 -7.05699
-11.2482 16.9591 -7.11594
19.2293 5.86266 -6.98091
3.71477 -8.66383 -3.25159
-8.93005 16.2419 -6.30876
2.98228 -13.4587 -4.70257
18.8324 -13.4716 -7.92267
33.7633 -20.9187 -13.5016
-15.1514 18.5623 -8.08929
19.9662 5.42497 -6.93667
36.615 -20.6772 -14.0447
40.1761 -19.7727 -14.9257
16.37 7.34272 -5.97664
3.44692 -10.2569 -3.60831
1.34818 -10.924 -3.63862
-6.34779 15.1482 -5.35862
-12.8788 17.6657 -7.11725
15.7036 -12.0685 -6.44424
6.03701 -9.83617 -3.70988
3.33927 -10.1325 -3.42142
-1.14543 -23.9663 -7.66271
2.32463 -11.0303 -3.59124
3.23043 -10.0552 -3.34718
2.8261 -9.03936 -2.9869
13.5783 -10.7367 -5.44143
-18.2274 19.7037 -8.40623
-8.72285 -2.65685 -2.85608
1.37045 -21.5324 -6.66234
19.5481 25.3077 -9.63717
3.22193 -9.86258 -3.12848
3.4509 -8.97964 -2.89552
-14.5701 18.2239 -6.98159
-21.7052 20.2423 -8.79178
-8.06299 15.682 -5.18996
4.76693 -11.9756 -3.77637
4.14859 -8.9187 -2.89198
2.06767 20.4172 -6.02487
-4.39172 14.7774 -4.51775
4.05588 -8.95539 -2.87464
-15.5042 18.6544 -6.99628
-33.0638 -47.2493 -16.495
7.11955 -11.0862 -3.75938
2.54507 -9.47716 -2.78223
-8.4218 -2.20601 -2.45448
4.43092 -10.9988 -3.34361
-2.49501 -25.1505 -7.08108
-9.40423 16.2187 -5.16492
4.35403 -11.236 -3.32272
8.56221 -8.35153 -3.28678
-13.2699 17.6816 -6.05263
44.9908 -14.9167 -12.9221
-8.74189 -2.44519 -2.45801
-24.8081 20.8223 -8.76178
3.24166 -9.96445 -2.83218
3.3932 -9.96837 -2.84453
-4.32729 -31.0977 -8.42831
-27.2567 20.9045 -9.1575
42.1475 -13.9058 -11.7308
45.3577 -13.13 -12.4945
-8.70963 -39.1936 -10.5766
-8.49717 -40.0624 -10.7931
-14.6636 18.3764 -6.1024
9.81356 -8.92432 -3.46723
11.2813 -10.0172 -3.91957
-10.7898 16.8374 -5.17497
-4.35738 -28.5566 -7.50325
3.25782 -9.84966 -2.68226
3.5144 -10.2841 -2.81288
-26.6653 21.1396 -8.72901
4.26793 -11.0304 -2.99285
4.39556 -9.66376 -2.67825
9.44916 -9.13802 -3.31398
6.89277 -11.3259 -3.32807
-27.6629 21.3451 -8.73087
43.3971 -12.6322 -11.2791
-11.6855 17.2181 -5.1657
11.7693 -10.135 -3.8394
3.35945 -10.2191 -2.64733
-24.9267 20.9392 -7.96485
9.9442 -8.98064 -3.22395
-7.96174 15.5345 -4.19181
4.0348 -11.9215 -3.03328
15.0009 7.53432 -4.01643
3.37289 -11.0864 -2.77874
3.16167 -9.8613 -2.46843
-6.89533 -39.4263 -9.52417
-11.4865 -44.1197 -10.8074
3.96381 -9.08137 -2.34394
-29.3944 21.9675 -8.67005
14.8117 7.58086 -3.89625
-9.58038 16.5508 -4.49274
3.91457 -11.2871 -2.81273
-13.0215 17.7541 -5.14669
-26.8822 21.3309 -7.97043
3.47669 -10.3002 -2.49309
11.0034 -9.44646 -3.34695
15.5732 -11.7401 -4.4682
-38.209 27.0349 -10.7044
-12.8661 -44.7873 -10.6193
10.8741 -9.50797 -3.30477
-12.141 -43.6343 -10.2734
-6.27914 -31.8377 -7.38336
40.2246 -12.4357 -9.54168
-27.5 21.2448 -7.8416
14.6361 -11.3582 -4.16632
-31.321 22.7517 -8.68773
4.44552 -5.79983 -1.64026
5.28403 -9.16002 -2.36641
-29.4365 -75.9362 -18.0053
-9.78668 16.385 -4.20501
4.0979 -9.75636 -2.32912
13.3955 -10.8058 -3.795
4.00001 -9.15923 -2.19825
40.5964 -12.0055 -9.27214
-23.8861 20.8213 -6.91108
3.38764 -10.0811 -2.28239
4.388 -9.87779 -2.33905
14.8852 7.4823 -3.57833
-29.4403 22.0289 -7.90496
-21.6114 -34.2638 -8.70258
-8.51914 -36.0761 -7.92706
-24.8272 20.9398 -6.92144
-31.6083 22.9583 -8.31477
3.24072 -9.90791 -2.22501
4.86474 -8.84726 -2.1413
14.6987 7.67514 -3.50889
4.21969 -10.4636 -2.40137
41.2582 -10.752 -9.03609
-10.6957 16.7556 -4.19501
4.3302 -9.13143 -2.12001
5.14729 -9.03026 -2.17794
14.7058 7.39964 -3.42931
-38.8317 25.5708 -9.67882
-27.5562 -25.5507 -7.76733
3.02333 -9.4613 -2.06482
-29.1205 -30.7075 -8.71896
-20.121 -31.4176 -7.68169
3.8474 -9.31406 -2.07962
3.73228 -8.72444 -1.94777
-15.857 18.7517 -5.02753
-25.8222 -68.4429 -15.0128
3.98228 -8.7686 -1.96951
-14.0389 3.07126 -2.9363
-33.939 -23.986 -8.47458
-28.9276 -79.904 -17.2951
-11.5145 -37.0774 -7.89447
43.3722 -9.47212 -9.01858
14.8558 7.58949 -3.34212
-17.9562 -23.7869 -5.98857
12.2965 -10.0487 -3.19384
-19.4965 -55.7717 -11.7897
4.17012 -10.7292 -2.29621
-12.216 17.5178 -4.24357
-26.5756 20.9111 -6.70376
-35.8776 -21.239 -8.28839
-32.5943 -25.4552 -8.19584
-9.42273 -36.526 -7.50975
14.4664 -11.4054 -3.65034
4.02172 -9.80503 -2.08937
3.21905 -9.84016 -2.02992
-36.2403 23.946 -8.4418
-23.9163 -57.5858 -12.0504
-16.4057 -47.3695 -9.55889
3.48266 -8.89171 -1.82901
-20.5362 -33.2596 -7.4207
-32.386 -25.2751 -7.74581
-29.3803 -26.0887 -7.39587
-22.6246 -55.9064 -11.4083
3.87735 -9.0714 -1.87909
-17.1265 -46.7108 -9.30952
3.43634 -9.20639 -1.81454
-32.8584 -24.525 -7.46377
-31.6699 -27.1544 -7.60271
-33.5423 23.6148 -7.39507
-20.7945 -51.4472 -9.89965
-31.6322 -25.4814 -7.14386
-25.2103 -65.2733 -12.3245
-34.8276 23.177 -7.32552
-17.0358 -48.0397 -8.93595
3.39758 -9.55074 -1.77202
14.0211 7.78156 -2.78037
-29.2205 -25.6106 -6.75745
3.46737 -9.49658 -1.75344
4.79081 -8.6439 -1.71281
-27.272 21.4114 -5.99229
-31.2286 22.7131 -6.66067
-31.4444 -28.9626 -7.37611
3.87989 -9.98472 -1.84855
13.8741 7.47927 -2.70779
-24.3206 -55.8809 -10.3631
-20.9456 19.9291 -4.87915
-31.8886 -25.3459 -6.90706
-20.2913 -50.3074 -9.19682
5.58912 -11.7113 -2.19148
41.8046 -11.8069 -7.36514
-18.6935 -49.889 -8.96842
40.9522 -10.6551 -7.1188
4.98628 -10.7003 -1.9655
-10.5032 16.6993 -3.20164
-30.6759 -23.7461 -6.32144
42.1799 -11.3274 -7.10809
-22.4448 20.3889 -4.91896
-21.0138 -51.9875 -8.90416
-23.2475 20.4403 -4.88313
-24.4862 20.874 -5.00655
-33.4654 23.5735 -6.33373
3.80429 -10.0773 -1.65553
-32.4854 -25.1179 -6.27637
-14.1169 -42.5876 -6.89108
-31.5902 22.9897 -5.93973
-23.4522 -56.4424 -9.30686
-7.76519 15.7248 -2.64537
-33.742 -23.7125 -6.21322
-33.0053 -24.2649 -6.20687
-28.109 -26.3737 -5.80038
-33.6037 -24.1856 -6.20956
-31.7466 -25.4125 -6.07858
-35.2184 -23.5232 -6.28659
-25.204 21.1576 -4.85157
-33.5307 -25.092 -6.17154
-32.4813 -24.5972 -6.0165
-25.8832 21.3286 -4.90693
-12.8152 -42.4662 -6.50133
-12.768 17.4657 -3.11743
-7.77787 15.5616 -2.48181
3.50026 -9.53784 -1.44581
38.1093 -12.5335 -5.70663
-33.8707 -24.9502 -5.95078
-30.9662 -24.6107 -5.56657
-30.4487 -25.6813 -5.60888
-21.0824 -50.7978 -7.66353
-6.93912 15.3766 -2.29122
-14.1739 18.1093 -3.12019
-12.0055 -42.024 -5.95062
-7.52174 15.2451 -2.28369
-25.1534 -65.4785 -9.48922
-22.6968 20.6409 -4.08619
-25.3946 -57.5588 -8.35868
-31.7033 -24.4733 -5.28641
44.9221 -10.3514 -6.06302
44.3054 -9.73968 -5.97651
-13.7629 -42.7709 -5.90447
6.61039 -10.8944 -1.67626
-15.2028 18.6212 -3.1291
-23.1064 20.3512 -3.99188
-33.0274 -24.6563 -5.30593
10.6708 8.75189 -1.78104
-34.1706 23.4952 -5.32455
-30.1422 22.9367 -4.77494
-31.313 -24.5156 -5.01687
-13.0104 -37.0155 -4.96081
9.63703 -9.01944 -1.6473
12.7329 -10.4061 -2.07055
-34.3056 24.0657 -5.24018
-36.5255 -22.7555 -5.35948
-30.981 -25.6073 -4.99423
6.7534 -10.2709 -1.53436
-33.329 -23.558 -5.05746
-13.9359 -43.4773 -5.61534
13.1217 -10.9387 -2.09737
41.4194 -10.7649 -5.28479
-16.3882 18.8665 -3.05509
-16.2283 -39.3345 -5.20132
-8.86611 15.8508 -2.21278
43.2641 -9.96612 -5.37646
14.9252 7.79132 -2.02182
9.3835 -8.90366 -1.54441
-34.1469 -23.8247 -4.93712
-18.0924 19.6638 -3.12709
-20.9355 9.26451 -2.71285
-32.1201 -24.8669 -4.79073
11.2416 -9.67042 -1.73644
41.7633 -11.1802 -5.09126
14.6269 -11.3571 -2.12889
14.853 7.63471 -1.89836
-30.3677 23.0944 -4.35254
7.23679 -10.9894 -1.49349
-10.3921 16.5922 -2.19328
9.41324 -9.28016 -1.47169
12.7121 -10.4408 -1.83461
13.8983 -10.9697 -1.96987
9.4176 -9.08201 -1.45231
7.03065 -10.4116 -1.37646
44.2275 -9.65938 -4.92807
-11.0473 16.5949 -2.15034
-33.687 23.7542 -4.47676
11.6597 -9.79599 -1.64466
6.14644 -12.6397 -1.47883
7.52319 -11.5159 -1.43178
9.80964 -8.87095 -1.3917
-15.7342 -45.4665 -5.04412
16.4567 -12.1869 -2.14813
-31.4613 -63.2071 -7.32368
14.7965 7.45074 -1.69287
-31.409 -25.0317 -4.12558
13.7536 -10.882 -1.79773
-32.1817 -24.8934 -4.11662
14.7829 7.72373 -1.67544
-12.8317 17.1602 -2.10609
-20.924 -53.0509 -5.52619
-33.7778 -68.2347 -7.28936
-23.7239 20.7529 -2.9782
-31.2706 -25.6171 -3.84266
-31.2512 -25.9588 -3.87209
-22.3273 -58.4236 -5.89751
-14.2648 18.2535 -2.16891
-31.5295 -24.6671 -3.73611
-16.0435 -43.6985 -4.33661
-14.2455 -44.2769 -4.33866
9.77915 -9.06409 -1.23925
-34.3014 -66.8169 -6.91985
8.53168 -8.62858 -1.10197
16.3905 -12.2124 -1.87046
-15.1765 18.6171 -2.15521
-36.2081 -22.5207 -3.85875
-33.6344 23.7472 -3.62654
-31.3275 -25.274 -3.55718
13.9605 -11.1035 -1.58386
-32.4314 -19.7631 -3.2405
10.9983 -9.65191 -1.24626
-27.036 21.9302 -2.92416
-11.5646 -35.9934 -3.19506
9.35995 -8.97465 -1.08898
-34.3669 23.6284 -3.46537
8.65373 -8.65531 -1.00553
16.6513 -12.1438 -1.68396
-17.0751 -44.3693 -3.82106
-21.937 -50.1813 -4.28732
-15.564 -38.423 -3.28618
-13.5621 -38.0521 -3.20972
9.16434 -8.90593 -1.00424
11.2312 -9.73609 -1.16557
14.77 -11.5527 -1.48496
-30.3799 23.167 -2.97316
-29.4679 -13.755 -2.5264
11.7973 -9.99442 -1.19874
-23.7606 -52.9173 -4.44327
12.7056 -10.546 -1.25129
-42.5744 -80.7713 -6.60852
9.90582 -9.0914 -0.97467
10.8548 -9.6892 -1.01439
-33.5422 -20.8228 -2.73125
11.8906 -9.99336 -1.07574
14.6183 -11.5097 -1.29349
-15.8292 -39.9977 -2.9278
-15.4445 -40.8576 -2.9946
18.4303 -13.3195 -1.51006
-23.6198 20.6804 -2.08363
-25.5659 -58.9755 -4.25111
12.8008 -10.5301 -1.10839
-14.9635 -41.5135 -2.86815
15.1752 -11.4579 -1.23597
-33.4724 -67.7707 -4.74744
-15.3873 -47.694 -3.11453
-33.3447 23.5557 -2.49849
-33.9146 -67.0674 -4.57504
-17.3478 -42.2575 -2.78569
30.5487 -20.2537 -2.23197
41.5295 -10.8299 -2.60612
36.1195 -8.70835 -2.25156
-15.4688 -41.5305 -2.67802
-27.3696 22.2128 -1.99836
-29.1963 -14.3741 -1.88053
-16.1877 -42.1714 -2.51998
16.776 -12.5177 -1.17295
-27.3531 -16.4601 -1.71856
42.106 -9.37904 -2.21899
-9.43009 -12.6001 -0.798991
-15.7694 -41.9671 -2.23354
5.6752 -12.3861 -0.677144
-14.3882 18.2398 -1.13294
-15.5453 -48.8607 -2.51871
14.7984 7.76365 -0.804884
-16.7025 -42.8122 -2.18458
-14.994 -48.7652 -2.40783
18.5746 -13.1787 -1.09189
-17.7172 -51.3808 -2.53583
36.4016 -8.94043 -1.75679
-29.0963 -14.8783 -1.46223
-25.1206 -57.5609 -2.78579
-16.9032 -41.5897 -1.99894
9.61752 -9.07547 -0.589706
12.5349 -10.2882 -0.72804
43.706 -10.0004 -1.99438
-14.4083 -43.8269 -1.96418
-33.2679 23.5175 -1.69627
-54.7248 29.7207 -2.48335
-34.3318 23.6266 -1.5287
-19.393 -50.7146 -2.03846
-34.9674 -22.0196 -1.47711
9.70441 -9.03124 -0.48752
6.57628 -10.7835 -0.438401
-13.3662 -39.8459 -1.39168
7.41366 -13.0129 -0.511684
18.4707 -13.0823 -0.764786
-27.4858 -60.1984 -2.17966
-13.6473 -38.7175 -1.33059
20.8212 24.014 -1.0201
-23.4412 20.8104 -0.986849
-21.4763 -54.9911 -1.83136
20.8525 -14.22 -0.767568
-27.8307 -14.3219 -0.948716
-13.3548 -42.7404 -1.33183
-24.4187 20.7484 -0.919949
-24.4155 -56.1896 -1.74332
-18.0488 -48.8486 -1.50278
-34.8183 -21.2149 -1.12771
-9.82595 -12.8916 -0.462994
-23.5943 -55.6417 -1.70652
17.8949 -13.3313 -0.568267
29.5532 49.3182 -1.48865
-30.5396 23.3012 -0.987069
-31.7168 23.1983 -0.971274
-27.435 -13.1823 -0.745829
9.52588 -8.96422 -0.316692
-21.1624 -34.0863 -0.93581
-40.7533 14.1363 -0.942537
21.0511 -14.0854 -0.538046
18.2996 -13.193 -0.423462
12.7445 -10.47 -0.274911
-33.4889 10.5907 -0.580069
-28.5115 -13.5771 -0.499848
-37.483 -21.3461 -0.655226
-18.5661 -45.5134 -0.760977
-8.02606 16.879 -0.253798
-32.9 -24.5773 -0.569427
-34.2674 -23.3604 -0.530794
17.1744 -12.8137 -0.260134
18.0895 -13.0242 -0.282829
28.6274 -17.6524 -0.449138
-22.0898 -56.5764 -0.737474
-30.7269 23.4264 -0.411511
-28.6181 -61.0648 -0.718701
-19.0502 -43.6941 -0.510732
-54.3929 29.8089 -0.515161
-34.6852 -61.1861 -0.648706
-20.6531 -54.1652 -0.551304
37.0865 -8.95962 -0.350959
-14.5007 18.405 -0.16426
-36.8776 -82.1229 -0.617105
-18.3493 -44.5056 -0.328336
9.53313 -8.97034 -0.0408236
14.697 7.73693 -0.0280978
-29.647 -13.2256 -0.0586177
-11.749 -17.1061 0.025165
-12.9693 -19.5208 0.0444734
-19.1143 -43.8765 0.196987
9.40016 -8.94967 0.0591003
-33.2968 23.5642 0.212687
-22.4878 -56.7717 0.294849
-30.46 -14.137 0.201753
16.7084 -12.191 0.115493
-13.226 -20.2789 0.157802
14.6107 -11.3813 0.145626
-54.0681 19.3717 0.509189
7.03994 -12.0961 0.117412
15.8788 -11.7663 0.167642
-36.882 -22.3183 0.452257
37.7629 -7.7615 0.401187
-35.703 -22.3742 0.479968
-12.8154 -35.3957 0.438732
-13.299 -35.762 0.461727
-11.4104 -32.8565 0.422662
-9.80359 -30.3327 0.385277
24.911 50.4403 0.733681
9.54493 -8.97777 0.169347
-12.9011 -19.9912 0.323761
-11.1045 -33.7085 0.485539
8.53318 -8.47698 0.182298
6.24147 -12.7688 0.206917
7.10979 -10.9557 0.199301
9.30202 -9.01759 0.187055
7.99432 -9.07085 0.193312
9.67963 -8.96263 0.217236
37.2496 -7.9806 0.624825
-24.2837 20.8246 0.573754
-33.5949 -22.6026 0.6967
-34.9396 -25.635 0.758865
12.8312 -10.5407 0.271987
13.139 -10.5975 0.316238
-9.95252 -12.6188 0.30336
6.78753 -11.1239 0.254045
7.94947 -9.34264 0.241156
25.4186 52.2984 1.16629
6.93643 -10.9028 0.259735
9.13741 -8.64561 0.267197
11.4595 -9.84969 0.331059
17.1269 -7.64985 0.377522
7.16954 -10.8778 0.294809
-12.9076 -19.8147 0.564716
7.61028 -9.26532 0.273073
7.7929 -9.3194 0.281988
-26.107 21.9425 0.886664
-29.1867 -9.35964 0.769353
9.57304 -8.90712 0.336327
17.3359 -12.6641 0.541136
18.1566 -13.0738 0.556316
-23.3712 20.4618 0.810068
-28.2467 22.3237 0.940719
-29.1984 -8.76342 0.798306
-33.5263 -17.8763 1.03194
-13.4784 -20.353 0.648587
14.6449 -11.379 0.494762
22.5406 -3.27959 0.640949
-12.3006 -19.1801 0.658967
24.7356 -4.68587 0.732679
16.0133 24.8507 0.886514
-28.3452 -20.8815 1.04169
7.18002 -11.2469 0.400609
6.92488 -10.6342 0.386471
14.4343 23.5137 0.847537
-7.63793 -8.82578 0.35693
12.9387 -10.5871 0.510448
-7.3354 -9.53387 0.36843
-28.8196 -8.13449 0.996783
-11.981 -17.5137 0.710403
7.83177 -9.30255 0.402341
15.9793 10.9173 0.693298
10.7938 -9.39862 0.519895
11.8148 -9.98231 0.563552
21.9292 44.1584 1.85235
-7.46265 -8.14745 0.413011
9.59992 -8.91148 0.488986
22.6078 -3.17413 0.876398
25.4811 52.6735 2.26644
-7.46567 -9.90924 0.485272
10.369 -9.45695 0.550493
12.6376 -10.4374 0.662188
21.382 -2.62056 0.878236
-29.4632 -17.8747 1.40911
8.69575 -8.65662 0.507095
-6.93603 -8.48093 0.470974
9.38723 -8.88001 0.540197
12.511 14.3619 0.841466
-29.1647 -8.55933 1.33594
14.4777 18.8573 1.0688
14.6749 25.2671 1.3024
20.8402 40.9806 2.0339
6.11359 -13.6211 0.6658
10.7778 -9.4554 0.648414
18.3443 -1.62799 0.842553
18.804 35.8034 1.89727
14.6089 25.7396 1.38813
-11.2387 2.78761 0.558
-7.26062 -9.57038 0.579324
9.11931 -8.93814 0.604766
11.3289 -8.69169 0.668667
19.9435 -2.28542 0.967002
11.5047 11.7247 0.81598
15.4557 37.1693 1.97941
7.71947 -9.4083 0.599028
10.1254 -9.22186 0.678206
14.2479 24.1603 1.40489
19.4035 37.6269 2.14938
20.8209 -2.59369 1.06689
-7.42105 -8.52583 0.586464
9.33533 -8.88826 0.671204
16.3487 23.9742 1.52475
16.0574 29.1102 1.73558
12.9105 -10.6416 0.888954
10.4335 12.1967 0.858664
13.9729 18.967 1.26581
11.0058 -9.54318 0.787688
14.7472 19.2142 1.33606
-26.7352 20.4941 1.84197
-6.98155 -8.19083 0.595465
10.1311 12.2484 0.890395
-7.27984 -9.3978 0.665826
9.87004 12.2953 0.914634
-28.2053 19.8574 1.95982
6.05293 -12.7833 0.80989
11.0557 11.9514 0.935967
-6.89329 -6.80314 0.561808
11.1453 11.8847 0.95957
-6.82231 -8.43026 0.649123
6.19914 -12.4611 0.813327
14.3862 19.141 1.44004
13.8179 22.592 1.58006
12.9742 29.9839 1.96099
-6.18334 6.58582 0.555203
-8.18736 -7.75785 0.682336
-7.13199 -8.1817 0.666654
5.67473 -12.3413 0.821495
-7.4957 -6.90119 0.633973
6.95901 -11.0876 0.809505
6.94541 -10.4966 0.785626
11.2664 -9.72522 0.919206
12.0454 -10.0765 0.973216
16.0767 7.12004 1.12041
14.6326 18.9556 1.51527
-7.24987 -6.31831 0.623872
10.2048 -9.32024 0.891951
-7.39187 -6.27099 0.636006
11.3454 11.9717 1.12398
9.31325 20.9659 1.56222
-7.29245 -9.68 0.809745
11.499 12.4716 1.16387
-6.96531 -4.46369 0.569229
-6.76686 -8.21863 0.726092
-6.70859 -4.4396 0.55507
9.22583 -8.82047 0.888615
9.95083 -7.80708 0.89097
12.5236 15.7842 1.45699
9.76346 -8.24477 0.934465
11.2754 16.8594 1.52489
11.1944 17.8469 1.57384
9.40846 17.9071 1.52546
8.81767 19.056 1.57925
7.12736 21.2422 1.68432
10.5691 18.2427 1.60626
9.96928 -7.56377 0.956846
-7.042 -7.2034 0.772022
-17.2927 -6.27221 1.4386
9.43172 -7.64631 0.951835
9.14473 18.2646 1.61216
-6.38835 -4.26562 0.6092
-6.84523 -8.23858 0.849225
4.83027 -5.72796 0.595744
8.81593 19.3953 1.68979
7.5854 18.5462 1.61104
5.02288 -5.78902 0.617531
12.6441 11.4095 1.38011
11.6509 11.7032 1.35231
6.7003 -9.34725 0.934908
12.1046 11.5777 1.37695
6.50308 19.0901 1.65065
-6.3645 -4.39356 0.630486
-7.1823 -9.50577 0.977919
11.4191 11.9633 1.36844
10.3821 9.08248 1.17466
-5.05838 -11.5407 1.06435
6.11577 -6.03598 0.750078
9.18112 -7.15237 1.001
-6.80742 -6.70493 0.811917
10.3111 12.2196 1.39581
8.76375 -7.30243 0.991646
10.7071 12.0697 1.41211
-7.32617 -7.78201 0.93711
8.16186 -7.2661 0.970258
10.0881 12.3306 1.43228
-7.08701 -7.75872 0.931831
-6.95455 -8.36023 0.976057
10.478 12.18 1.459
10.3689 13.3752 1.53333
-7.13418 -8.34846 1.00043
11.1086 10.73 1.42065
-6.32237 -4.23647 0.700029
-6.87815 -8.61466 1.00867
-6.33637 -4.39993 0.711299
10.9957 8.48565 1.30344
10.5498 9.24847 1.3082
6.36938 15.1301 1.54391
10.4007 11.1892 1.4456
-11.2848 2.89176 1.10123
6.14735 -5.95542 0.816005
7.98095 -6.61625 0.995754
10.6502 9.12005 1.36124
9.41572 12.3891 1.50677
9.60014 12.32 1.53882
7.57169 12.1092 1.41866
7.80565 13.0486 1.5135
11.1397 7.99944 1.39776
7.04412 12.5347 1.45107
8.96481 11.2347 1.4625
6.8946 13.3477 1.53744
5.76961 13.7093 1.52684
9.10893 10.3846 1.42772
8.9276 12.1624 1.56758
11.3054 7.60229 1.42127
9.16743 9.91419 1.40594
4.96909 -5.81467 0.821152
-6.85684 -4.66353 0.874967
5.48113 13.6553 1.56166
-7.07086 -4.5142 0.89489
8.83947 10.5915 1.48124
-6.77935 -6.78905 1.02645
5.90135 -5.82482 0.895693
9.61607 8.46637 1.38104
8.8849 9.27994 1.38186
9.17071 10.2231 1.48906
4.69312 13.6011 1.55265
4.22797 -8.04089 0.984161
6.39321 10.6957 1.37119
-6.81196 -3.931 0.865977
6.26636 11.7494 1.47739
-6.90623 -3.86925 0.877272
9.64636 7.15748 1.34329
6.59137 11.2492 1.45204
9.74183 6.98474 1.34669
5.36254 11.4316 1.42764
5.36363 11.9261 1.47689
4.63136 12.0522 1.46074
9.77359 6.64286 1.34685
-6.9033 -4.57123 0.948502
7.39043 -6.21637 1.10082
-7.34667 -0.787155 0.847625
-6.28449 -5.39883 0.954431
5.24535 -5.56399 0.88237
8.81373 7.83556 1.37398
4.41381 -7.17621 0.976032
10.3585 5.12812 1.35363
8.89774 7.74053 1.38637
5.19689 -5.60774 0.903292
8.54272 7.86344 1.37774
8.83182 8.98484 1.47405
-7.0612 -5.66182 1.07116
10.0905 4.72488 1.32755
-6.9301 -3.85815 0.956009
9.08985 6.11053 1.32845
5.1441 11.2755 1.50226
-6.90455 -3.07061 0.918512
-6.88882 -3.25689 0.921822
4.87819 -5.94919 0.939062
5.96633 -6.12128 1.04079
9.3244 5.59289 1.34415
8.40948 7.17947 1.36715
-6.96225 -4.31789 1.00951
-6.89351 -4.54271 1.01781
8.1974 8.52154 1.46699
4.96719 11.1707 1.51789
-6.56176 -5.62765 1.07607
3.70561 -7.56796 1.05016
8.44659 7.69122 1.42944
6.07098 -5.61101 1.03649
9.11697 6.0281 1.3851
-6.1442 -5.42161 1.03425
8.5 6.57563 1.37051
8.03591 7.46098 1.39492
-7.11382 -1.78613 0.938571
-7.02566 -2.31001 0.944938
-6.45627 -5.32766 1.06826
8.78364 5.63126 1.33762
8.09854 7.98975 1.46627
-7.27773 -1.25568 0.947474
-6.90948 -4.12587 1.04077
7.39111 6.18713 1.24843
8.02928 6.99814 1.38113
7.9131 8.06836 1.46445
-6.9217 -2.83085 0.973988
-6.92296 -2.97096 0.97436
4.5006 9.9664 1.43698
8.95866 4.09305 1.29647
-7.26115 -1.60913 0.977854
6.8304 -4.25344 1.06943
4.92588 -5.9408 1.0232
-7.34745 -1.11932 0.995337
-7.02607 -2.20305 0.985429
-7.06331 -2.27245 0.991721
-6.0026 -4.40386 0.995282
5.18321 -6.55824 1.1141
6.90089 -4.17032 1.08553
8.02283 7.12522 1.45363
-7.16403 -1.72127 0.991007
-7.09481 -1.95906 0.990406
8.75245 4.83206 1.3579
8.28782 5.84201 1.37867
-6.93244 -3.62501 1.06639
8.82857 4.14348 1.3377
3.29795 10.3645 1.4887
-7.3267 -1.20221 1.01686
-6.0179 -4.44723 1.02949
-5.99838 -4.54617 1.03073
7.13762 -3.92847 1.11982
8.02571 6.44872 1.4239
5.30742 8.97043 1.44321
-6.39145 -4.3277 1.05854
4.93139 -5.52411 1.02871
7.17511 -3.8243 1.1316
7.5475 -3.68042 1.16189
3.57351 9.91319 1.46704
3.38682 10.1903 1.4968
-7.3835 -1.08421 1.04236
-7.08555 -2.00715 1.02674
4.97094 -5.28618 1.0144
7.23656 -3.73236 1.14393
7.35239 -3.66694 1.16532
7.85914 -3.35083 1.2146
-7.16698 -1.87792 1.05417
-7.01922 -2.95053 1.10386
-6.0157 -4.3791 1.07052
7.89355 -2.77818 1.22438
8.1976 4.60103 1.37732
4.95087 8.48114 1.43921
8.3347 4.48827 1.39909
7.81928 -2.33742 1.20306
7.11185 5.66139 1.36124
2.92426 9.33336 1.46204
-7.10548 -2.0228 1.10774
7.47484 -3.10595 1.22029
8.19454 4.52874 1.41922
5.74879 7.39327 1.42206
5.25496 7.58107 1.40553
5.0896 7.88533 1.42548
5.04245 7.99173 1.43009
7.32585 -3.16637 1.21897
7.66981 -2.7527 1.24093
-6.76633 -1.68532 1.05084
7.82122 -2.25381 1.24819
7.20296 5.40212 1.38255
-7.11508 -1.95559 1.1456
-6.9304 -2.79011 1.16167
6.7843 5.50286 1.37021
-7.36917 -1.09778 1.1643
-7.15615 -1.82717 1.15726
-7.05776 -2.0708 1.15299
-7.13267 -1.87556 1.1579
-6.9054 -2.93866 1.17861
4.77837 7.40902 1.40201
3.44687 -6.03292 1.10948
-7.28892 -1.30176 1.18671
3.52889 -5.70897 1.0812
3.56586 -5.61446 1.07061
7.05206 4.75355 1.38585
4.63305 7.33268 1.41155
-7.08259 -2.02678 1.20115
-7.10478 -1.95014 1.20952
6.94765 4.81433 1.39794
3.79009 7.8735 1.44653
6.05104 -3.31808 1.14958
6.61647 4.86061 1.36889
4.63634 7.12589 1.41802
3.83716 -5.30157 1.09993
7.08926 4.41453 1.40621
7.46263 2.85356 1.35026
6.30267 5.26876 1.3923
-7.29255 -1.25804 1.26081
6.73955 4.07469 1.35255
-6.45916 -2.77554 1.20007
5.50869 -3.62915 1.13317
5.68965 -3.51787 1.14849
2.7323 7.78617 1.4263
-7.38692 -1.04155 1.29395
5.33322 -3.783 1.13978
-6.31899 -2.26255 1.1644
-6.27917 -2.41974 1.17882
4.28174 -4.6653 1.1073
4.49445 -4.4776 1.11285
4.592 -4.4493 1.1217
-6.81183 -1.73531 1.23886
4.31305 6.4707 1.38711
-7.17308 -0.930021 1.29356
-6.15152 -2.26046 1.16792
6.62807 3.68561 1.3595
6.08743 4.35282 1.35741
3.60984 -5.3291 1.17052
5.13153 5.66734 1.39836
2.49772 7.14693 1.42183
6.47612 3.04796 1.35332
-1.7057 -5.78043 1.14103
6.42381 -1.3854 1.24683
6.26565 2.77457 1.31931
6.21192 2.37903 1.32713
-4.47213 3.95764 1.40501
4.31816 3.52866 1.33374
4.20449 3.28703 1.32112
4.6649 -1.67763 1.24474
4.81803 -1.38073 1.25375
-2.15935 4.8398 1.32526
3.72872 -2.95429 1.22288
3.67478 -2.55067 1.19408
3.40869 -2.96347 1.22645
3.99767 2.56514 1.32726
-2.59289 -3.53221 1.25063
-2.32416 -3.56788 1.21582
3.74943 2.05478 1.29975
3.72629 1.97734 1.29924
-2.85477 3.50131 1.39472
-2.29436 -2.41732 1.18693
1.95872 -2.78558 1.21464
-2.1304 2.77726 1.33069
-2.03493 2.76522 1.33684
2.25359 -1.87192 1.22664
2.38266 -1.49972 1.22342
-2.01955 1.88115 1.29995
-2.0626 -1.44184 1.22816
1.45242 -2.07375 1.24758
-1.99074 -1.08694 1.21434
-1.92351 -0.707192 1.22011
-1.92528 -0.702997 1.24571
-1.95481 -0.344159 1.22937
-1.89161 -0.564328 1.23012
-1.89125 -0.530561 1.23523
8.20424 -8.68288 -7.45136
12.0754 -10.2448 -8.76414
-8.87822 15.851 -7.05135
20.2632 24.674 -11.4677
-8.82605 -2.52762 -2.58702
-34.9816 -23.3678 -7.77085
-34.5636 -22.6037 -6.09323
-34.2951 -23.3064 -6.15737
-31.5872 -20.258 -2.82176
9.25529 -8.81541 -0.390637
-7.85871 16.9395 -0.460687
-29.7564 -11.5148 0.735313
-6.9359 -8.28956 0.461779
16.4019 23.5523 1.55949
11.2474 15.818 1.60539
-6.70723 -6.68021 0.885351
4.16408 12.0824 1.47251
8.66801 9.02895 1.46401
7.96442 -8.7554 -10.3695
8.82229 -8.5304 -10.4861
6.94999 -11.926 -11.5035
6.86586 -11.3398 -10.886
8.14426 -8.25654 -9.52338
7.01572 -12.0191 -11.3171
7.05927 -10.9629 -10.4468
7.99405 -8.36933 -9.19479
6.72121 -11.2747 -10.2799
6.43929 -11.6871 -10.2046
7.74985 -8.84222 -8.96379
6.19944 -14.3039 -11.798
8.2895 -8.69155 -9.09167
6.29417 -11.8992 -10.1671
6.14231 -12.0788 -10.1052
7.4833 -9.43553 -8.99206
7.90181 -9.04751 -8.91853
10.4477 -9.43217 -10.4689
6.11587 -14.1056 -11.3644
6.09839 -13.6632 -11.0013
6.12599 -12.567 -10.2834
9.18266 -8.81264 -9.33682
9.27033 -9.05898 -9.45391
5.85993 -12.4957 -10.0265
9.34617 -8.97586 -9.24826
6.85359 -11.1135 -9.26694
5.6111 -12.9609 -9.99666
9.67453 -9.06491 -9.39607
7.6012 -9.33479 -8.46414
9.97866 -9.16976 -9.52117
10.8964 -9.47546 -10.1328
11.4154 -9.67729 -10.0508
8.37552 -8.59872 -7.94738
7.4231 -9.2893 -7.85703
8.15813 -8.70856 -7.88767
7.61978 -9.34202 -7.8875
7.82843 -9.3921 -7.83668
8.31127 -8.52593 -7.6117
0.36198 15.8804 -10.1343
7.5195 -9.31417 -7.61815
10.8876 -9.587 -9.22409
7.21656 -10.6885 -8.16282
8.14638 -8.48831 -7.41982
4.6106 -15.4007 -10.1109
8.70454 -8.69186 -7.611
7.91301 -9.02308 -7.40303
4.0464 -18.0145 -11.3736
8.189 -8.61847 -7.2682
4.08553 -17.3093 -10.8524
0.147758 14.8869 -9.05786
6.64655 -11.2497 -7.9557
7.73466 -9.25877 -7.3204
10.1043 -9.29294 -8.33025
6.81272 -11.2389 -7.89028
8.05129 -9.1941 -7.33616
11.242 -9.67381 -8.86771
5.39585 -13.8459 -8.81383
7.72661 -9.25635 -7.15078
9.33685 -9.01999 -7.69289
6.89394 -11.1024 -7.73519
7.97446 -9.11797 -7.10795
9.73566 -9.17152 -7.79525
14.7899 7.39017 -9.60112
8.65529 -8.8189 -7.14035
6.92474 -10.9522 -7.44739
2.63817 -11.206 -6.62131
7.85099 -9.06154 -6.86702
9.58793 -9.12389 -7.51861
10.7708 -9.47603 -8.09315
3.28028 -20.6105 -11.7367
6.79373 -10.9709 -7.23455
10.0864 -9.27324 -7.67334
12.3036 -10.3238 -9.00738
9.22581 -8.99341 -7.19968
4.61063 -14.279 -8.36578
7.99352 -9.20458 -6.77099
14.7117 7.52123 -9.07007
9.67991 -9.09069 -7.29335
0.838617 17.4608 -9.54521
2.74272 -19.8722 -10.9386
11.105 -9.62336 -7.97881
4.22677 -14.4016 -8.12513
14.6254 7.64823 -8.88898
15.0031 10.3582 -9.78746
13.9641 7.70354 -8.52042
10.9252 -9.59566 -7.73279
13.2205 -10.7661 -9.07009
3.04515 -19.3473 -10.2962
11.3275 -9.80068 -7.62199
2.16901 -20.3962 -10.3527
10.2374 -9.32056 -6.9622
14.2192 -11.2469 -9.10306
13.7552 -11.1258 -8.85722
10.9796 -9.63036 -7.2765
7.49745 -9.32412 -5.92538
3.5613 -8.46408 -4.52561
-8.72399 -1.91547 -4.39158
2.22509 -20.1876 -9.96138
4.52957 -9.29476 -5.05689
0.405415 13.652 -6.68519
7.59639 -9.25629 -5.8434
-8.57569 16.3683 -8.95082
-9.22706 -2.43927 -4.59882
14.933 -11.5319 -9.0675
19.2769 5.51545 -9.58798
-10.3474 -2.56185 -5.04213
1.90964 -20.5701 -9.82339
17.0837 16.0534 -11.1014
7.56767 -11.1884 -6.37392
19.9228 5.37748 -9.71737
13.9783 -11.0671 -8.29145
2.92439 -17.3094 -8.16318
19.2539 5.69673 -9.27537
17.7529 -12.9379 -10.1477
9.84265 -2.48608 -4.6904
20.1758 5.11374 -9.60244
17.2068 16.1801 -10.8822
1.811 -20.2486 -9.30393
9.65165 -9.02529 -6.05106
-9.23734 -1.67667 -4.28179
9.4322 -3.46095 -4.57584
6.69865 -11.2928 -5.97266
9.88975 -2.61219 -4.63951
19.147 5.83845 -9.01118
17.5812 17.4381 -11.1303
9.34867 -3.07952 -4.43032
15.3598 -11.8193 -8.698
7.02113 -11.5361 -6.04091
7.13671 -10.8948 -5.80571
9.53795 -3.39711 -4.51183
-10.111 16.5743 -8.64469
17.5622 -12.8173 -9.66219
19.4317 5.59771 -8.96237
16.0266 7.2693 -7.79208
17.6856 17.8628 -11.1153
16.3492 -12.1593 -8.98078
-11.3912 17.3234 -9.11429
-6.63037 15.1552 -7.25408
-5.25921 4.93317 -3.14233
20.0246 5.43697 -9.02028
9.53692 -3.3974 -4.36908
18.0722 18.3164 -11.0578
15.7497 -12.1204 -8.55227
14.7945 7.39705 -7.05851
3.83429 -9.29197 -4.27098
-11.3114 17.205 -8.71799
6.92936 -10.8832 -5.44069
-13.6593 3.34757 -5.92551
0.743344 -22.4353 -9.45954
15.7393 -11.9174 -8.25676
-5.19093 5.71648 -3.23121
0.999398 -22.3009 -9.35759
1.23141 -20.7975 -8.72814
14.1074 7.56602 -6.69483
18.3943 19.1685 -11.0984
3.77908 -8.94637 -4.05016
14.7063 7.69549 -6.90822
17.7712 18.9791 -10.7884
-9.54213 -1.09515 -3.96497
4.00488 -8.49756 -3.8489
13.9744 7.71608 -6.5523
6.82882 -10.963 -5.28081
-13.6961 2.55854 -5.7
-8.06648 15.629 -7.14835
19.0792 20.731 -11.4124
15.0071 7.2108 -6.70763
-5.33331 14.5687 -6.22126
13.8967 -10.9867 -6.93905
1.52798 19.1678 -7.46687
-8.86595 16.0141 -7.11435
18.8954 5.7624 -7.65359
-1.76211 13.3638 -5.22141
5.28797 -9.38049 -4.15296
-2.39923 13.5925 -5.30195
19.393 22.4331 -11.3686
4.65611 -8.50755 -3.68325
19.3185 5.54207 -7.64721
0.879229 -26.669 -10.14
14.8403 -11.436 -7.05131
19.8731 5.38398 -7.7056
9.4231 -3.43315 -3.74947
0.534688 -22.809 -8.5017
3.24221 -10.7742 -4.20386
19.9811 23.2455 -11.3816
0.910432 -8.73019 -3.25502
13.9718 -11.065 -6.57233
20.2779 5.15744 -7.6927
17.7369 17.5257 -9.11083
-13.1052 2.29594 -4.83733
20.6149 24.6168 -11.6436
2.28279 -13.237 -4.83957
12.9868 -10.5022 -6.01042
0.796213 15.4022 -5.51756
-8.2194 -2.8049 -3.10649
0.410344 -21.9532 -7.84846
-4.26885 14.0146 -5.21213
0.638932 -22.0068 -7.82355
15.7819 -11.9196 -7.01034
-15.9918 18.4882 -8.61603
5.91845 -11.3198 -4.49162
-11.198 16.8996 -7.08191
0.0929417 -18.5906 -6.5346
14.2073 -11.2597 -6.33918
20.2327 5.32846 -7.30249
0.658523 -23.1407 -7.9946
-5.08543 14.7665 -5.3523
3.63638 -8.44165 -3.16406
4.87097 -9.02298 -3.51388
-14.7467 18.3088 -8.04805
2.27342 -10.88 -3.80923
-9.0287 16.3798 -6.3768
3.0186 -13.6594 -4.76992
-15.2302 18.6939 -8.17548
20.0515 5.45172 -6.98392
21.7702 26.9304 -11.5718
35.6796 -20.1415 -13.6933
-5.38536 14.2868 -5.07216
1.90607 20.6315 -6.87361
1.26744 -10.2505 -3.41512
-5.33098 14.6822 -5.07453
-12.7967 17.5195 -7.03909
18.4568 -13.1521 -7.36038
3.55859 -8.67 -3.00483
6.20877 -10.0952 -3.79842
2.31286 -11.0065 -3.57917
-4.63057 -34.7706 -11.1477
-1.14989 -24.0664 -7.66862
14.9353 10.286 -5.7224
-13.4322 17.8746 -7.06835
-18.31 19.7494 -8.46695
6.94495 -11.0682 -4.04005
1.38798 -21.9666 -6.80871
-2.60714 -27.7543 -8.55577
7.09253 32.7442 -10.2215
0.771164 14.9906 -4.55857
-11.3231 17.0853 -6.17892
-2.73871 -26.8796 -8.13561
-14.5909 18.2436 -6.97135
-5.37747 -35.2498 -10.616
0.841731 -25.2199 -7.54449
-5.48101 15.0782 -4.77358
2.07039 20.5758 -6.09159
-21.6561 20.1929 -8.73671
18.1221 5.76684 -5.5974
-4.36078 14.6516 -4.4959
-8.05879 15.6359 -5.162
4.25079 -9.13268 -2.96089
4.62783 -11.5964 -3.6511
-12.6804 2.23384 -3.70063
-33.8049 -47.8844 -16.8648
-15.458 18.5965 -6.9526
6.94041 -11.0541 -3.758
2.56212 -9.54039 -2.80689
12.8904 -10.434 -4.71983
-8.47037 -2.46512 -2.50148
20.8149 26.8436 -9.6224
-8.59858 -2.26625 -2.51277
-2.59382 -26.4574 -7.45915
-13.0897 2.00586 -3.68787
4.37883 -11.3066 -3.36561
-9.46897 16.2852 -5.17289
-13.2815 17.7139 -6.0821
-5.48413 14.6392 -4.27403
-8.7017 -42.2501 -11.8008
-21.855 20.395 -8.03701
-9.8966 16.4115 -5.137
-27.2026 20.8966 -9.12631
11.3689 11.4423 -4.25534
4.31777 -11.272 -3.19801
46.5133 -13.5215 -12.8329
-8.41009 -39.6831 -10.6602
4.08413 -8.646 -2.51792
11.1388 -9.90745 -3.90001
-14.7024 18.4091 -6.12701
6.52433 -10.4047 -3.17892
3.17467 -9.63619 -2.623
-30.852 -45.1857 -14.127
-4.44936 -29.1789 -7.63522
3.53535 -10.3558 -2.8218
4.0628 -9.37485 -2.6263
15.5374 -11.683 -4.96048
-7.28327 15.5178 -4.34008
-32.2832 -43.0535 -13.6447
4.30303 -11.122 -3.01851
4.25098 -7.69687 -2.23787
6.52154 -10.6379 -3.1121
44.246 -13.3773 -11.5255
-28.797 21.7263 -8.91907
-11.7282 17.2313 -5.13945
-28.1932 -41.1272 -12.259
-10.1433 -39.9207 -10.1584
-24.92 20.9309 -7.99814
4.34251 -10.3144 -2.74983
-12.2705 17.5767 -5.19838
-7.98 15.5495 -4.21364
10.2489 -9.24466 -3.30503
39.8311 -13.2309 -10.0442
15.0455 7.52436 -4.00434
-6.46327 -37.0074 -8.94753
3.96123 -9.07754 -2.34693
46.3893 -12.4157 -11.3982
-12.5121 -46.0655 -11.3062
3.84707 -11.0342 -2.75441
4.9015 -8.68103 -2.34538
-12.9983 17.7139 -5.11411
10.9765 -9.61932 -3.336
-6.31355 -32.0119 -7.44379
-27.6432 21.3503 -7.91809
41.048 -8.97685 -9.53587
-31.0714 22.5595 -8.60933
-35.9614 -23.5664 -9.63327
40.256 -12.4444 -9.46125
5.4448 -9.45733 -2.43661
-12.4694 2.84526 -2.80638
40.1274 -11.7592 -9.23942
42.0695 -12.0037 -9.62566
-5.47726 14.3728 -3.36421
13.3399 -10.7344 -3.7692
37.6508 -12.0997 -8.69467
-23.7986 20.7419 -6.84825
-30.9568 -76.3196 -17.8683
4.30126 -9.68118 -2.29747
4.53116 -9.16416 -2.20833
-14.8289 18.4755 -5.06004
-31.5218 22.8969 -8.31963
-32.4216 23.0084 -8.49894
-29.6216 -78.5883 -17.9992
-10.875 16.9935 -4.27887
-8.64569 -36.6972 -8.01589
3.18427 -9.66713 -2.17057
3.95766 -9.80816 -2.25531
45.1915 -10.4776 -9.90333
14.8787 7.45248 -3.5275
-15.4158 18.9772 -5.17723
5.15525 -9.03953 -2.18643
26.1092 37.7753 -9.59419
14.9167 7.8066 -3.49502
-30.5647 -23.6052 -8.01085
-11.6438 17.1561 -4.21423
-15.8838 18.7801 -5.00803
-35.8709 24.0792 -8.77941
43.8632 -9.5674 -9.15573
-13.6589 -43.9495 -9.35216
4.12735 -9.71437 -2.14763
11.5668 -9.61514 -3.06054
-12.1996 17.5076 -4.26044
-20.7088 -59.4326 -12.5762
-13.3152 -41.3608 -8.60129
4.06134 -9.90088 -2.11901
-34.6078 -23.6644 -8.26435
-27.195 21.3438 -6.80442
-33.6231 -24.0511 -8.05794
-7.01363 15.4995 -3.30319
-27.6458 -64.9575 -13.7105
-34.0281 -22.6535 -7.87716
3.4293 -9.34453 -1.92226
45.2743 -10.4897 -8.92465
-12.958 17.6921 -4.19298
3.98156 -9.32716 -1.93552
-36.9687 -22.4558 -8.18752
-21.6803 -35.219 -7.8646
-16.0688 -46.3639 -9.28315
37.4825 -12.3646 -7.46194
-36.6549 24.6185 -8.26381
-34.1738 -23.6011 -7.80157
-33.1118 -24.2259 -7.70112
-22.0539 -54.6355 -11.0846
-17.4007 -47.264 -9.34106
3.81526 -9.19509 -1.83892
42.0544 -11.3344 -8.08868
5.74566 -9.69265 -2.06521
-25.4188 -57.6374 -11.5314
-21.1107 -52.3971 -10.2159
-14.7982 18.4465 -4.19389
-31.5439 -25.4408 -7.20297
-20.5829 -27.4273 -6.13173
-40.1647 25.3444 -8.37973
-27.2066 21.3624 -6.021
-34.7207 23.7591 -7.30505
3.90101 -10.0282 -1.86601
4.76485 -8.5999 -1.70871
13.9398 7.48601 -2.72863
14.0107 8.03994 -2.76623
-31.3728 22.8138 -6.6503
41.738 -11.8085 -7.38534
41.5436 -10.7594 -7.30598
-31.7009 -25.1765 -6.86691
-21.4043 20.3849 -4.96395
-21.0777 -52.3903 -9.54039
14.7909 7.41316 -2.77439
-32.2607 22.8387 -6.6028
-24.4152 -58.2089 -10.4289
43.0316 -11.5923 -7.24428
-10.5198 16.7011 -3.18584
-21.3823 -53.0456 -9.12045
-35.3989 -24.4361 -6.7777
-23.1365 20.3274 -4.82286
-24.5674 20.9723 -5.00659
-40.879 24.7508 -7.40533
-11.4012 17.0643 -3.1688
3.46518 -9.51004 -1.56554
3.85966 -10.2066 -1.68979
-7.75406 15.7278 -2.67922
-31.6105 23.007 -5.97665
-32.2077 -24.8762 -6.18799
-28.3351 -26.5043 -5.87745
41.7274 -10.8478 -6.55401
44.3198 -9.65568 -6.91105
-6.65674 14.8278 -2.43279
9.81439 -5.14446 -1.64465
-33.9675 -24.4992 -6.23652
10.167 -9.14122 -2.0377
44.4559 -10.2843 -6.77697
-37.1942 -24.7596 -6.57559
-31.9668 -26.3675 -6.06136
-13.0519 -43.2446 -6.64538
16.8353 -12.1803 -3.04417
-25.8008 21.2425 -4.85705
-25.5751 -57.3033 -9.04147
-7.74927 15.5216 -2.48145
-12.9095 17.6016 -3.11264
6.01591 -11.4934 -1.85399
-13.6241 18.2101 -3.19511
-35.3334 23.8684 -5.99484
6.7401 -11.0097 -1.8045
37.2027 -12.2775 -5.51061
-31.5882 -25.3116 -5.64897
-33.6027 24.1486 -5.73254
-21.2521 -51.2206 -7.65842
44.6038 -9.97832 -6.30309
-6.99511 15.4708 -2.32108
-23.5661 -61.5037 -8.94623
7.73495 -9.36071 -1.62975
-14.222 18.1593 -3.10979
13.1675 -10.5021 -2.27921
-22.5733 20.5331 -4.10352
41.6476 -10.768 -5.71151
44.3341 -9.71094 -6.00776
-22.9559 20.2014 -3.99879
-33.1476 -24.8038 -5.40731
-15.1272 18.5239 -3.09266
-34.6282 23.1124 -5.40509
-38.8434 -16.4012 -5.44377
6.99834 -10.408 -1.60941
10.7231 8.77923 -1.77909
-34.2757 -23.6206 -5.32672
-31.9892 23.3528 -5.01015
-36.0776 -22.5128 -5.32994
41.5182 -10.7373 -5.36723
6.7783 -10.3406 -1.54517
-7.78871 15.5793 -2.15733
-25.4198 21.3445 -4.06456
-33.9956 23.959 -5.13033
6.27374 -12.0324 -1.65339
44.2878 -9.44867 -5.5472
14.9303 7.8221 -2.02622
-18.4586 -44.7056 -5.83157
7.06784 -10.5044 -1.52463
-20.7149 9.18057 -2.68174
-14.7561 -44.6361 -5.52715
-32.2934 -24.8977 -4.76778
-31.773 -25.4103 -4.76063
41.5965 -11.1424 -5.06182
11.1979 -9.64336 -1.71229
-30.3955 23.0472 -4.38868
6.62431 -10.7935 -1.45002
7.47389 -9.20176 -1.35616
11.5478 -9.69411 -1.7127
9.43385 -4.60224 -1.18865
14.9094 7.6615 -1.8889
-10.5165 16.7422 -2.23175
-32.7585 23.9367 -4.5452
38.477 -12.6661 -4.54328
9.33427 -9.00136 -1.43478
-11.2402 16.858 -2.20299
6.76706 -12.7403 -1.56294
44.427 -9.65552 -4.92924
10.7203 8.80947 -1.49507
16.6903 -12.398 -2.2318
41.7877 -10.8379 -4.62636
9.59528 -8.95648 -1.39079
8.36219 -8.44714 -1.24531
-31.3259 -25.068 -4.17754
-31.2925 -62.7665 -7.31596
14.9067 7.4759 -1.70356
-32.2309 -24.8521 -4.17567
-13.0574 17.7999 -2.24182
-12.97 17.3768 -2.15555
10.1809 -9.06427 -1.33554
-21.5944 -54.8414 -5.77789
6.29281 -12.051 -1.31609
16.5614 -12.1166 -1.97284
41.6775 -11.1993 -4.13729
-31.8747 -64.4307 -6.83301
-21.6031 -56.6926 -5.76128
-23.6755 20.7086 -2.94052
45.1094 -10.035 -4.3169
9.69229 -8.96462 -1.22233
39.2905 -12.9609 -3.85591
-15.2524 18.6969 -2.18533
-29.9966 -13.6764 -3.00489
-33.5465 -65.3961 -6.77434
15.784 -11.8141 -1.79383
8.61724 -8.708 -1.10951
12.8438 -10.6019 -1.45049
44.7001 -10.3606 -3.93129
9.37896 -9.00595 -1.09318
10.9195 -9.61596 -1.22319
-34.7601 23.8713 -3.50888
16.7602 -12.2221 -1.71843
-17.4221 -45.3354 -3.88992
14.6196 -11.4316 -1.48018
-11.9787 -33.5348 -2.81058
-30.3268 23.059 -2.94616
-33.6755 23.803 -3.18344
-23.4566 -53.581 -4.51541
-52.271 28.448 -4.50616
-21.7186 20.4405 -2.16953
-33.9055 23.9824 -3.00965
16.2992 -12.1787 -1.48875
41.701 -11.1592 -3.14557
-41.0496 -77.6695 -6.33975
13.9178 -11.0117 -1.27037
-15.9777 -42.3846 -3.12626
10.7346 -9.58673 -0.986253
-23.7 20.7515 -2.12744
12.8222 -10.5802 -1.11305
17.857 -12.9515 -1.47099
15.9644 -12.0751 -1.32227
-15.0663 -41.7728 -2.87251
43.4265 -11.2942 -2.80533
-33.0978 -67.0614 -4.56363
35.5278 -8.61902 -2.24405
42.6209 -9.75517 -2.68476
6.02098 -13.015 -0.857378
30.598 -20.2465 -2.19616
-10.002 16.6969 -1.14439
-15.9688 -41.6557 -2.54028
16.5278 -12.3519 -1.15883
-9.72989 -12.6132 -0.87294
14.8966 7.64248 -0.905061
13.8456 -10.9602 -0.945846
-12.9793 17.5889 -1.14181
-16.8904 -41.8643 -2.39758
14.791 7.77753 -0.818862
-16.7267 -42.7556 -2.25281
-14.3654 18.2081 -1.10911
9.54158 -9.00021 -0.601755
-24.8083 -56.9072 -2.80932
12.4068 -10.1994 -0.74481
-16.4854 -45.9546 -2.16777
-17.6667 -43.5271 -2.01133
6.8254 -12.6031 -0.636103
-14.323 -43.6608 -1.95752
-53.7327 29.2217 -2.47723
18.2346 -13.1002 -0.911545
16.7164 -12.4252 -0.811473
-43.4481 -84.3287 -3.57929
-18.7997 -49.299 -1.9435
-34.2063 23.5029 -1.5175
42.1773 -10.8675 -1.56887
-35.8672 -71.3462 -2.67212
-26.7552 -58.6341 -2.17036
19.9155 23.0333 -1.01049
-21.7624 20.3933 -0.971442
8.07288 -14.248 -0.550263
9.39842 -8.97222 -0.421331
11.2635 -9.91581 -0.487969
18.4878 -13.0722 -0.744475
34.5209 -13.0201 -1.22487
21.6575 26.2163 -1.08976
-27.636 -13.862 -0.968922
-23.2463 20.7008 -0.94829
-32.2189 22.8189 -1.23169
-25.8613 -59.4559 -2.00855
-14.155 -40.044 -1.30853
-22.26 -56.782 -1.8471
-17.1082 -46.3668 -1.41632
-34.447 -20.886 -1.07281
11.4124 -9.68151 -0.401091
16.2586 -12.0929 -0.534437
-41.8285 25.8764 -1.29651
-30.7916 23.4294 -0.956726
-31.3135 22.9488 -0.917279
9.54407 -8.98462 -0.303785
-41.9488 14.4985 -0.98036
-32.2962 -54.0802 -1.41912
21.1315 -14.1328 -0.559169
30.211 -18.319 -0.797971
14.1751 3.91741 -0.2999
26.7156 46.6843 -0.987699
23.3975 -10.8928 -0.454847
46.6069 -10.732 -0.890159
-31.0056 -22.2817 -0.696141
-30.011 -29.4768 -0.667084
-19.5274 -47.9151 -0.862186
12.6741 -10.4223 -0.270172
18.4159 -13.3071 -0.347538
-29.553 -13.1356 -0.424352
-33.2672 -24.8964 -0.578068
-34.6817 -69.9156 -1.05451
-28.6879 -61.0569 -0.925139
-34.3757 -23.4768 -0.543385
-30.8124 23.4416 -0.455173
16.9104 -12.6282 -0.250875
29.0534 -18.0145 -0.402776
-31.2676 22.9548 -0.431233
-19.5831 -44.9127 -0.524793
-12.302 -37.0275 -0.393446
-34.4509 -60.7016 -0.643758
-14.54 18.4436 -0.179841
-26.9503 -13.5875 -0.24349
-15.2396 18.5768 -0.163887
-22.8931 20.4456 -0.157389
-21.3089 19.9869 -0.132361
-10.6145 -13.6458 -0.0606912
14.6593 7.70089 -0.0198514
11.0731 -9.73686 -0.00790178
-34.9137 -19.123 0.0609252
-11.5918 -34.451 0.117758
16.8714 -12.2575 0.0902865
-19.2901 -44.2864 0.214001
18.6757 -13.1584 0.12109
7.14797 -12.2871 0.10363
25.8355 -10.5997 0.171502
-56.4304 20.1496 0.572451
16.1699 -11.9835 0.19196
37.122 -7.57888 0.357225
-29.3432 -8.27411 0.356957
-36.7651 -22.1907 0.473756
-11.5646 -33.1341 0.375837
-12.9927 -36.0032 0.455045
-10.4973 -32.2662 0.406527
6.30139 -12.88 0.182966
7.19085 -11.0779 0.173568
-28.6404 22.4818 0.558378
11.277 -9.84867 0.224975
-24.4907 20.9438 0.532699
10.8666 -9.70253 0.228528
12.9229 -10.6385 0.263575
36.0869 -7.72303 0.613713
-35.0141 -23.4588 0.766704
-31.7533 22.7037 0.767422
6.11482 -12.7758 0.274779
7.00017 -11.0162 0.251382
8.00689 -9.39551 0.240982
26.5836 54.6617 1.3228
7.71046 -9.42105 0.275161
10.1016 -9.14935 0.328711
-29.0778 -9.32409 0.735874
-23.6673 20.6579 0.850851
-28.0279 22.0998 0.958913
-29.2071 -8.7699 0.803933
9.16717 -8.87359 0.344566
9.59984 -8.9223 0.357158
-25.9993 21.9124 0.924796
25.2203 -5.10208 0.716262
12.9326 -10.6093 0.498169
14.5986 23.7821 0.861275
6.16247 -12.7128 0.444533
7.43138 -11.5843 0.431832
-28.7243 -8.10117 0.979579
-12.721 -19.4774 0.766279
-28.403 -8.87734 1.02921
16.0042 10.9541 0.701058
-30.1622 -18.6904 1.24039
15.5013 26.927 1.10917
-30.7782 -16.7886 1.29937
23.4014 -4.22569 0.859022
-28.1422 -20.0152 1.2797
-7.31477 -7.97561 0.408525
9.02917 -8.80474 0.468711
12.3275 13.4851 0.704662
25.1632 51.9093 2.18527
24.0495 51.2037 2.13075
-11.6056 -9.1863 0.583764
8.70279 -8.64855 0.485278
-26.0807 21.4842 1.37279
21.7195 -2.94355 0.88788
-29.1121 -17.6827 1.3955
9.38981 -8.90332 0.53046
12.346 14.219 0.810357
6.5493 -12.4029 0.595571
14.6818 19.0767 1.05852
20.4316 28.2215 1.5262
-9.54745 -13.8821 0.740508
-10.0462 -15.7117 0.82773
7.57327 -10.9151 0.585252
8.60409 -8.69329 0.552657
24.0414 -3.6829 1.09803
-30.1521 -8.78677 1.4339
6.72017 -11.0477 0.594919
-8.29896 -8.16715 0.54811
20.7315 41.8278 2.23383
-28.8708 -17.8433 1.60442
-9.82217 -13.7774 0.805295
9.63431 -8.93891 0.618915
14.9493 41.5428 2.1375
-30.5715 -13.541 1.59615
-6.78052 -8.26646 0.526208
14.1785 32.9724 1.83167
-30.0452 -11.7658 1.61957
-7.61204 -6.99953 0.522878
-6.71592 -7.61321 0.513703
15.8048 28.6302 1.69832
