ply
format ascii 1.0 
element vertex 1869
comment /media/mkaihara/Seagate Backup Plus Drive/model_iterations/model_29.ply
property float32 x 
property float32 y 
property float32 z 
end_header 
4.31942 -11.1601 -3.02683
4.443 -9.76686 -2.70579
9.56189 -9.24687 -3.35266
6.98702 -11.4793 -3.37186
-26.3242 20.3116 -8.30582
45.3768 -13.2084 -11.791
-11.1811 16.4723 -4.93852
11.942 -10.2833 -3.89459
3.39741 -10.3314 -2.67529
-23.7432 19.9444 -7.58403
10.0637 -9.08841 -3.26192
-7.6153 14.8535 -4.00429
4.11285 -12.1491 -3.08913
15.2797 7.67466 -4.09345
3.42205 -11.2439 -2.81671
3.19138 -9.95058 -2.4899
4.87401 -12.7033 -3.27433
-6.34727 -36.3265 -8.78134
-10.4804 -40.271 -9.87105
3.99641 -9.15456 -2.36217
-27.9181 20.8638 -8.23233
15.0885 7.72278 -3.97144
-9.14834 15.8011 -4.28557
3.9824 -11.4801 -2.85906
-12.4498 16.9727 -4.91708
-25.5677 20.2877 -7.5784
3.50361 -10.3755 -2.51065
11.1547 -9.57636 -3.39209
15.8822 -11.9728 -4.55534
-35.8834 25.3891 -10.0505
-11.7064 -40.7605 -9.67085
11.0208 -9.63606 -3.34845
-11.0193 -39.6111 -9.33278
-5.84382 -29.6462 -6.88025
41.9395 -12.9658 -9.94618
-26.1638 20.2122 -7.45849
14.9047 -11.5664 -4.24142
-29.6924 21.5683 -8.23394
4.45968 -5.81838 -1.64563
5.33541 -9.24847 -2.38853
-25.3944 -65.5175 -15.5436
-9.35276 15.6555 -4.01454
-12.2245 -41.9918 -9.62694
4.14349 -9.86347 -2.35374
13.6272 -10.9927 -3.85944
4.04378 -9.25888 -2.22126
42.3315 -12.5186 -9.66626
-22.7505 19.8309 -6.58027
3.42068 -10.1761 -2.30306
4.43991 -9.9935 -2.36545
15.1638 7.62263 -3.64756
-27.9447 20.9097 -7.50148
-20.4203 -32.3765 -8.22589
-7.91498 -33.5338 -7.37295
-23.6385 19.9369 -6.58798
-29.9425 21.7482 -7.87472
3.2832 -10.0357 -2.25256
4.90795 -8.92523 -2.15956
14.9734 7.8189 -3.57672
4.28229 -10.6176 -2.4354
43.0343 -11.2149 -9.42315
-10.2164 16.0025 -4.00343
4.37231 -9.21942 -2.1397
3.16475 -9.15902 -2.00769
5.19837 -9.11948 -2.19875
14.9739 7.53494 -3.49401
-36.5371 24.0596 -9.10519
-26.4122 -24.4903 -7.44636
3.04054 -9.51121 -2.07531
-27.7034 -29.2137 -8.29657
-19.124 -29.8621 -7.30356
-30.8723 -78.9734 -17.5028
3.88627 -9.40691 -2.09957
3.76357 -8.79659 -1.96329
-15.1414 17.9044 -4.79796
-22.5203 -59.6975 -13.1019
4.01713 -8.84456 -1.98595
-34.1146 22.8462 -8.34697
-13.8098 3.02113 -2.88825
-32.4677 -22.9461 -8.10848
-24.5239 -67.7463 -14.6725
-10.7139 -34.5083 -7.35139
45.3233 -9.89851 -9.42257
15.1358 7.73283 -3.4073
-17.3019 -22.9205 -5.77188
12.4889 -10.2059 -3.24284
-17.4024 -49.7879 -10.5308
4.22971 -10.8805 -2.32739
-11.6622 16.7222 -4.04816
-25.2913 19.9003 -6.37815
-34.3583 -20.3396 -7.93853
-31.1601 -24.3353 -7.83655
-8.65726 -33.5647 -6.90593
14.7386 -11.6199 -3.71777
4.06857 -9.91788 -2.11251
3.25682 -9.95321 -2.0523
-34.2073 22.6028 -7.96689
-21.3996 -51.5301 -10.7885
-14.8764 -42.9586 -8.67374
3.5188 -8.98333 -1.84711
-19.4388 -31.4834 -7.02657
-30.9723 -24.1719 -7.40894
-28.1223 -24.9719 -7.08051
-20.3019 -50.1715 -10.2431
3.92535 -9.18377 -1.90144
-15.5764 -42.4868 -8.47227
-23.9223 -54.3605 -10.9272
3.47207 -9.30084 -1.83242
-31.443 -23.4687 -7.1434
-30.2321 -25.9217 -7.25884
-31.7064 22.3223 -6.98912
-18.8104 -46.542 -8.96008
-30.2597 -24.3759 -6.83502
-22.1396 -57.328 -10.8298
-32.9263 21.9119 -6.92464
-15.4017 -43.4346 -8.08387
3.43662 -9.65887 -1.79127
14.283 7.92722 -2.83438
-33.6044 23.0273 -7.06491
-27.9829 -24.526 -6.47239
3.50995 -9.61208 -1.77391
4.83629 -8.72582 -1.72849
-25.9269 20.3553 -5.69556
-29.586 21.5185 -6.30926
-29.9628 -27.5982 -7.02984
3.93085 -10.1145 -1.87165
14.1272 7.61596 -2.75918
-21.8534 -50.215 -9.31646
-19.9689 18.9996 -4.65019
-30.5029 -24.2445 -6.60798
-18.3733 -45.5549 -8.33199
5.68069 -11.9017 -2.22588
43.6618 -12.3315 -7.69042
-16.9655 -45.2833 -8.14425
42.7077 -11.1119 -7.42227
5.05933 -10.856 -1.99308
6.77636 -11.2596 -2.21931
-10.0052 15.9064 -3.0473
-29.4157 -22.7705 -6.06268
44.0735 -11.8362 -7.42538
-21.3816 19.4231 -4.68472
7.67686 -9.25156 -1.90392
-18.9502 -46.8845 -8.03387
-22.1433 19.4695 -4.65012
-23.3011 19.8637 -4.76324
-31.6358 22.2849 -5.98675
3.85946 -10.2224 -1.67843
-31.0733 -24.026 -6.00444
-12.9071 -38.942 -6.30446
-29.9072 21.7651 -5.62259
-20.9985 -50.5399 -8.33719
-7.35907 14.9004 -2.50391
-32.2988 -22.6982 -5.94831
-31.5903 -23.2245 -5.94163
-26.9081 -25.247 -5.5535
-32.1535 -23.1419 -5.94244
-30.3699 -24.3106 -5.81588
-33.6878 -22.5009 -6.01422
-23.9683 20.1203 -4.61287
-32.057 -23.9892 -5.90114
-31.0882 -23.5422 -5.75929
-24.6058 20.2761 -4.66399
-30.5676 -25.3614 -5.81595
-11.6895 -38.7415 -5.93427
-12.1766 16.6563 -2.97133
-7.37732 14.7583 -2.35119
3.54239 -9.65139 -1.46233
39.6884 -13.053 -5.94133
-32.3798 -23.8519 -5.68964
-29.6686 -23.5795 -5.33409
-25.2173 -53.2966 -8.37184
-29.1384 -24.5761 -5.36832
-22.4713 -51.8073 -7.88712
-19.0842 -45.9853 -6.94028
-6.55821 14.5301 -2.16241
-13.5127 17.2643 -2.97324
-10.9194 -38.2269 -5.41593
-7.12843 14.4464 -2.16166
-21.9877 -57.2401 -8.29896
-21.6029 19.6462 -3.88856
-22.7274 -51.5152 -7.48374
-30.3634 -23.4389 -5.06369
47.051 -10.8423 -6.34875
46.3589 -10.1913 -6.25201
-12.5238 -38.922 -5.37587
6.7141 -11.0652 -1.70164
-14.4856 17.7427 -2.9803
-22.0073 19.3832 -3.80143
-31.8663 -17.1039 -4.66784
-31.6004 -23.591 -5.07736
10.8706 8.91632 -1.81651
-32.2932 22.2045 -5.03185
-28.5456 21.722 -4.52174
-29.9996 -23.4873 -4.80709
-12.0659 -34.3309 -4.60293
-30.3952 -61.9662 -8.645
9.75618 -9.13093 -1.66717
12.9443 -10.5788 -2.10415
-32.3869 22.72 -4.94696
-34.9321 -21.7626 -5.12633
-29.6473 -24.5049 -4.77987
6.84685 -10.4129 -1.55486
-31.9211 -22.5628 -4.84444
-12.6538 -39.4793 -5.10144
13.3494 -11.1285 -2.13293
43.2352 -11.2371 -5.51495
-15.6208 17.9831 -2.91114
-15.0569 -36.4974 -4.82776
-8.42633 15.0635 -2.10112
45.2333 -10.42 -5.6197
15.2167 7.94368 -2.06297
9.49506 -9.00944 -1.56231
-32.6799 -22.8011 -4.72561
-17.2268 18.7231 -2.97678
-20.3442 9.00295 -2.63654
-30.7443 -23.8017 -4.5861
-23.5795 -53.4246 -6.86299
11.4036 -9.80975 -1.76086
43.6149 -11.676 -5.31543
14.9085 -11.5758 -2.16897
15.1396 7.78217 -1.93657
-28.7481 21.863 -4.12037
7.34966 -11.1606 -1.51597
-9.88347 15.7799 -2.08456
9.53372 -9.39898 -1.49002
12.9232 -10.6143 -1.86437
14.1512 -11.1694 -2.0049
9.53471 -9.19498 -1.4699
7.12834 -10.5561 -1.3949
46.2673 -10.105 -5.15396
-10.5208 15.804 -2.04675
-31.8245 22.4412 -4.22944
11.8388 -9.94666 -1.66932
6.27696 -12.9074 -1.50904
7.64624 -11.7039 -1.45434
9.93098 -8.98071 -1.40848
-14.2605 -41.2091 -4.5735
16.8148 -12.4521 -2.19387
-27.9656 -56.1845 -6.51141
15.0795 7.59337 -1.72672
-30.0708 -23.9652 -3.95024
14.0019 -11.0786 -1.82942
-30.8028 -23.8267 -3.94067
15.07 7.8739 -1.70949
-12.2372 16.3653 -2.00784
-18.7775 -47.6099 -4.96073
-29.7352 -60.0687 -6.41814
-22.5726 19.7461 -2.8338
-29.9218 -24.5121 -3.67728
-29.8909 -24.8288 -3.70392
-19.7814 -51.7631 -5.22654
-13.5846 17.3832 -2.06499
-30.2031 -23.6295 -3.5793
-14.6495 -39.9027 -3.96099
-12.901 -40.0992 -3.93062
9.90362 -9.17951 -1.2546
-30.3445 -59.1099 -6.12254
8.62623 -8.7242 -1.11384
16.7456 -12.477 -1.91004
-14.4523 17.7289 -2.05203
-34.6514 -21.5524 -3.69327
-31.7748 22.4346 -3.42662
-29.9889 -24.194 -3.40549
14.2209 -11.3107 -1.61265
-31.1985 -19.0118 -3.11769
11.1562 -9.79051 -1.26366
-25.66 20.8144 -2.77578
-10.6841 -33.2538 -2.95269
9.47525 -9.08526 -1.10201
-32.4639 22.3204 -3.27419
8.75149 -8.75312 -1.01656
17.014 -12.4084 -1.71975
-15.5868 -40.5024 -3.48862
-19.9138 -45.5542 -3.89234
-14.423 -35.6065 -3.04573
-12.5199 -35.1287 -2.9637
9.27526 -9.01378 -1.01603
11.3962 -9.87916 -1.1822
15.0622 -11.7813 -1.51355
-28.7524 21.9263 -2.81456
-28.5437 -13.3235 -2.4476
11.9814 -10.1505 -1.21692
-21.4529 -47.7784 -4.01207
12.9218 -10.7256 -1.27198
-36.7656 -69.7516 -5.70679
10.0334 -9.20857 -0.986847
11.0112 -9.82879 -1.02854
-32.2155 -19.9992 -2.6235
12.0773 -10.1504 -1.09213
14.906 -11.7364 -1.31822
-14.6073 -36.9105 -2.70192
-14.1976 -37.5595 -2.75303
18.8828 -13.6464 -1.54615
-22.4748 19.6783 -1.98329
-22.7967 -52.5888 -3.79058
13.0192 -10.7098 -1.12673
-13.7072 -38.0286 -2.62746
15.4816 -11.6894 -1.26021
-29.4931 -59.7142 -4.18262
-13.8195 -42.8355 -2.79729
-31.5137 22.2626 -2.36241
-29.9573 -59.242 -4.04066
-15.9492 -38.851 -2.56097
31.8611 -21.124 -2.32593
43.3626 -11.308 -2.7199
37.4747 -9.03517 -2.33512
-14.1919 -38.1027 -2.45687
-25.9604 21.0695 -1.89646
-28.2765 -13.9212 -1.82165
-37.3469 -72.1667 -4.62391
-14.8474 -38.6799 -2.31105
17.155 -12.8006 -1.19864
-26.4903 -15.9408 -1.66459
43.9778 -9.79624 -2.31654
-9.27407 -12.3916 -0.785852
-14.4539 -38.4666 -2.04674
5.80791 -12.6758 -0.692321
-13.6976 17.3647 -1.07903
-13.9109 -43.7246 -2.25341
15.0907 7.91707 -0.821931
-15.3208 -39.2716 -2.00329
-13.3885 -43.5443 -2.14943
19.0388 -13.5083 -1.1183
-15.8567 -45.9867 -2.26884
37.7893 -9.2814 -1.82285
-28.1759 -14.4076 -1.41627
-22.4378 -51.4138 -2.48719
-15.5565 -38.2764 -1.83899
9.74153 -9.19264 -0.597008
12.7444 -10.4604 -0.739741
45.7403 -10.4662 -2.08604
-13.084 -39.8 -1.78294
-31.4451 22.2294 -1.60482
-50.7614 27.5687 -2.30567
-32.4399 22.3251 -1.44609
-17.4531 -45.6418 -1.83338
-33.5189 -21.1073 -1.41596
9.82893 -9.14724 -0.493497
6.68124 -10.9558 -0.445033
-12.2527 -36.5269 -1.27474
7.58263 -13.3096 -0.522769
18.9276 -13.4061 -0.782921
-24.4984 -53.656 -1.94108
-12.5776 -35.6831 -1.2253
21.8704 25.2244 -1.07418
-22.2985 19.7964 -0.940078
-21.79 -54.5918 -1.87991
-19.2353 -49.2551 -1.63871
21.4373 -14.619 -0.788185
-26.9901 -13.8893 -0.920321
-12.1101 -38.7569 -1.20646
-23.2329 19.7413 -0.8767
-21.8664 -50.3233 -1.55955
-16.2745 -44.0467 -1.35355
22.9428 -10.3248 -0.758968
-33.4052 -20.3538 -1.08197
-9.65915 -12.6728 -0.455124
-21.1413 -49.8574 -1.52737
18.3321 -13.6571 -0.581406
32.8729 54.8598 -1.66134
-28.8966 22.048 -0.93569
-30.011 21.951 -0.920817
-26.6336 -12.7972 -0.724339
9.64473 -9.07612 -0.320405
-19.9925 -32.2021 -0.883114
-38.8347 13.471 -0.899967
21.6396 -14.4793 -0.552239
-50.8393 18.3363 -0.999113
18.7519 -13.5192 -0.43322
12.9612 -10.6481 -0.279193
-6.90768 14.9528 -0.288803
-32.1999 10.1832 -0.559328
-27.648 -13.1658 -0.484987
-35.8906 -20.4392 -0.627385
-16.9584 -41.5727 -0.693231
-7.5179 15.8109 -0.23841
-31.5043 -23.5346 -0.544969
-32.8277 -22.3788 -0.508286
-31.5455 -63.7396 -0.878852
17.5746 -13.1124 -0.265574
18.5322 -13.3432 -0.289092
29.7224 -18.3277 -0.465106
-19.659 -50.3511 -0.653771
-29.067 22.1613 -0.391316
-36.38 -20.3364 -0.460165
-25.5414 -54.5013 -0.638736
-17.513 -40.1686 -0.467623
-50.4657 27.6572 -0.480834
-31.1522 -54.9542 -0.580001
-18.4856 -48.482 -0.490897
38.539 -9.31074 -0.363896
-13.7986 17.5143 -0.157708
-31.4654 -70.0709 -0.522571
-16.811 -40.775 -0.298706
-28.7026 -8.92512 -0.17441
9.65339 -9.08361 -0.041151
13.2876 15.2075 -0.0425571
14.9887 7.89056 -0.0294802
-28.7316 -12.8172 -0.057099
-11.465 -16.6927 0.0249579
-12.5963 -18.9595 0.0437606
-17.5685 -40.3285 0.183467
9.51695 -9.06093 0.0599994
-31.4843 22.2818 0.198675
-20.0173 -50.5348 0.265821
-29.4838 -13.6838 0.19506
17.0825 -12.4641 0.118567
-12.8253 -19.6645 0.153689
14.8958 -11.6035 0.148858
-50.7667 18.1891 0.475381
7.18242 -12.3411 0.11997
16.2179 -12.0178 0.17166
-35.3096 -21.3668 0.433219
39.2513 -8.06763 0.417695
-34.2051 -21.4354 0.460112
-11.927 -32.9428 0.410525
-12.3892 -33.3171 0.432359
-10.6671 -30.7172 0.39719
-9.19216 -28.4414 0.363161
28.1428 56.9848 0.825001
9.66592 -9.09168 0.171643
-12.5178 -19.3974 0.314862
-10.3317 -31.3633 0.453975
8.62774 -8.57098 0.184419
6.3922 -13.0775 0.212006
7.22647 -11.1357 0.202695
9.41928 -9.1314 0.189554
8.08938 -9.17882 0.195716
9.80283 -9.07681 0.220145
38.7049 -8.29264 0.649919
-23.1118 19.8199 0.543727
-32.2274 -21.6826 0.66873
-33.3873 -24.4959 0.72575
13.0536 -10.7236 0.276981
13.3699 -10.7839 0.322077
-9.78901 -12.4115 0.298545
6.90343 -11.3141 0.258469
8.04797 -9.45853 0.244245
28.7748 59.2068 1.31673
7.0498 -11.0812 0.264071
9.24547 -8.74794 0.270467
11.6349 -10.0005 0.336328
17.4348 -7.78748 0.384555
7.28518 -11.0534 0.299649
-9.33518 -12.0513 0.385693
-12.5288 -19.2333 0.548944
7.70272 -9.378 0.276472
7.88876 -9.43417 0.285542
-24.7891 20.835 0.839302
-28.3464 -9.09009 0.746678
9.6933 -9.01911 0.34067
17.7445 -12.9628 0.554318
18.6045 -13.3965 0.570503
-22.2548 19.4847 0.768922
-26.7921 21.1745 0.889607
-28.3627 -8.51249 0.774886
-32.2924 -17.2183 0.994019
-13.0726 -19.7403 0.629915
14.9361 -11.6054 0.504914
23.0358 -3.35172 0.655166
-11.9551 -18.6415 0.641261
25.3446 -4.80136 0.750967
16.9248 26.2657 0.935448
-27.3309 -20.1342 1.00487
7.30347 -11.4405 0.407543
7.03214 -10.799 0.392492
15.2347 24.8179 0.893072
-7.562 -8.73803 0.353287
13.1655 -10.7729 0.519632
-7.25713 -9.43216 0.364481
-28.0103 -7.90595 0.968177
-11.6795 -17.0729 0.693198
7.9278 -9.41672 0.407331
16.3818 11.1923 0.710063
10.9475 -9.53257 0.527431
12.0015 -10.1402 0.572629
24.4283 49.1909 2.0613
-7.3954 -8.07401 0.409139
9.72114 -9.02412 0.495253
23.1065 -3.24423 0.895872
28.9795 59.9063 2.57515
-7.38069 -9.79641 0.479783
10.5144 -9.5897 0.558329
12.8531 -10.6155 0.673668
21.824 -2.67479 0.896486
-28.4699 -17.272 1.36182
8.79645 -8.75696 0.513022
-6.87316 -8.40401 0.466608
9.50409 -8.99067 0.546998
12.9102 14.8203 0.867502
-28.3356 -8.31593 1.29737
15.0865 19.6504 1.11279
15.5705 26.8092 1.38071
22.9954 45.2194 2.24254
6.28767 -14.0092 0.684481
10.9316 -9.59046 0.657779
18.6639 -1.6564 0.857236
20.4844 39.0033 2.06539
15.5225 27.3498 1.47383
-11.0893 2.75055 0.549415
-7.18229 -9.46708 0.573094
9.23186 -9.04856 0.612286
11.4842 -8.81091 0.677939
20.3254 -2.32925 0.985587
11.805 12.0309 0.836616
17.0953 41.1132 2.18815
7.81568 -9.52568 0.6065
10.2618 -9.34625 0.687425
15.0746 25.5624 1.48541
21.2321 41.1737 2.35065
21.2395 -2.6459 1.08844
-7.35127 -8.44564 0.580851
9.45098 -8.99846 0.679569
17.2384 25.279 1.60679
17.205 31.1909 1.85858
13.1375 -10.8288 0.904736
10.7228 12.535 0.881836
14.5702 19.778 1.31913
11.1665 -9.68262 0.799281
15.3779 20.0361 1.39243
-25.4611 19.5176 1.75114
-6.92092 -8.11967 0.590173
10.4154 12.5922 0.914773
-7.20359 -9.29934 0.658863
10.1507 12.6451 0.940066
-26.8871 18.9296 1.86517
6.19791 -13.0895 0.828967
11.3521 12.272 0.96048
-6.84451 -6.75497 0.557562
11.4424 12.2016 0.984592
-6.76171 -8.35533 0.643272
6.33788 -12.7401 0.831247
15.0035 19.9625 1.50116
14.5611 23.8074 1.66433
14.0596 32.493 2.1244
-6.06079 6.45519 0.542635
-8.11276 -7.68714 0.67592
-7.06946 -8.10993 0.660686
5.80392 -12.6222 0.83984
-7.43788 -6.84792 0.628806
7.07534 -11.2731 0.8229
7.04931 -10.6538 0.79727
11.4363 -9.87195 0.933141
12.2397 -10.2391 0.989015
16.4023 7.26425 1.14279
15.2497 19.7552 1.57855
-7.19917 -6.27409 0.619176
10.3446 -9.44805 0.904215
-7.33945 -6.22648 0.631154
11.6498 12.293 1.15368
9.86613 22.211 1.65466
-7.21334 -9.57498 0.801025
11.8194 12.8192 1.19584
-6.92648 -4.43879 0.565534
-6.70909 -8.14844 0.71979
-6.67322 -4.41617 0.551625
9.33855 -8.92833 0.89948
10.0643 -7.89615 0.901156
12.9682 16.3447 1.50829
-6.63656 -6.6291 0.651602
9.87863 -8.34211 0.945508
11.725 17.5318 1.58535
11.6758 18.6146 1.64118
9.8506 18.749 1.59693
9.28684 20.0704 1.66314
7.63712 22.7625 1.80501
11.0497 19.0726 1.67904
10.0801 -7.64794 0.967508
-6.98854 -7.14867 0.765929
-17.0042 -6.16752 1.41404
9.5327 -7.72823 0.962035
9.59346 19.1612 1.69116
-6.35756 -4.24504 0.605717
-6.78636 -8.1677 0.841827
4.84711 -5.74792 0.597767
9.29629 20.4527 1.78185
8.00956 19.5839 1.70124
5.04203 -5.81109 0.619833
12.9655 11.6995 1.41488
11.9557 12.0094 1.38739
6.78048 -9.45919 0.945962
12.4168 11.8765 1.41217
6.92159 20.3196 1.75726
-6.33368 -4.37225 0.626896
-7.10657 -9.40552 0.967679
11.725 12.2838 1.40482
10.5973 9.27085 1.19876
-4.98621 -11.3762 1.04971
6.14896 -6.06874 0.754106
9.27213 -7.22333 1.01092
-6.76093 -6.65912 0.806084
10.5993 12.5612 1.43461
8.84881 -7.37336 1.00126
10.9995 12.3995 1.45046
-7.26485 -7.71686 0.929101
8.23614 -7.33229 0.979064
10.3746 12.681 1.47279
-7.0292 -7.6954 0.924069
-6.89323 -8.28649 0.967377
10.7688 12.5181 1.49931
10.6898 13.7893 1.58065
-7.07046 -8.27386 0.991411
11.3768 10.9892 1.45477
-6.2925 -4.21643 0.696152
-6.81554 -8.53621 0.999456
-6.30593 -4.37876 0.70733
11.2111 8.65199 1.32879
10.7724 9.44368 1.33561
6.66218 15.8263 1.61526
11.2264 11.161 1.47743
10.6648 11.4733 1.48216
-11.1342 2.85313 1.0851
6.1805 -5.98756 0.820366
8.04589 -6.67012 1.00383
10.8723 9.31031 1.38947
9.69015 12.7504 1.55063
9.87612 12.6743 1.58302
7.80441 12.4817 1.46235
8.06715 13.4861 1.56433
11.3498 8.15035 1.424
7.27889 12.9528 1.49962
9.20145 11.5314 1.50109
7.14823 13.8391 1.59429
6.0133 14.289 1.59186
9.32843 10.6349 1.46209
9.18665 12.5156 1.61313
11.5115 7.74093 1.44708
9.37719 10.1412 1.43806
4.9878 -5.83656 0.824201
-6.81895 -4.63772 0.869581
5.71898 14.2486 1.63009
-7.03049 -4.48839 0.889206
9.05855 10.8542 1.51798
-6.73259 -6.74218 1.01908
5.93056 -5.85366 0.90009
9.804 8.63193 1.40797
9.07579 9.47946 1.41152
9.38737 10.4648 1.52425
4.91571 14.2473 1.62722
4.2615 -8.1046 0.991728
6.57474 10.9997 1.41037
-6.77639 -3.91044 0.860814
6.46946 12.1307 1.52565
-6.86948 -3.84862 0.871952
9.81019 7.27912 1.36605
6.78817 11.5854 1.49568
9.90449 7.10144 1.36913
5.54483 11.8208 1.4767
5.55684 12.3565 1.53069
4.81461 12.5302 1.51937
9.93097 6.7499 1.36849
-6.86509 -4.54587 0.942674
7.44166 -6.25942 1.10842
-7.29987 -0.782158 0.841221
-6.25129 -5.37025 0.948926
5.26539 -5.58524 0.885709
8.97472 7.97879 1.39908
4.43901 -7.21715 0.981462
10.5039 5.20015 1.37259
9.05837 7.88038 1.41141
5.21668 -5.62907 0.906698
8.69954 8.00791 1.40307
9.01574 9.17209 1.5048
-7.01678 -5.62616 1.06398
10.2249 4.78787 1.34519
-6.89307 -3.8375 0.95023
9.22581 6.20202 1.34831
5.3199 11.6615 1.5543
-6.86857 -3.05458 0.912964
-6.853 -3.23992 0.916287
4.89718 -5.97236 0.942671
5.99845 -6.15423 1.04635
9.45667 5.6723 1.36322
8.55162 7.30094 1.39031
-6.9239 -4.29406 1.00333
-6.85551 -4.51763 1.0116
8.36116 8.69193 1.49642
5.13798 11.5555 1.57086
-6.52411 -5.59531 1.06945
3.72879 -7.61518 1.0565
8.59866 7.82982 1.45526
6.1008 -5.63858 1.04156
9.25217 6.11758 1.40567
-6.11264 -5.3937 1.02847
8.63342 6.67895 1.39208
8.17694 7.59207 1.4195
-7.0736 -1.77602 0.932337
-6.98761 -2.29748 0.938955
-6.42125 -5.2987 1.06198
8.90694 5.71039 1.35643
8.25045 8.13976 1.49391
-7.23364 -1.24807 0.940744
-6.87227 -4.10361 1.03451
7.50098 6.27922 1.26706
8.16209 7.11403 1.40408
8.06339 8.22176 1.49242
-6.88551 -2.81603 0.968086
-6.88673 -2.95538 0.968469
4.63954 10.2749 1.48218
9.06383 4.14117 1.3117
-7.21826 -1.59961 0.97112
6.86331 -4.27393 1.07459
4.94505 -5.9639 1.02714
-7.30197 -1.11239 0.98815
-6.98789 -2.19106 0.979181
-7.0247 -2.26001 0.985415
-5.97617 -4.38441 0.990288
5.20985 -6.59191 1.11975
6.9345 -4.19064 1.09083
8.15786 7.24527 1.47825
-7.12295 -1.71139 0.984371
-7.05524 -1.94812 0.983957
8.86373 4.89358 1.37522
8.40611 5.92549 1.39843
-6.89571 -3.60576 1.06001
8.93214 4.19216 1.35344
3.42689 10.7717 1.54845
-7.28183 -1.19485 1.00961
-5.99118 -4.42741 1.0243
-5.97162 -4.52582 1.02553
7.17381 -3.94838 1.12552
8.14937 6.5482 1.44597
5.43812 9.19177 1.47933
-6.36048 -4.30668 1.05278
4.94799 -5.5427 1.03215
7.21158 -3.84373 1.13738
7.58911 -3.70071 1.16832
3.69782 10.2596 1.5194
3.51432 10.5755 1.55463
-7.33738 -1.07744 1.03481
-7.04623 -1.996 1.02011
4.98652 -5.30274 1.01758
7.27369 -3.75151 1.14983
7.39106 -3.68623 1.17148
7.90484 -3.37031 1.2217
-7.12628 -1.86724 1.04723
-6.98197 -2.93485 1.09717
-5.98917 -4.35972 1.06517
7.93921 -2.79425 1.2315
8.29669 4.65674 1.39407
5.06771 8.6818 1.47385
8.43455 4.54213 1.41596
7.86376 -2.35071 1.20995
7.20953 5.73929 1.38013
3.0283 9.66779 1.51583
-7.06592 -2.01152 1.10062
7.51441 -3.12239 1.22679
8.29268 4.58306 1.43635
5.85628 7.53182 1.4491
5.3597 7.73254 1.43409
5.19754 8.053 1.45633
5.15187 8.16559 1.46175
7.36314 -3.18247 1.22523
7.71205 -2.76785 1.24782
-6.73052 -1.67638 1.04429
7.86582 -2.26665 1.25537
7.29821 5.47369 1.40103
-7.07529 -1.94463 1.13821
-6.89404 -2.77544 1.1547
6.87515 5.57671 1.38879
-7.32337 -1.09096 1.15597
-7.11556 -1.8168 1.14969
-7.019 -2.05941 1.14569
-7.09247 -1.86497 1.15038
-6.86944 -2.92331 1.17162
4.87479 7.55897 1.43097
3.45425 -6.04582 1.11182
-7.245 -1.29391 1.17848
3.53476 -5.71846 1.083
3.57138 -5.62315 1.07228
7.13616 4.81036 1.4026
4.72638 7.4809 1.44071
-7.0434 -2.01555 1.19352
-7.06514 -1.93924 1.20177
7.03109 4.87228 1.41497
3.88287 8.06713 1.48306
6.07176 -3.32942 1.15359
6.69622 4.91934 1.38565
4.72651 7.26494 1.44633
3.84289 -5.30948 1.10161
7.16942 4.46457 1.42234
7.53011 2.87945 1.36262
6.38398 5.3369 1.41059
-7.24847 -1.25043 1.25207
6.81077 4.11788 1.36707
-6.42903 -2.76254 1.19357
5.52373 -3.63904 1.13634
5.70651 -3.52828 1.15197
2.81008 8.00991 1.46869
-7.34071 -1.03503 1.2847
5.34674 -3.79257 1.14275
-6.29019 -2.2522 1.15813
-6.25111 -2.40889 1.17259
4.28802 -4.67214 1.109
4.50186 -4.48497 1.11475
4.60017 -4.45721 1.12377
-6.77575 -1.7261 1.23125
4.38935 6.58571 1.41244
-7.12979 -0.924425 1.28457
-6.12494 -2.25067 1.1619
6.69325 3.72197 1.37312
6.15377 4.40043 1.37252
3.61411 -5.33542 1.17196
5.20495 5.7487 1.41892
2.56301 7.33621 1.46099
6.53231 3.07452 1.36532
-1.70452 -5.77562 1.13974
6.45022 -1.39106 1.25209
6.31646 2.79718 1.33026
6.2583 2.39689 1.3373
-4.42133 3.91191 1.38648
4.3567 3.56044 1.34629
4.23951 3.3147 1.33279
4.67198 -1.68014 1.24691
4.82721 -1.38332 1.25642
-2.12063 4.74851 1.2969
3.7273 -2.95318 1.22272
3.67297 -2.54941 1.19384
3.40521 -2.96049 1.22557
4.02391 2.58225 1.33667
-2.59498 -3.53455 1.25052
-2.32716 -3.57186 1.21623
3.76929 2.06593 1.30736
3.74534 1.9877 1.30661
-2.8262 3.46439 1.3774
-2.29823 -2.42087 1.18742
1.94969 -2.77332 1.20997
-2.11538 2.75509 1.31753
-2.02105 2.74348 1.32379
2.24597 -1.86584 1.22342
2.37616 -1.49578 1.221
-2.0115 1.87183 1.29128
-2.06626 -1.44394 1.22832
1.44419 -2.06319 1.24217
-1.99406 -1.0884 1.21419
-1.92624 -0.707987 1.21945
-1.92794 -0.703753 1.245
-1.95653 -0.344461 1.22793
-1.89407 -0.564915 1.22922
-1.89364 -0.531106 1.23427
8.27367 -8.75547 -7.51276
12.2369 -10.381 -8.87909
-8.56771 15.2888 -6.79669
21.0828 25.6775 -11.9414
-8.75639 -2.5077 -2.56654
-33.4665 -22.3558 -7.4354
-33.1037 -21.6489 -5.83666
-32.8289 -22.3099 -5.89494
-30.3944 -19.493 -2.7155
9.36705 -8.92192 -0.395117
-7.35677 15.8578 -0.431582
-28.862 -11.1686 0.712836
-6.87521 -8.21703 0.45762
17.2691 24.7978 1.64105
11.6611 16.4 1.66421
-6.66273 -6.63591 0.879185
4.34056 12.5959 1.53596
8.84985 9.21851 1.49479
8.02228 -8.81767 -10.4424
8.89091 -8.59558 -10.5655
6.99859 -12.0046 -11.5781
6.91324 -11.414 -10.9561
8.20421 -8.31633 -9.59164
7.0615 -12.0925 -11.3853
7.10933 -11.0371 -10.5165
8.05375 -8.43083 -9.26158
6.7687 -11.3504 -10.3478
6.48392 -11.7634 -10.27
7.80749 -8.90666 -9.02829
6.24275 -14.3946 -11.8715
8.35577 -8.75994 -9.16234
6.33757 -11.9761 -10.2317
6.18212 -12.1515 -10.1649
7.54269 -9.50885 -9.06078
7.96083 -9.11357 -8.98289
10.5599 -9.53248 -10.5788
6.15153 -14.1785 -11.4222
6.12797 -13.7206 -11.0469
6.16662 -12.644 -10.3453
9.26645 -8.89215 -9.42
9.35521 -9.14082 -9.53829
5.89898 -12.5726 -10.087
9.43148 -9.05671 -9.3306
6.90975 -11.2012 -9.33869
5.64736 -13.0371 -10.0542
9.77129 -9.15474 -9.48792
7.66027 -9.40574 -8.52752
10.0806 -9.2625 -9.61623
11.0114 -9.57424 -10.2374
11.5483 -9.78889 -10.1654
8.44362 -8.66762 -8.01031
7.4832 -9.36311 -7.9184
8.22743 -8.78166 -7.95289
7.68252 -9.41753 -7.95021
7.89299 -9.46807 -7.89911
8.38072 -8.59633 -7.67371
0.350532 15.8488 -10.1155
7.58204 -9.3903 -7.67934
11.0105 -9.69423 -9.326
7.28268 -10.7841 -8.23431
8.21394 -8.5579 -7.4798
4.63231 -15.4576 -10.1473
8.77358 -8.75952 -7.66976
7.97802 -9.09599 -7.46198
4.06297 -18.0614 -11.4023
8.25646 -8.68852 -7.3265
4.09397 -17.3204 -10.8591
0.137115 14.8509 -9.03722
6.70516 -11.3456 -8.02206
7.79697 -9.33191 -7.37737
10.2201 -9.39889 -8.42372
6.87176 -11.333 -7.95498
8.12052 -9.27194 -7.39732
11.3784 -9.79036 -8.97314
5.43509 -13.9374 -8.8707
7.79131 -9.33255 -7.2087
9.42644 -9.10559 -7.76496
6.95552 -11.1986 -7.80079
8.04218 -9.1942 -7.16647
9.83714 -9.26632 -7.87469
15.0315 7.51185 -9.76258
8.73691 -8.90135 -7.20606
6.98501 -11.0446 -7.50896
2.65326 -11.2603 -6.6522
7.91814 -9.13794 -6.92399
9.68871 -9.21909 -7.59588
10.8912 -9.58102 -8.18174
0.122306 15.2935 -8.62698
3.27544 -20.5332 -11.6931
6.84955 -11.0579 -7.29078
10.1964 -9.37358 -7.7552
12.4779 -10.4695 -9.13263
9.3162 -9.0807 -7.26858
4.64625 -14.3777 -8.42204
8.06739 -9.28869 -6.83175
14.9554 7.64672 -9.22475
9.78159 -9.18546 -7.36828
0.827989 17.4764 -9.5559
2.73472 -19.7632 -10.8794
11.2366 -9.73659 -8.07149
4.26758 -14.5282 -8.1945
14.8672 7.77565 -9.04037
15.2886 10.5571 -9.97948
14.1918 7.83017 -8.6639
11.0559 -9.7097 -7.82343
13.4208 -10.9285 -9.20504
3.03634 -19.2479 -10.2441
11.4685 -9.92183 -7.71494
2.16494 -20.2906 -10.2996
10.3597 -9.43146 -7.04368
14.4408 -11.4211 -9.24238
13.9793 -11.3064 -8.99899
11.1191 -9.75225 -7.36717
7.56674 -9.40929 -5.97842
3.57807 -8.50189 -4.54524
-8.65225 -1.89971 -4.35483
2.21389 -20.0218 -9.8807
4.5498 -9.3332 -5.07744
0.396124 13.6628 -6.69238
7.66592 -9.34004 -5.89525
-8.32663 15.8807 -8.67994
-9.14641 -2.41793 -4.55811
15.1946 -11.7332 -9.22372
19.6475 5.62181 -9.7753
-10.2441 -2.53629 -4.99136
1.90682 -20.4624 -9.77228
17.5318 16.4779 -11.4004
7.64888 -11.3062 -6.43955
20.3171 5.48415 -9.91253
14.1947 -11.2374 -8.41751
2.94753 -17.4142 -8.21093
19.6292 5.80803 -9.45911
18.1184 -13.2033 -10.3535
9.9188 -2.50544 -4.72758
20.5774 5.21575 -9.79629
17.6643 16.6135 -11.1792
1.8039 -20.091 -9.23238
9.75226 -9.11863 -6.11276
-9.15599 -1.66191 -4.2435
9.50208 -3.48672 -4.61038
6.77331 -11.4163 -6.0363
9.9668 -2.63266 -4.6765
19.5215 5.95291 -9.1904
18.0855 17.9418 -11.4577
9.41665 -3.10206 -4.46328
15.6479 -12.0406 -8.8586
7.1017 -11.666 -6.10725
7.20973 -11.0041 -5.86261
9.60963 -3.42277 -4.54638
-9.80656 16.0657 -8.37561
17.9274 -13.083 -9.86012
19.8133 5.70788 -9.14118
16.3162 7.4012 -7.93646
18.2016 18.3877 -11.4478
16.6609 -12.3903 -9.14932
-10.9896 16.7057 -8.78447
-6.43523 14.695 -7.02948
-5.1909 4.86771 -3.09877
20.4268 5.5464 -9.20417
9.60852 -3.42303 -4.4025
18.6175 18.8728 -11.3996
16.0443 -12.3463 -8.70961
15.0494 7.52514 -7.18369
3.85986 -9.35141 -4.29741
-10.9233 16.6075 -8.41086
7.00238 -10.9958 -5.49562
-13.4366 3.29284 -5.82759
0.741828 -22.1576 -9.34378
16.0147 -12.1247 -8.39878
-5.11411 5.63001 -3.18024
0.994088 -22.0113 -9.23753
1.23213 -20.6886 -8.68257
14.3454 7.69446 -6.81146
18.9757 19.7782 -11.4576
3.80167 -8.99759 -4.07261
14.9617 7.82995 -7.03189
18.3202 19.5695 -11.13
-9.45366 -1.08502 -3.92767
4.02191 -8.53156 -3.86399
14.212 7.84808 -6.66741
6.90213 -11.0786 -5.33509
-13.4817 2.51837 -5.6097
-7.79933 15.1016 -6.90261
19.7352 21.4477 -11.8136
15.2688 7.33709 -6.82797
-5.18299 14.1398 -6.03424
14.1314 -11.1718 -7.05427
1.5386 19.4428 -7.57882
-8.55806 15.4497 -6.85911
19.2627 5.87468 -7.80497
-1.74019 13.1281 -5.12755
5.33076 -9.45486 -4.18497
-2.36055 13.3234 -5.19486
20.1137 23.2714 -11.8005
4.68406 -8.55724 -3.70423
19.7004 5.65182 -7.80087
0.864506 -25.9421 -9.86704
15.1093 -11.6429 -7.17704
20.2727 5.49244 -7.86293
9.49276 -3.45862 -3.77774
0.527295 -22.1851 -8.27272
3.27609 -10.8817 -4.24422
20.7489 24.1435 -11.8283
0.907668 -8.69191 -3.2414
14.2049 -11.2491 -6.68008
20.6914 5.26279 -7.85186
18.2844 18.0693 -9.39894
-12.9093 2.26156 -4.7642
21.4539 25.6236 -12.1271
2.30325 -13.3368 -4.87464
13.1886 -10.6651 -6.10218
0.792318 15.5218 -5.56357
-8.15934 -2.78441 -3.08357
0.407847 -21.4496 -7.67111
-4.13915 13.5669 -5.04158
0.634603 -21.6092 -7.6841
16.0885 -12.1507 -7.14436
-15.342 17.7342 -8.26049
5.97108 -11.4168 -4.52913
-10.7677 16.2453 -6.80338
0.096373 -18.2233 -6.40781
14.4466 -11.4486 -6.44407
20.6466 5.43767 -7.45413
0.652649 -22.6646 -7.83229
-4.91019 14.24 -5.15704
3.65814 -8.49065 -3.18183
4.90541 -9.08521 -3.53745
-14.1454 17.5592 -7.71437
2.28483 -10.9243 -3.82409
-8.68038 15.7409 -6.12352
3.06481 -13.855 -4.83589
-14.6085 17.9275 -7.8363
20.4626 5.56366 -7.12931
22.791 28.1976 -12.1244
37.2057 -21.002 -14.274
-5.19211 13.7604 -4.88073
1.93194 21.0368 -7.01399
1.26839 -10.2423 -3.41238
33.4269 -21.013 -12.9811
-5.14302 14.1489 -4.88594
-12.2822 16.8116 -6.75061
18.8923 -13.4624 -7.53166
3.57267 -8.70163 -3.01555
6.26887 -10.1913 -3.83361
2.31986 -11.0287 -3.58608
-4.37856 -32.9407 -10.5663
-1.10385 -23.2373 -7.40809
15.2573 10.5085 -5.84957
-12.8861 17.1446 -6.77577
-17.506 18.8802 -8.09053
3.02418 -9.75146 -3.22013
7.03138 -11.2044 -4.08841
1.37319 -21.6136 -6.70069
-2.48856 -26.5637 -8.19304
7.40769 34.2606 -10.7044
0.767635 15.114 -4.59907
-10.8562 16.3771 -5.91874
-2.60478 -25.6218 -7.75971
-13.9792 17.4763 -6.67441
-5.10056 -33.4903 -10.0904
0.824845 -24.4625 -7.32083
-5.26365 14.4659 -4.57522
2.10283 21.0113 -6.22573
-20.6866 19.2875 -8.34178
18.4705 5.87788 -5.70716
-4.20421 14.1039 -4.32382
-7.73483 15.0008 -4.9481
4.28539 -9.20554 -2.98372
4.68044 -11.724 -3.68996
-12.4972 2.20154 -3.64669
-31.2929 -44.3291 -15.6176
-14.8035 17.8068 -6.65388
7.03565 -11.2048 -3.80776
2.57647 -9.58878 -2.82056
13.0877 -10.5932 -4.79072
-8.40673 -2.44662 -2.4826
21.7739 28.0857 -10.0748
-8.53248 -2.24885 -2.49336
-2.4511 -25.0529 -7.06839
-12.8981 1.97648 -3.63348
4.43435 -11.4465 -3.40581
-9.07195 15.5979 -4.9506
-12.7211 16.9639 -5.82105
-5.25795 14.0233 -4.08985
-8.06939 -39.2162 -10.9594
-20.8536 19.4595 -7.66542
-9.48076 15.718 -4.91608
-25.9062 19.9002 -8.68858
11.6236 11.6999 -4.35481
4.37462 -11.4171 -3.23774
48.7999 -14.1861 -13.4608
-7.73895 -36.5392 -9.82248
4.12114 -8.7239 -2.53978
11.2934 -10.0446 -3.95303
-14.0602 17.6031 -5.85542
6.59386 -10.5141 -3.2114
3.2013 -9.71383 -2.64332
-28.6152 -41.9113 -13.1077
-4.15657 -27.2825 -7.14484
3.57393 -10.4655 -2.85055
4.10096 -9.46144 -2.64968
15.8448 -11.9141 -5.05702
-6.95516 14.8126 -4.13854
-30.0615 -40.0916 -12.71
4.35798 -11.2609 -3.05487
4.28317 -7.75537 -2.25432
6.60524 -10.7735 -3.15057
46.3482 -14.0131 -12.0704
-27.3652 20.6457 -8.47313
-11.22 16.4821 -4.91261
-26.3937 -38.5046 -11.4807
-9.35738 -36.8436 -9.38131
-23.736 19.9358 -7.61547
4.38833 -10.4209 -2.7772
-11.7382 16.8116 -4.96885
-7.63525 14.8725 -4.02647
10.3753 -9.35831 -3.34492
41.5211 -13.7922 -10.4679
15.3253 7.66463 -4.08119
-5.97735 -34.256 -8.28801
3.99273 -9.14814 -2.36454
48.651 -13.021 -11.9514
-11.4001 -41.9877 -10.3117
4.24266 -9.07784 -2.38959
3.91627 -11.2309 -2.80166
4.94619 -8.75986 -2.36598
-12.4286 16.9357 -4.88637
11.1243 -9.7485 -3.37997
-5.91652 -30.0199 -6.98501
-26.297 20.3102 -7.53037
42.7882 -9.35773 -9.93847
-29.465 21.3928 -8.16221
-34.3697 -22.5234 -9.20832
-5.18259 -24.6864 -5.62764
41.9688 -12.9738 -9.86154
5.50106 -9.55434 -2.4608
-12.2855 2.80328 -2.76478
41.8437 -12.2624 -9.63247
43.9242 -12.5328 -10.0478
28.8488 40.6335 -10.9223
-5.21805 13.684 -3.19887
13.5703 -10.9198 -3.8331
39.1462 -12.5802 -9.03791
-22.6694 19.7573 -6.52111
-26.7358 -65.9204 -15.4418
4.35043 -9.79083 -2.32253
4.57897 -9.26039 -2.23068
-14.1609 17.6421 -4.82912
-29.8602 21.6898 -7.87921
-30.6916 21.7807 -8.04362
-25.3065 -67.1474 -15.3878
-10.3815 16.2202 -4.08105
-7.99874 -33.9658 -7.42409
3.22262 -9.78161 -2.19524
4.00868 -9.93362 -2.28305
47.3295 -10.9736 -10.3698
15.1551 7.59124 -3.59524
-14.7124 18.1101 -4.93806
5.20633 -9.12869 -2.20729
27.97 40.4731 -10.2883
-26.84 -26.2662 -7.79877
15.2018 7.95609 -3.56408
-29.3083 -22.6349 -7.68286
-29.2381 -74.9729 -16.6672
41.7192 -11.2274 -8.93368
-11.116 16.377 -4.02
-15.1653 17.9296 -4.77885
-33.8504 22.723 -8.28334
45.8643 -10.0042 -9.57167
-12.4167 -39.9574 -8.50818
4.17684 -9.82986 -2.17219
4.30422 -9.80153 -2.18129
11.7359 -9.7558 -3.10443
-11.646 16.7116 -4.06403
-18.3291 -52.61 -11.139
-12.2504 -38.0606 -7.91942
4.11084 -10.0203 -2.14359
-33.1056 -22.6373 -7.90685
-25.8596 20.2955 -6.46867
-32.173 -23.0139 -7.71165
-6.67016 14.7353 -3.13679
-24.4293 -57.4048 -12.1222
-32.5967 -21.7006 -7.54695
3.47016 -9.45488 -1.94405
47.4042 -10.9833 -9.34259
-12.3674 16.8847 -3.99912
4.02786 -9.43503 -1.95704
-35.3565 -21.4767 -7.83159
-20.4295 -33.1876 -7.4134
-14.5898 -42.1005 -8.43438
38.9892 -12.8617 -7.75991
-34.5496 23.2046 -7.78788
-32.7029 -22.5853 -7.46692
-31.6859 -23.1826 -7.37066
-19.8168 -49.0973 -9.966
-15.8246 -42.9873 -8.50033
3.85062 -9.27894 -1.85506
43.9198 -11.8373 -8.44555
5.81276 -9.80543 -2.08844
-22.7388 -51.5624 -10.3209
-19.0925 -47.3928 -9.24453
-14.1128 17.5916 -3.99741
-30.1767 -24.3382 -6.89192
-19.7034 -26.2557 -5.87125
-37.7588 23.8264 -7.87681
-25.8616 20.3063 -5.72214
-32.7962 22.4423 -6.89915
3.9522 -10.1585 -1.88931
4.80961 -8.68058 -1.72419
14.1954 7.6235 -2.78066
14.2784 8.19379 -2.82118
-29.7176 21.6102 -6.29838
43.5893 -12.3324 -7.71101
43.3534 -11.2282 -7.62251
-30.3346 -24.0914 -6.57201
-20.3871 19.416 -4.7266
-18.995 -47.2161 -8.60231
15.068 7.55226 -2.82828
-30.5518 21.6289 -6.25211
-21.8262 -52.0404 -9.32784
45.0019 -12.1233 -7.57411
-10.0235 15.9121 -3.03304
-19.2384 -47.7294 -8.21024
-33.8246 -23.3493 -6.4772
-22.0431 19.3668 -4.59387
-24.5408 -15.3849 -4.5746
-23.3745 19.9539 -4.76249
-38.451 23.2809 -6.96501
-10.8664 16.263 -3.01797
3.51108 -9.6352 -1.58531
3.91807 -10.3601 -1.7142
-7.34652 14.8992 -2.53524
-29.9259 21.7809 -5.65741
-30.8213 -23.8055 -5.92252
-27.1188 -25.3667 -5.6261
43.561 -11.3246 -6.84033
46.3645 -10.1013 -7.22831
-6.30675 14.0453 -2.30152
9.89718 -5.18782 -1.65859
-32.485 -23.4299 -5.9652
-24.1234 -61.0006 -9.73187
10.299 -9.25996 -2.06357
46.5257 -10.7633 -7.09084
-35.4952 -23.6287 -6.27609
-30.5467 -25.1962 -5.79296
-11.8772 -39.3577 -6.05138
17.1998 -12.444 -3.10885
-24.5306 20.1969 -4.61719
-22.9356 -51.3918 -8.11181
-7.34957 14.7191 -2.35064
-12.3083 16.7814 -2.96599
6.11994 -11.6917 -1.88485
-12.9762 17.3438 -3.04154
-33.3569 22.5335 -5.65915
6.84497 -11.1807 -1.83159
38.7058 -12.7738 -5.73156
-30.2267 -24.2206 -5.40627
-31.7269 22.8007 -5.41209
-19.2232 -46.3328 -6.93035
46.6863 -10.4444 -6.59581
-6.60955 14.6156 -2.19008
-20.7761 -54.2249 -7.89093
7.82435 -9.46872 -1.64802
9.27546 -9.13109 -1.79499
-13.5566 17.3095 -2.96293
13.3951 -10.6838 -2.31779
-21.4906 19.5484 -3.90599
43.4886 -11.2442 -5.9624
46.3897 -10.1614 -6.28481
-21.873 19.2485 -3.80958
-31.7094 -23.7276 -5.1734
-14.4173 17.6545 -2.94634
-32.7414 21.8533 -5.11046
-37.2568 -15.7313 -5.22211
7.09696 -10.5545 -1.63132
10.9253 8.94529 -1.81475
-32.8047 -22.6068 -5.09878
-30.2583 22.0894 -4.73884
-34.5237 -21.543 -5.10103
43.3329 -11.2067 -5.6003
6.87409 -10.4867 -1.56626
-7.37623 14.7529 -2.04076
-24.1603 20.2871 -3.86282
-32.1043 22.6263 -4.84481
6.38935 -12.2534 -1.68269
46.3363 -9.88591 -5.80235
15.2223 7.97524 -2.0675
-16.9116 -40.9604 -5.34487
7.16894 -10.6545 -1.54568
-20.1344 8.92344 -2.6069
-13.4025 -40.5441 -5.02261
-30.9052 -23.8273 -4.5634
-30.4004 -24.3126 -4.55554
43.433 -11.6345 -5.28375
11.3594 -9.78247 -1.73639
-28.7763 21.8197 -4.15484
6.72351 -10.9548 -1.47094
7.55736 -9.30436 -1.37082
11.7193 -9.83813 -1.73753
9.50875 -4.63882 -1.19822
15.1981 7.81006 -1.92707
-9.99833 15.917 -2.12039
-30.9476 22.6138 -4.294
40.097 -13.1996 -4.73293
9.44845 -9.1115 -1.45188
-10.6992 16.0465 -2.0958
6.90626 -13.0017 -1.5939
46.4898 -10.104 -5.15672
10.9272 8.97979 -1.52586
17.0588 -12.6718 -2.28003
43.6419 -11.319 -4.83016
9.71439 -9.06771 -1.40761
8.45128 -8.53711 -1.25823
-29.9913 -23.9999 -4.00002
-27.8415 -55.8451 -6.51064
15.1936 7.61989 -1.73782
-30.852 -23.7888 -3.99746
-12.431 16.9461 -2.13348
-12.3632 16.5638 -2.054
10.3125 -9.18147 -1.35236
-19.3082 -49.0368 -5.16773
6.42067 -12.2958 -1.34185
9.5821 -9.04673 -1.2462
16.9214 -12.38 -2.01476
43.5315 -11.6976 -4.31987
-28.266 -57.1368 -6.06052
-19.2015 -50.3914 -5.12231
-22.5288 19.7059 -2.79825
47.2529 -10.5121 -4.52062
9.81335 -9.07663 -1.23718
40.9855 -13.5202 -4.02066
-14.5225 17.8024 -2.0804
-29.0395 -13.2399 -2.90949
-29.747 -57.9899 -6.008
16.1122 -12.0599 -1.83024
8.7151 -8.80692 -1.12176
-35.2184 -19.9743 -3.54708
13.0633 -10.7831 -1.47461
46.8234 -10.853 -4.11663
9.49462 -9.11704 -1.10628
11.0749 -9.75282 -1.24011
-32.8199 22.5393 -3.31376
17.1267 -12.4894 -1.7551
-15.87 -41.297 -3.54398
14.9042 -11.6542 -1.50823
-39.1641 -76.5325 -6.82847
-11.1808 -31.3019 -2.62393
-28.7075 21.8282 -2.78954
-31.8078 22.4833 -3.00768
-21.1324 -48.2725 -4.06839
7.67366 -9.38995 -0.967711
-48.6162 26.4594 -4.19241
-20.6706 19.4545 -2.06528
-32.0222 22.6506 -2.84339
16.6549 -12.4446 -1.52038
43.5687 -11.6592 -3.2851
-35.657 -67.4669 -5.50684
14.1767 -11.2167 -1.29334
-14.6356 -38.8247 -2.86386
10.8871 -9.72296 -0.999823
-22.5487 19.7437 -2.02473
13.0422 -10.7619 -1.13156
18.2802 -13.2585 -1.50492
-21.6516 -49.8845 -3.59417
16.3083 -12.3355 -1.34996
-13.7928 -38.2422 -2.62979
45.4515 -11.8211 -2.93478
-29.2041 -59.1726 -4.02624
36.8451 -8.93879 -2.32636
44.5364 -10.1938 -2.80424
6.17281 -13.3433 -0.878159
31.9162 -21.119 -2.28885
-9.48272 15.8303 -1.08477
-14.6708 -38.2705 -2.33359
16.8944 -12.626 -1.18374
-9.5678 -12.4031 -0.858496
15.1894 7.79276 -0.924023
14.1006 -11.1621 -0.962676
-12.3575 16.7466 -1.08742
-15.5321 -38.4978 -2.20436
15.0832 7.9313 -0.836201
-15.3389 -39.2085 -2.06535
-13.6768 17.3356 -1.05643
9.6611 -9.11302 -0.608997
-22.1846 -50.889 -2.51118
12.6113 -10.3676 -0.756623
-14.9425 -41.6539 -1.96413
-16.1904 -39.8898 -1.84245
6.98094 -12.8907 -0.649977
-13.0097 -39.6586 -1.77733
-49.8967 27.136 -2.30251
18.6839 -13.4232 -0.933186
17.0944 -12.7063 -0.829103
-37.2154 -72.2316 -3.06371
-16.9643 -44.4863 -1.7526
-32.33 22.214 -1.43589
44.0676 -11.3546 -1.63801
-31.4131 -62.4861 -2.33829
-23.9 -52.377 -1.93715
20.8767 24.1453 -1.06187
-20.713 19.4104 -0.925838
8.28974 -14.6311 -0.56435
9.5152 -9.08377 -0.42631
11.4343 -10.0663 -0.495
18.945 -13.3957 -0.762107
35.8545 -13.5232 -1.27104
22.8527 27.6634 -1.15281
-26.813 -13.4491 -0.940349
-22.1166 19.6952 -0.903548
-30.5005 21.6023 -1.16766
-23.005 -52.8893 -1.78496
-13.0216 -36.8387 -1.20269
-19.846 -50.6258 -1.64513
-15.5141 -42.0467 -1.28294
-33.0675 -20.0495 -1.02987
11.5836 -9.82692 -0.406772
16.6126 -12.3563 -0.54545
-39.2511 24.2825 -1.21869
-29.128 22.164 -0.90679
-29.6448 21.7263 -0.870183
9.66356 -9.09716 -0.307351
-39.9214 13.7981 -0.934815
-29.4373 -49.2938 -1.29172
21.7236 -14.529 -0.57398
31.4349 -19.0614 -0.828921
14.3926 3.97757 -0.305137
29.5997 51.7262 -1.09927
24.0172 -11.1814 -0.466233
48.9437 -11.2704 -0.933608
-29.8008 -21.4159 -0.668925
-28.6006 -28.0914 -0.63509
-17.7557 -43.5688 -0.782053
12.8883 -10.5985 -0.274353
18.8784 -13.6416 -0.355567
-28.6412 -12.7303 -0.411576
-31.8379 -23.8266 -0.552916
-30.4371 -61.3586 -0.922495
-25.5558 -54.3912 -0.821555
-32.9245 -22.4856 -0.520234
-29.1432 22.1722 -0.432529
17.2989 -12.9185 -0.256037
30.1826 -18.7148 -0.417199
-29.6113 21.7391 -0.410426
-36.8169 -20.5719 -0.474603
-17.9577 -41.1853 -0.479274
-11.3752 -34.2396 -0.362147
-30.9773 -54.5818 -0.576246
-13.8369 17.5521 -0.172538
-26.1727 -13.1955 -0.236692
-14.5062 17.6833 -0.157437
-21.8036 19.4728 -0.151734
-20.3005 19.0415 -0.12787
-10.419 -13.3945 -0.0594253
14.9493 7.85327 -0.0210635
11.2384 -9.88235 -0.00776269
-33.5607 -18.3819 0.0585692
-10.7687 -32.0048 0.111345
17.2525 -12.5346 0.0928275
-17.7108 -40.6607 0.19893
19.1404 -13.486 0.124689
7.29648 -12.5427 0.105981
26.5734 -10.9025 0.177013
-52.8526 18.8723 0.533343
16.5227 -12.2452 0.196597
38.5575 -7.87215 0.371713
-28.5027 -8.03703 0.346127
-35.2023 -21.2473 0.453857
-10.7942 -30.927 0.352844
-51.5937 28.2766 0.717268
-12.0701 -33.4473 0.425
-9.80042 -30.1249 0.381603
6.45673 -13.1979 0.187587
7.31155 -11.2641 0.176621
-27.1619 21.3215 0.527078
11.4482 -9.99825 0.228608
-23.2962 19.9227 0.504402
11.0269 -9.8458 0.232101
13.15 -10.8256 0.268495
37.4498 -8.01496 0.637535
-33.529 -22.4638 0.734615
-30.0773 21.5058 0.724281
6.26535 -13.0907 0.281578
7.11675 -11.1999 0.255666
8.10719 -9.51332 0.244106
30.3372 62.3816 1.50596
7.80697 -9.5391 0.278693
10.2364 -9.27163 0.333241
-28.2435 -9.05646 0.714234
-22.5304 19.6658 0.807489
-26.5976 20.9724 0.907316
-28.3713 -8.51886 0.780358
9.27949 -8.98242 0.348892
9.72084 -9.03485 0.361775
-24.6852 20.8052 0.875435
25.8543 -5.23043 0.734548
13.1597 -10.7957 0.507153
15.4132 25.1095 0.907862
6.31005 -13.0175 0.455106
7.56625 -11.7947 0.439717
-27.9204 -7.87434 0.951548
-12.3554 -18.9176 0.745113
-27.612 -8.63004 0.999996
16.4087 11.231 0.718083
-29.1108 -18.0388 1.1974
16.4939 28.6519 1.17871
-29.7341 -16.219 1.25536
23.9401 -4.32303 0.878999
-27.1684 -19.3226 1.23585
-7.25114 -7.9062 0.404808
9.13822 -8.91118 0.474447
12.695 13.8872 0.724814
28.5427 58.8826 2.47631
27.333 58.1952 2.41921
-11.4517 -9.06444 0.575872
8.80354 -8.74878 0.490956
-24.7868 20.4186 1.30182
22.178 -3.00576 0.906736
-28.1422 -17.0936 1.34922
9.50701 -9.01456 0.537158
12.7369 14.6694 0.835193
6.69201 -12.6734 0.608434
15.3049 19.8864 1.10246
21.6978 29.9706 1.6195
-9.37263 -13.6279 0.727372
-9.82752 -15.3699 0.810344
7.69503 -11.0907 0.594662
8.70332 -8.79362 0.559075
24.6102 -3.77013 1.1242
-29.2687 -8.52928 1.3913
6.83318 -11.2337 0.604858
-8.21878 -8.08822 0.542652
22.9418 46.2886 2.47047
-27.9106 -17.2498 1.55132
-9.64412 -13.5278 0.791114
9.75676 -9.05263 0.626851
16.8789 46.9065 2.41209
-29.606 -13.1133 1.54556
-6.72198 -8.19506 0.521553
15.4869 36.0157 1.99962
-29.1324 -11.4082 1.57004
-7.55178 -6.94408 0.518473
-6.66401 -7.55437 0.509552
16.9164 30.6442 1.81673
10.7441 12.5634 0.892888
14.644 19.9281 1.32719
9.43575 -9.01222 0.699067
15.243 19.8333 1.38058
15.8438 24.4707 1.60456
-26.6465 18.762 1.78432
-6.9311 -8.1455 0.593115
-25.5827 19.6298 1.79077
6.21162 -13.1154 0.811633
-7.05677 -9.09429 0.656527
10.1446 12.6713 0.954183
15.5075 26.1285 1.77448
6.58452 -13.2246 0.849898
14.3325 23.3832 1.61942
-8.20599 -8.06612 0.693274
11.7298 11.8109 0.99222
15.0953 20.077 1.50864
-7.33897 -9.93483 0.768332
7.10156 -11.317 0.814046
11.3882 -9.82307 0.911722
5.94284 -10.8943 0.769838
-7.16034 -6.61835 0.609178
14.9194 21.1644 1.63792
16.362 7.26291 1.16205
-7.00581 -6.121 0.610297
6.59036 -13.7108 1.01343
9.76469 22.0571 1.62699
10.6077 12.7857 1.13537
13.9111 18.7057 1.62554
12.7937 21.2122 1.71372
11.5406 12.191 1.17795
6.66521 -9.9402 0.84735
11.6875 11.9576 1.20974
9.87643 -6.97179 0.86015
12.5678 12.1667 1.28439
10.0118 -8.45488 0.95993
-6.08092 6.5905 0.668313
10.5674 9.30498 1.05741
12.2376 18.2973 1.65596
11.7934 18.7894 1.67126
-6.908 -7.65706 0.799663
11.1724 19.2836 1.70974
9.60022 -9.03866 1.01893
10.6885 14.3478 1.4024
-6.3958 -4.28561 0.606905
9.47034 18.9739 1.69451
10.1546 -6.94875 0.985169
12.6556 11.7421 1.39532
10.0491 19.5116 1.76715
-7.21213 -9.56625 0.976009
6.77704 -9.46296 0.946962
12.442 11.9025 1.4106
12.3482 12.1441 1.43796
11.6127 12.138 1.39047
-5.00165 -11.4158 1.04891
10.5035 13.1413 1.43126
-6.93109 -6.05664 0.792661
-6.7865 -6.66592 0.803422
-5.16302 -11.324 1.05884
-7.26061 -7.70442 0.911661
9.35004 -7.30717 1.0252
-7.08068 -8.01254 0.935794
-6.97996 -7.64988 0.910735
9.56073 12.7618 1.41359
-6.9118 -8.32357 0.966651
10.9514 9.18899 1.3027
10.6657 13.7369 1.57118
10.6583 9.36081 1.29837
7.89749 14.336 1.5055
-6.4631 -8.09189 0.948932
-6.85898 -8.96096 1.0417
11.3652 10.9614 1.45676
11.3929 9.29546 1.37579
11.0306 10.9643 1.45779
6.67009 15.4142 1.57846
-11.3328 2.90331 1.09619
-6.34177 -4.15807 0.710138
-6.77725 -6.26758 0.855906
9.61785 13.5641 1.60402
-5.95601 6.47168 0.864785
8.0065 -6.64748 1.01412
8.09866 13.5039 1.5642
-7.03141 -7.5774 1.0414
9.46314 11.8327 1.52821
7.15156 12.6982 1.47917
7.21879 13.2994 1.54283
9.65404 9.20783 1.38061
6.02235 14.3572 1.61408
9.30824 12.6601 1.63833
-6.08861 -4.44316 0.789761
6.11754 14.0575 1.61525
6.37984 13.9751 1.61542
-6.94464 -4.41133 0.879689
8.87831 9.13219 1.35781
9.26782 10.3247 1.50892
7.45501 11.1941 1.46176
5.94584 11.7116 1.42826
-6.26902 -7.37487 1.05797
10.3644 6.51383 1.35436
9.09332 8.23032 1.35196
7.44881 11.9068 1.55101
6.97814 11.8604 1.52161
5.48013 12.1697 1.48533
4.99041 12.4055 1.49648
4.84977 14.1049 1.64155
9.96548 7.12543 1.36787
8.87318 9.43222 1.44708
5.49992 11.7686 1.46323
-6.80975 -6.69229 1.06261
6.98494 10.9027 1.45879
4.45019 13.5769 1.61553
9.80637 -3.21344 1.15056
-6.08279 -5.39505 0.941128
7.32508 -6.15003 1.08563
10.5062 5.76458 1.3744
-7.34971 -0.98157 0.849103
-6.23485 -5.33682 0.944465
5.26151 -5.57087 0.882745
5.18466 11.8927 1.50756
-6.85734 -4.54216 0.95286
4.47341 -7.29422 0.989377
10.4936 5.1912 1.3738
8.98121 7.97137 1.40971
-5.98405 -4.35509 0.86225
-6.46176 -5.25388 0.983633
4.11572 -7.91142 1.0603
4.98005 -5.866 0.923085
10.2464 4.79113 1.35591
8.61655 8.36705 1.4548
5.39194 11.7473 1.57831
9.1255 6.3218 1.35922
8.10531 8.43545 1.46554
-6.4644 -5.72425 1.07472
3.72484 -7.61024 1.06095
8.75703 6.75211 1.39054
-6.44383 -5.32456 1.05773
9.16905 6.06493 1.40356
8.26464 7.21154 1.3995
8.19891 7.58604 1.4263
5.79401 -5.3612 1.01339
-6.94607 -4.42661 1.05699
8.19243 8.08882 1.49339
-7.32653 -1.038 0.955505
-6.89914 -2.81659 0.972764
9.0372 4.12926 1.3012
8.48064 6.69065 1.41812
5.0133 -6.04596 1.03229
4.93188 -6.21191 1.05019
6.89304 -4.2969 1.08116
-7.10638 -1.71175 0.979409
-6.98449 -2.21203 0.97903
-6.0075 -4.40919 0.99596
8.21155 6.72114 1.43866
8.67073 4.47103 1.3301
8.69831 5.20717 1.38474
8.10898 7.20989 1.47703
-6.78488 -3.72057 1.05035
8.92271 4.18836 1.34924
8.33467 5.8827 1.39708
-6.37717 -4.31496 1.05333
-5.93989 -4.5117 1.01842
5.44145 9.16994 1.47318
3.72247 10.2992 1.52166
-7.33682 -1.08838 1.02658
-6.87943 -3.91294 1.09802
4.96121 -5.55732 1.02948
5.24188 -5.41231 1.04566
7.49133 -3.55015 1.15929
3.46561 10.3947 1.53625
8.46274 4.63175 1.36475
7.40231 -3.69173 1.1734
7.61575 -3.34751 1.18599
7.7923 -3.31863 1.20175
8.99237 2.8315 1.35698
4.84573 -5.6493 1.06974
7.37955 -2.86306 1.15237
-6.93366 -3.28835 1.11817
7.94964 -2.79065 1.22837
8.70374 -1.82826 1.30547
5.08395 8.70474 1.48848
3.01993 9.6545 1.50596
7.76172 -1.89511 1.1775
7.29092 5.80654 1.38885
3.52994 9.76638 1.53597
3.26035 10.0246 1.56332
-7.33897 -1.03894 1.09844
-7.04797 -2.01547 1.09198
7.01184 6.34755 1.42816
-6.24416 -2.26478 0.996339
-7.21082 -1.36971 1.10742
7.99916 4.85409 1.42557
5.77675 7.4439 1.42997
5.36018 7.72893 1.43188
5.127 8.12524 1.45298
6.78035 -3.23559 1.13614
7.27159 -3.1356 1.21268
7.66484 -2.76584 1.24172
-7.28505 -0.729782 1.11749
-7.07034 -1.94704 1.13139
6.81013 -3.10241 1.15729
3.75756 -5.79842 1.06835
-7.02666 -2.0682 1.14785
-7.31509 -1.08827 1.16069
7.41576 4.81012 1.39618
-7.16967 -1.4377 1.16287
-7.24167 -1.29574 1.17982
-7.07058 -2.01135 1.19494
7.12177 4.79831 1.40194
-7.07413 -1.93802 1.20439
7.06177 4.90137 1.428
6.66432 4.88826 1.37942
5.25859 6.30609 1.36819
4.73133 7.26172 1.44799
3.88205 8.05801 1.48747
-7.21975 -1.36792 1.22611
2.79591 -5.78407 1.08289
7.19192 4.45967 1.42576
6.5651 5.27989 1.4215
3.88049 -5.37468 1.11762
3.94234 -5.02817 1.08158
-7.24239 -1.24726 1.2461
-6.57629 -2.61645 1.20039
7.45758 2.86363 1.35501
7.0748 3.91607 1.37814
-6.39384 -2.74419 1.18336
6.8187 4.12542 1.36829
5.69599 -3.52798 1.15321
-7.36461 -1.03518 1.28552
-6.33679 -2.2732 1.15693
5.5479 -3.65619 1.14528
5.33018 -3.78196 1.14557
3.64651 7.26175 1.43012
-6.77485 -1.72886 1.2274
4.48739 -4.47475 1.11524
-7.06342 -0.91093 1.26809
4.73417 -4.46619 1.15175
4.3772 6.56613 1.40868
6.62406 3.494 1.35261
6.66543 3.70472 1.3701
-6.41964 -1.49548 1.185
3.61419 -5.33416 1.17205
5.12269 5.66282 1.39855
-6.13677 -2.17673 1.19287
3.41667 -5.16385 1.15149
3.4322 6.8609 1.43603
-1.69531 -5.77325 1.14281
6.4768 2.74559 1.33887
-2.14006 -5.71884 1.1737
6.34038 2.80996 1.33531
-2.78337 -5.36834 1.18475
-3.48549 5.29165 1.37095
4.49795 3.91737 1.36172
4.15408 -2.88076 1.17798
4.63449 -2.18901 1.23859
4.22116 3.30892 1.32902
3.70824 -2.93088 1.22429
4.03468 2.58525 1.33918
-1.44501 -4.12191 1.22247
-2.32263 -3.58166 1.21257
3.87444 2.37341 1.31683
-2.84364 3.50328 1.35099
-2.48266 -2.91852 1.18951
-2.38029 -2.93994 1.19455
1.83675 -2.80264 1.17863
1.85985 -2.78121 1.20869
1.98598 -2.51903 1.19532
-2.03467 2.79302 1.31225
2.80265 -0.555399 1.2592
2.78242 -0.336674 1.24114
-2.0921 -1.62099 1.21325
-2.07971 -1.45279 1.23821
-1.86531 -1.79833 1.28405
-1.99721 -1.13258 1.20454
-1.98864 -1.07142 1.23132
-1.9483 -0.881174 1.23141
-1.93248 -0.709009 1.22155
-1.93131 -0.702078 1.24873
-1.90743 -0.470058 1.22134
-1.87272 -0.345999 1.21845
-1.85769 -0.401514 1.22526
2.37308 -19.6076 -9.96651
-7.54386 -8.90646 0.461548
8.06654 -8.8517 -10.5286
8.31056 -8.67703 -10.5608
8.26198 -8.33619 -9.94022
6.99899 -12.0239 -11.4726
