ply
format ascii 1.0 
element vertex 1859
comment /media/mkaihara/Seagate Backup Plus Drive/model_iterations/model_32.ply
property float32 x 
property float32 y 
property float32 z 
end_header 
43.1641 -11.3404 -8.94345
-31.546 -23.5219 -7.81507
-27.2875 -23.8365 -7.17127
13.1813 -10.569 -3.34872
-28.1131 -23.811 -7.26199
-28.946 -24.8628 -7.53522
-33.2078 -22.6005 -7.90512
-28.4638 -23.686 -7.28608
-29.4951 -24.258 -7.49262
-34.9855 -21.7357 -8.00999
47.6657 -10.9493 -9.50769
-27.321 -24.9308 -7.13041
-31.9877 -23.9387 -7.64009
-33.2477 -22.7015 -7.63016
-31.2995 -21.8598 -7.24408
-29.7335 -24.1604 -7.19387
-30.1703 -24.8374 -7.38145
-29.6971 -24.7427 -7.29649
-22.6189 -30.2584 -7.12563
44.2896 -11.5586 -8.57889
-34.2554 -21.3049 -7.52958
-33.3479 -23.0313 -7.53245
-31.3448 -23.6593 -7.31261
-30.2684 -23.7934 -7.19754
-20.8236 -49.8953 -10.0631
-31.2167 -23.8518 -7.18942
-30.371 -24.4904 -7.11071
-30.4191 -25.2209 -7.24229
-21.4826 -50.0185 -10.0106
-16.0238 -44.7311 -8.70816
-33.3874 -23.3135 -7.42324
41.2519 -10.7982 -7.78463
3.89317 -9.91759 -1.93045
-30.2465 -24.8525 -7.04697
3.98335 -9.37663 -1.83197
43.1177 -12.0761 -8.0087
-30.3862 -25.1947 -6.9675
-15.0036 -21.7505 -4.67669
8.87506 -4.28335 -1.71723
46.1858 -10.5563 -8.36435
45.1013 -12.915 -8.22559
-29.1034 -24.9927 -6.69082
41.9359 -12.9339 -7.57632
-30.3033 -23.7617 -6.62241
-29.7027 -25.1366 -6.56128
-30.0864 -23.5387 -6.36112
42.6837 -12.3681 -7.34513
46.1725 -10.5816 -7.68766
-22.5279 -53.1326 -9.09753
-31.0224 -24.1407 -6.05479
46.7333 -10.7028 -7.29253
-30.7371 -24.2717 -5.90717
-32.4506 -23.0303 -5.86837
-28.4916 -24.2254 -5.50536
-33.0735 -22.3665 -5.80615
-19.9777 -48.9094 -7.69952
-33.2847 -22.7146 -5.70013
43.3804 -11.2979 -6.39036
-31.6137 -23.8233 -5.58236
-31.1086 -23.8511 -5.56996
-29.7679 -24.7764 -5.42779
-28.6571 -25.5659 -5.39875
-30.0529 -24.5659 -5.4061
40.1642 -13.1914 -5.89788
-34.488 -22.0429 -5.64537
-31.9824 -23.8915 -5.46688
-31.2539 -23.7637 -5.38497
-32.2906 -22.8912 -5.36957
-32.1097 -23.4089 -5.41985
-30.0266 -24.7861 -5.29268
13.4184 -10.6677 -2.3196
-33.6416 -21.2983 -5.32916
-32.6097 -22.6837 -5.34288
-31.5996 -23.8255 -5.26701
6.86964 -10.3088 -1.64569
-34.0842 -21.3891 -5.24697
-32.6659 -20.8458 -5.0023
-32.9383 -22.7496 -5.19194
10.4611 -9.24241 -1.80466
-32.9694 -22.4726 -5.1021
-21.3011 -48.5985 -6.70929
-33.9953 -21.4888 -5.04783
-32.7353 -22.7539 -4.98763
-30.3806 -24.326 -4.88756
10.8965 -9.49525 -1.81795
11.6932 -9.83793 -1.90182
-32.2429 -21.8312 -4.78873
-32.7838 -22.5489 -4.90123
-31.7956 -23.9909 -4.90546
10.6921 -9.40683 -1.76269
-36.1416 22.642 -5.11655
-19.6657 10.022 -2.62886
-18.8254 9.37593 -2.51892
-26.9459 -14.5666 -3.57187
-26.2832 -16.1718 -3.55432
45.8902 -10.2778 -5.39137
7.22272 -10.3276 -1.4264
9.99369 -8.94204 -1.49228
42.6118 -11.1533 -4.89357
-27.0043 -16.5145 -3.44473
47.0175 -10.7416 -5.23265
-28.7032 -14.7506 -3.47705
10.4635 -9.18235 -1.49201
10.191 -9.04511 -1.44595
13.1371 -10.6708 -1.79877
14.9281 -11.4893 -1.98683
9.51507 -4.7527 -1.11409
9.50708 -3.51612 -1.06821
9.50484 -3.4077 -1.05931
-27.5591 -16.4495 -3.35608
10.2058 -9.12876 -1.39097
15.4136 -11.6073 -1.94839
-27.7663 -12.7661 -3.06586
43.4667 -11.2917 -4.39556
9.77409 -8.88667 -1.27977
14.0019 -11.1113 -1.71823
14.7947 -11.3903 -1.78839
9.49862 -3.40846 -0.969302
15.443 -11.8166 -1.84023
-23.7847 20.2393 -2.87151
-22.2655 -50.6467 -5.10453
9.46749 -8.35605 -1.18084
8.44528 -8.58937 -1.06945
-24.5491 20.5088 -2.8484
11.6265 -9.89196 -1.35408
15.9404 -12.0557 -1.75676
16.9367 -12.4609 -1.83091
9.90235 -9.12163 -1.15803
-32.5836 -62.8907 -6.0896
13.5442 -10.898 -1.48151
-34.3475 -21.5108 -3.4321
11.6177 -9.9626 -1.28788
46.9132 -10.2013 -3.98254
40.1782 -13.1556 -3.38827
-29.5421 -14.161 -2.6206
18.3966 -13.2124 -1.72306
-26.5467 -13.6519 -2.17188
17.1641 -12.5876 -1.49783
-16.2536 -43.4657 -3.16494
-14.3972 -37.2027 -2.67864
42.4145 -11.0979 -2.97228
44.0832 -10.0023 -2.97425
11.8468 -10.0707 -1.00684
13.3078 -10.8049 -1.10312
13.6772 -10.8423 -1.10236
-16.1417 -40.2342 -2.67863
-33.3639 22.9638 -2.38719
16.9388 -12.5323 -1.23759
15.8883 -11.9994 -1.14751
17.5817 -12.8554 -1.25468
-36.0597 22.6317 -2.32173
-9.45103 -12.3891 -0.830157
-15.203 -38.5868 -2.24369
-13.5467 -38.39 -2.18306
-27.8937 -16.3388 -1.69015
-16.5132 -40.4769 -2.29445
-14.1534 -39.1972 -2.18523
-27.3977 -13.3771 -1.57834
-28.3741 -14.4156 -1.65912
38.9766 -8.31973 -2.05403
-38.3023 -73.0176 -4.05787
18.2097 -13.1108 -1.08978
-27.177 -13.6379 -1.44849
-15.7674 -39.0966 -1.94395
-25.9483 -16.1104 -1.31619
-36.1725 22.7215 -1.54077
45.3102 -9.77912 -1.58583
-30.2653 -13.8927 -1.01893
-25.64 -55.0593 -1.86964
-12.3392 -35.8413 -1.16854
-31.4887 -23.7403 -1.18195
-25.6761 20.954 -0.896522
36.8861 -8.76416 -1.02725
-34.5067 -21.4401 -0.993995
-34.1685 -21.6107 -0.982598
-32.0242 -63.6737 -1.63197
-18.0513 -41.2423 -0.952185
-34.4481 -21.608 -0.76955
17.155 -12.5574 -0.408757
-33.9609 -21.4757 -0.55049
17.2825 -12.6542 -0.246346
13.3858 15.2283 -0.212121
-33.1346 -22.1 -0.38646
11.2426 -9.71248 -0.133545
-35.261 -20.4795 -0.339957
-28.3204 -8.52221 -0.123386
-28.9393 -9.28279 -0.0833886
11.6169 -10.0478 -0.0031131
-12.7332 -19.6008 0.0345519
43.3543 -9.61686 0.136002
9.16615 -8.96127 0.104852
15.2791 -11.6724 0.154357
11.4424 -9.88977 0.140947
13.4433 -10.8047 0.181169
18.4398 -13.2314 0.220567
-27.2367 -13.1958 0.333642
-32.6503 -21.6934 0.450671
-34.0861 -18.3003 0.439977
-34.9251 -21.5079 0.510687
-13.3834 -20.3168 0.280272
-12.5972 -19.7678 0.311298
-13.0787 -19.5913 0.337938
15.2124 -11.6674 0.282936
-29.6592 -12.8334 0.569366
-35.7198 -19.2388 0.784393
-13.8311 -21.7023 0.512765
-29.8162 -13.0788 0.688062
-35.1001 -19.5426 0.818788
18.4821 -13.2664 0.475697
10.5962 -9.31807 0.301467
10.5017 -9.324 0.348829
-8.16317 -9.68478 0.357701
10.624 -9.35684 0.420382
13.6803 -10.9269 0.541955
10.4659 -9.54113 0.465714
13.3844 -10.7872 0.567465
-9.16709 -12.9388 0.589955
10.6099 -9.55857 0.532594
13.3772 -10.7194 0.676216
-29.7135 -16.5774 1.376
-31.5125 -18.2243 1.48075
9.62403 -9.19295 0.562414
-28.5423 -17.0417 1.45632
24.059 47.6975 2.36859
9.68991 -9.02327 0.587611
10.5741 -9.46705 0.673549
12.4225 -10.3734 0.756916
-6.07041 6.53465 0.44019
-6.84447 -8.12689 0.532266
-7.09439 -9.20529 0.572403
-27.8607 -10.9903 1.5696
-6.80111 -8.42506 0.559156
12.0945 11.9374 0.902873
17.0789 25.5024 1.62969
16.4761 24.9489 1.57109
8.95268 -8.69943 0.670346
8.73209 -8.63988 0.676226
15.3114 26.2691 1.68976
-28.2002 -8.45728 1.64162
-7.49391 -7.98608 0.615699
10.4865 -9.46315 0.812001
-6.73329 -8.17105 0.634367
-6.69225 -8.40723 0.646183
-7.52872 -7.92185 0.677984
-6.86887 -8.19315 0.669337
9.63464 -8.95873 0.824004
10.5666 -9.45321 0.889742
10.6703 12.4745 1.06804
-7.29364 -9.4489 0.787338
12.8596 19.5238 1.57799
13.4461 21.4636 1.70464
9.60182 23.8819 1.79186
-7.06424 -8.26316 0.754393
-7.07157 -7.58635 0.737075
9.59623 -8.92811 0.930402
11.5417 12.1338 1.24041
12.0742 17.1643 1.57881
12.7727 11.6849 1.33074
13.051 11.6245 1.36171
12.4484 11.7382 1.33231
12.2251 11.8712 1.34938
-7.1769 -9.32564 0.932795
11.7884 12.1318 1.36217
-7.33703 -6.11327 0.754806
-7.02561 -8.06042 0.860709
-6.728 -8.26538 0.858404
-7.24386 -6.22398 0.760772
9.31548 -7.6337 0.998186
-7.32511 -8.06503 0.907199
-7.34389 -9.83054 1.02549
-7.25229 -7.83641 0.897937
9.24864 -7.00692 0.982545
11.8316 12.107 1.43948
-6.34115 -4.32248 0.65682
-7.04161 -8.31757 0.93914
-6.79986 -8.3687 0.957923
9.04517 -6.89867 1.01483
8.25909 -7.17174 0.983571
5.95245 -5.92706 0.775644
10.9826 11.2661 1.50739
-7.003 -5.70935 0.862447
10.9099 9.42685 1.40152
-7.1355 -5.6935 0.890121
7.77533 -6.60258 1.00383
11.2149 9.96139 1.48312
11.0575 9.20434 1.4453
9.74583 11.7254 1.52712
-6.48034 -6.4755 0.918216
-6.8485 -4.49969 0.829536
-6.94368 -7.28123 1.01931
10.9148 9.20361 1.47724
10.2645 9.58269 1.43979
9.43255 10.2619 1.45658
-6.83343 -4.44047 0.858311
-7.11071 -5.65136 0.971053
-7.08216 -5.691 0.969899
-6.89298 -4.61247 0.905068
-7.03427 -5.48227 0.969226
8.82253 10.4319 1.51816
-6.87291 -3.41817 0.859823
-6.94435 -4.33249 0.912467
-6.81983 -3.47812 0.859445
-6.86249 -3.56202 0.866447
-6.86801 -4.21754 0.906264
-6.88863 -4.38752 0.921477
-6.88842 -4.47281 0.924166
8.85907 8.92794 1.42462
-6.92661 -3.83919 0.907906
-6.8912 -4.05574 0.905716
-6.89059 -4.13908 0.91339
5.86731 -5.79389 0.952988
-6.90393 -3.40381 0.896444
-6.91395 -4.35582 0.94783
-6.88371 -4.42716 0.949464
-6.87852 -2.81955 0.871155
-6.8601 -3.60389 0.906752
-6.94361 -4.11929 0.949577
-6.89048 -4.18795 0.944335
8.61806 8.15139 1.40772
-6.8941 -2.97194 0.905131
-6.87208 -3.95551 0.951784
-6.85566 -3.64277 0.942095
-6.89849 -4.11133 0.982999
-6.88417 -4.29422 0.994235
-6.44678 -5.34014 1.02307
6.02498 -5.97388 1.03676
-6.88367 -3.73846 0.97067
-6.88183 -3.90247 0.982187
-6.98544 -4.7224 1.05149
-6.91031 -4.37184 1.03151
-6.84435 -3.4662 0.971443
-7.0532 -2.16216 0.942147
-6.8614 -3.07158 0.963826
-6.87992 -3.14885 0.972964
-6.12484 -5.46832 1.06959
-6.90084 -3.21895 0.99517
-6.36017 -4.34896 1.01462
-6.77385 -3.77095 1.02691
-6.85961 -4.16942 1.06466
-7.02462 -2.12713 0.979817
-6.97557 -2.32722 0.988786
-6.88344 -3.25489 1.01658
-6.8826 -3.52675 1.03478
-6.89025 -3.38144 1.04787
-7.0062 -2.15321 1.0179
-6.90641 -3.16821 1.05149
-6.87661 -3.25165 1.05109
-6.8246 -3.63683 1.06689
-6.88018 -2.935 1.04494
-6.84588 -3.39847 1.0662
-6.86083 -3.74101 1.09877
-6.90977 -3.22443 1.07777
-5.9863 -4.47774 1.06325
-6.86476 -3.57174 1.11087
7.76662 6.40601 1.45545
5.27788 8.46361 1.44332
-6.86846 -3.48031 1.11427
7.32387 -3.53401 1.18044
-6.86062 -3.26755 1.10819
-6.85709 -3.37887 1.11426
-6.84104 -3.18906 1.10986
-7.13777 -1.7466 1.08239
-6.89195 -2.93145 1.11171
-6.89735 -3.01851 1.11617
7.19122 5.66148 1.41734
-6.35687 -2.27777 1.04691
7.11961 5.2151 1.4087
-6.98822 -2.40184 1.18811
-6.44234 -2.81143 1.14592
3.85105 8.07119 1.47507
-6.29094 -2.25458 1.10872
-6.45838 -2.28238 1.16616
-6.13055 -2.27338 1.1382
2.60633 7.53639 1.51378
7.87009 -8.56304 -10.222
7.99738 -8.84627 -10.4363
7.728 -8.79005 -10.1835
8.23221 -8.36424 -10.0524
6.97089 -11.5113 -11.0258
8.18361 -8.31093 -9.56962
6.97605 -11.9304 -11.22
8.06089 -8.44878 -9.27998
8.00716 -9.20722 -9.49936
8.27877 -8.74016 -9.36022
7.89357 -9.02525 -9.14427
8.34063 -8.75097 -9.17259
6.34255 -14.0159 -11.4819
7.52533 -9.46543 -9.03693
7.96183 -9.12161 -8.96339
6.2404 -14.3832 -11.547
6.28679 -12.911 -10.5521
9.28337 -8.88383 -9.40844
9.2669 -9.03939 -9.42116
5.98336 -12.7692 -10.2317
5.91998 -13.1412 -10.3197
9.41597 -9.04106 -9.33949
9.26997 -9.08184 -9.21749
6.95002 -11.2511 -9.38058
5.63033 -12.9932 -10.0201
6.53773 -11.0449 -8.82716
8.50148 -8.88825 -8.4
11.849 -10.0539 -10.431
8.28927 -8.67466 -7.94052
7.47391 -9.32287 -7.87987
8.29838 -8.83692 -7.9964
9.21771 -8.83873 -8.40777
7.64913 -9.37811 -7.9042
12.2024 -10.1907 -10.3461
4.67866 -15.8284 -10.6714
9.23631 -8.8745 -8.23648
5.03234 -15.4141 -10.452
7.80315 -9.35627 -7.79773
8.29989 -8.52203 -7.60611
0.344852 15.6646 -9.99397
4.75428 -15.173 -10.1225
10.9715 -9.64832 -9.29057
7.96302 -9.13039 -7.67797
8.21139 -8.5462 -7.47905
4.7387 -15.8182 -10.373
-0.398192 13.5665 -8.48707
8.89063 -8.85565 -7.74906
4.23133 -18.6849 -11.8311
7.96538 -9.10893 -7.47032
8.31905 -8.62346 -7.39858
4.27491 -15.4449 -9.81465
8.27043 -8.6941 -7.33665
4.2603 -18.1885 -11.3927
0.148073 15.0406 -9.16261
3.77048 -17.8946 -11.0673
4.18944 -15.8018 -9.88427
7.09136 -10.8864 -7.79689
8.10417 -9.26875 -7.39515
4.20809 -16.6067 -10.2095
8.34499 -8.72274 -7.19147
9.47619 -9.06369 -7.81422
10.7626 -9.27906 -8.49611
7.06256 -11.1358 -7.84175
7.78049 -9.32503 -7.20797
9.12377 -8.875 -7.54206
8.05024 -9.22362 -7.16384
8.63697 -8.83163 -7.21018
9.77124 -9.22339 -7.83148
6.81991 -13.4226 -8.69037
9.31048 -9.03957 -7.49413
5.83783 -13.4639 -8.46814
6.92896 -10.935 -7.46062
9.62902 -9.17411 -7.573
12.0502 -10.3346 -8.96189
10.8723 -9.55505 -8.14223
6.92519 -11.171 -7.3771
9.2059 -9.15008 -7.27825
9.32232 -9.08771 -7.27912
12.7287 -10.6248 -9.26042
4.67699 -14.4344 -8.48068
10.2805 -9.46004 -7.80916
8.58375 -8.76312 -6.82779
2.74361 -17.2878 -9.6565
8.14656 -9.39205 -6.90959
14.9272 7.63504 -9.16998
2.70296 -19.7906 -10.8651
2.43241 -8.81315 -4.9583
2.97436 -19.8525 -10.8469
14.8977 7.75998 -9.02375
2.35937 -20.1194 -10.7584
11.0501 -9.69076 -7.8182
9.85469 -9.10093 -7.10368
15.0906 7.5731 -8.93868
2.36766 -8.83077 -4.83179
1.65121 -19.696 -10.21
2.38018 -20.7509 -10.714
14.0904 -11.2581 -9.24141
-9.2413 -2.58998 -4.88533
11.437 -9.90389 -7.68349
2.16848 -20.1932 -10.2357
10.2084 -9.31966 -6.98365
0.84686 17.5322 -8.73113
11.0903 -9.72955 -7.35448
-8.81836 -1.93979 -4.42879
2.20509 -20.1168 -9.93731
3.86981 -9.22983 -4.9154
11.3541 -9.74241 -7.32401
1.99277 -19.8215 -9.73776
-8.24198 15.8089 -8.64164
2.5081 -11.2149 -5.49847
1.9921 -21.0325 -10.0605
0.62981 17.1727 -8.14143
15.0606 7.69907 -7.98893
17.6427 16.5262 -11.4383
18.0211 17.2692 -11.6019
14.5047 -11.4695 -8.57393
9.85789 -2.62416 -4.72964
17.5792 16.5475 -11.1605
9.80473 -2.4817 -4.67999
-10.0596 16.5118 -8.81014
-9.51147 -2.06086 -4.41359
9.90766 -2.62158 -4.6529
10.2426 -2.41201 -4.76738
9.81338 -2.99367 -4.64462
-5.35428 4.41314 -3.12701
8.13559 -8.37308 -5.26383
18.1755 17.7119 -11.4001
18.0403 17.8832 -11.4242
19.4421 5.9145 -9.11914
7.19005 -10.9732 -5.84404
20.5967 5.40796 -9.46449
9.61159 -3.43961 -4.53965
-9.74138 16.006 -8.318
-5.30198 4.85789 -3.18428
19.5461 5.64688 -8.99614
-11.0815 16.8901 -8.8864
18.3233 18.177 -11.3219
-6.43124 14.7352 -7.05506
9.6396 -3.61875 -4.48787
20.33 5.50957 -9.13502
18.481 18.7527 -11.3566
18.2708 18.907 -11.3376
15.0281 7.69131 -7.19877
3.87804 -9.3925 -4.30696
-11.0315 16.7769 -8.48132
-13.3368 3.26653 -5.78756
1.26687 -21.4263 -8.99406
3.26306 -10.2239 -4.48964
14.3366 7.72308 -6.81183
19.0854 19.9261 -11.5477
3.88412 -9.2187 -4.16569
14.9731 7.80749 -7.00783
18.7551 19.9958 -11.3899
14.1705 7.82785 -6.66076
4.01031 -8.49099 -3.84961
6.82277 -10.9297 -5.27686
-13.2753 2.49702 -5.52832
15.1343 7.58556 -6.90325
-7.87287 15.2263 -6.96595
1.19036 -10.5924 -4.32961
0.758158 -21.626 -8.76427
-12.8436 2.32628 -5.25124
-9.26423 -1.43036 -3.74257
-5.02697 5.5774 -2.97568
2.83885 -11.7675 -4.77466
14.3576 -11.3273 -7.14874
4.12673 -9.51339 -4.06402
1.5274 19.2954 -7.52495
3.97032 -13.2438 -5.34427
19.229 5.8786 -7.75171
0.873613 -25.7755 -9.8497
4.7689 -8.70968 -3.76888
11.8264 -10.2386 -5.9436
19.5953 5.6427 -7.73182
20.6637 24.5008 -11.9754
20.1992 5.48608 -7.81186
20.953 24.4254 -11.9976
3.28687 -10.9216 -4.25458
-12.7886 17.221 -7.91174
11.9988 -10.1826 -5.78579
20.6002 5.25908 -7.79633
21.5964 25.8216 -12.2346
-8.13986 -2.80669 -3.11933
19.5154 5.78984 -7.331
2.28956 -13.2678 -4.84394
0.80865 15.8563 -5.6932
-4.21403 13.7233 -5.1163
-8.19331 -2.78985 -3.08819
6.78791 -10.599 -4.468
-15.6361 18.0657 -8.44383
16.1576 -12.2008 -7.17212
-10.8668 16.3798 -6.869
19.5611 5.96401 -7.10348
3.73468 -8.70928 -3.26809
-8.6263 15.6834 -6.0878
3.0149 -13.5951 -4.74856
19.2177 -13.7471 -8.08251
34.9761 -21.6691 -13.9821
-14.6058 17.8912 -7.79326
20.3175 5.52058 -7.06065
37.9675 -21.4397 -14.5591
41.7694 -20.5562 -15.5133
16.6384 7.46344 -6.07716
3.47233 -10.3296 -3.63292
1.34986 -10.9232 -3.63823
-6.14221 14.6471 -5.17749
-12.4223 17.0364 -6.86011
15.967 -12.2708 -6.55062
6.08189 -9.90812 -3.73632
3.35813 -10.1863 -3.43894
-1.10634 -23.2612 -7.44041
2.32948 -11.0446 -3.59566
3.2531 -10.1228 -3.36883
2.83656 -9.07019 -2.99675
13.7722 -10.89 -5.51786
-17.5247 18.9424 -8.07812
-8.66464 -2.63913 -2.83689
29.2501 -16.0447 -10.465
1.35818 -21.2431 -6.57397
20.2856 26.2669 -10.0086
3.24428 -9.92836 -3.14855
3.45938 -8.9991 -2.9017
-14.0321 17.5488 -6.71967
-20.8507 19.4444 -8.44238
-7.77542 15.1169 -4.99918
4.81425 -12.0909 -3.81157
4.17405 -8.97251 -2.90886
2.09321 20.7679 -6.13268
-4.25283 14.2907 -4.36545
4.07843 -9.00398 -2.88975
-14.9239 17.9542 -6.7306
-30.8924 -44.1477 -15.4168
7.19928 -11.2095 -3.80004
2.55273 -9.50163 -2.78917
-8.36808 -2.19195 -2.43872
4.47664 -11.1102 -3.37629
-2.38613 -24.0937 -6.78762
-9.06061 15.622 -4.97145
4.39566 -11.3405 -3.35258
8.63492 -8.42243 -3.31416
-12.7766 17.0222 -5.82379
46.835 -15.5278 -13.4489
-8.6836 -2.42889 -2.44156
-23.7967 19.9726 -8.40192
3.26737 -10.041 -2.85311
3.42169 -10.05 -2.86692
-4.08741 -29.4051 -7.97454
-26.1161 20.0293 -8.77188
43.7493 -14.4339 -12.1741
47.2148 -13.6675 -13.0036
-8.15883 -36.7359 -9.91862
-7.89169 -37.2265 -10.0352
-14.0964 17.6643 -5.86294
9.91528 -9.01695 -3.50251
11.4142 -10.135 -3.96484
-10.3843 16.2018 -4.97643
-13.1141 2.02622 -3.47016
-4.11639 -26.9967 -7.09833
3.28123 -9.91796 -2.70015
3.5434 -10.3664 -2.83454
-25.5465 20.2522 -8.36043
4.30895 -11.1338 -3.01993
4.43301 -9.74523 -2.70003
9.54234 -9.22802 -3.34598
6.96958 -11.451 -3.36378
-26.4894 20.4392 -8.35832
45.0894 -13.1248 -11.7166
-11.2412 16.5611 -4.96559
11.9136 -10.259 -3.88554
3.38929 -10.3075 -2.66934
-23.8888 20.0669 -7.63095
10.0433 -9.07 -3.25545
-7.65582 14.9332 -4.02624
4.09832 -12.1069 -3.07876
15.2428 7.65611 -4.08328
3.41224 -11.2126 -2.80916
3.18457 -9.93018 -2.485
4.85587 -12.6566 -3.26268
-6.42268 -36.7531 -8.88356
-10.6138 -40.7812 -9.99518
3.98871 -9.13731 -2.35789
-28.1007 21.0004 -8.28654
15.052 7.70406 -3.96153
-9.1993 15.8896 -4.31003
3.96924 -11.4428 -2.85011
-12.5181 17.0662 -4.94456
-25.7302 20.4167 -7.62692
3.49712 -10.3572 -2.5064
11.1295 -9.55473 -3.38458
15.8339 -11.9365 -4.54171
-36.1706 25.5924 -10.1314
-11.859 -41.2902 -9.79562
10.9961 -9.61457 -3.34113
-11.166 -40.137 -9.45575
-5.90409 -29.9495 -6.94987
41.6903 -12.8888 -9.88733
-26.3288 20.3398 -7.50587
14.8622 -11.5335 -4.22955
-29.8938 21.7147 -8.29014
4.45513 -5.81248 -1.644
5.32454 -9.22979 -2.38387
-25.8909 -66.7972 -15.846
-9.40385 15.7415 -4.03698
-12.3704 -42.4904 -9.7405
4.13357 -9.84022 -2.3484
13.5902 -10.9628 -3.84915
4.03415 -9.23706 -2.21623
42.0796 -12.4442 -9.60897
-22.89 19.9527 -6.62097
3.413 -10.154 -2.29825
4.42891 -9.96904 -2.35988
15.1271 7.6041 -3.63843
-28.1301 21.0485 -7.55157
-20.5817 -32.632 -8.29048
-7.99818 -33.8839 -7.44925
-23.7848 20.0604 -6.62909
-30.1484 21.8978 -7.9292
3.27402 -10.0082 -2.24663
4.89833 -8.90791 -2.15552
14.9372 7.79996 -3.5678
4.26962 -10.5865 -2.42853
42.7771 -11.1479 -9.36703
-10.2731 16.0916 -4.02612
4.36285 -9.19971 -2.1353
3.16025 -9.14681 -2.00512
5.18746 -9.10048 -2.19433
14.9385 7.5171 -3.48549
-36.8206 24.2464 -9.17617
-26.5677 -24.6343 -7.49003
3.03525 -9.49549 -2.07202
-27.8942 -29.4147 -8.35347
-19.2607 -30.0753 -7.35543
-31.6178 -80.8791 -17.9238
3.87733 -9.38561 -2.095
3.75584 -8.77881 -1.95948
-15.2276 18.0066 -4.82568
-22.9258 -60.7713 -13.3366
4.00879 -8.82644 -1.98205
-34.3691 23.0167 -8.40952
-13.8391 3.02757 -2.89442
-32.6653 -23.0857 -8.15771
-25.0496 -69.1975 -14.9856
-10.8218 -34.8543 -7.42456
45.042 -9.83708 -9.36425
15.0989 7.71391 -3.3987
-17.3942 -23.0427 -5.80249
12.4576 -10.1804 -3.23489
-17.6678 -50.5463 -10.6904
4.21738 -10.8493 -2.32096
-11.7281 16.8168 -4.07141
-25.4501 20.0254 -6.41847
-34.5614 -20.4598 -7.98536
-31.3532 -24.486 -7.88499
-8.7596 -33.9604 -6.98662
14.6957 -11.5861 -3.70712
4.05824 -9.89305 -2.10743
3.24817 -9.92738 -2.04719
-34.4594 22.7694 -8.02587
-21.7194 -52.2993 -10.9489
-15.0754 -43.5322 -8.78888
3.51023 -8.96169 -1.84285
-19.5893 -31.7269 -7.08062
-31.1628 -24.3205 -7.4544
-28.2935 -25.1238 -7.12348
-20.5985 -50.9037 -10.3919
3.91477 -9.15912 -1.89655
-15.7784 -43.037 -8.58134
-24.2946 -55.2059 -11.0964
3.46348 -9.27819 -1.82814
-31.6338 -23.611 -7.18665
-30.4258 -26.0877 -7.30521
-31.9341 22.4827 -7.03954
-19.0658 -47.1733 -9.08105
-30.445 -24.5251 -6.87678
-22.5212 -58.3154 -11.0156
-33.1624 22.069 -6.9745
-15.6125 -44.0285 -8.19378
3.4274 -9.63337 -1.78674
14.2488 7.90816 -2.82732
-33.8564 23.2001 -7.11812
-28.1509 -24.6731 -6.51114
3.50013 -9.58553 -1.76921
4.82608 -8.70748 -1.72499
-26.0934 20.4861 -5.73235
-29.7894 21.6664 -6.35284
-30.1623 -27.7818 -7.07653
3.91962 -10.086 -1.86658
14.0941 7.59807 -2.75246
-22.1687 -50.9388 -9.45021
-20.0885 19.1135 -4.67828
-30.6899 -24.3931 -6.6484
-18.6198 -46.1654 -8.44313
5.66292 -11.8648 -2.2192
43.3926 -12.2556 -7.6432
-17.1896 -45.8805 -8.25116
42.4535 -11.0458 -7.37825
5.04448 -10.8244 -1.98748
6.75598 -11.2258 -2.21286
-10.0639 15.9999 -3.06552
-29.5864 -22.9027 -6.0978
43.7999 -11.7627 -7.37944
-21.5119 19.5414 -4.71346
7.66159 -9.23325 -1.90026
-19.2148 -47.5388 -8.14549
-22.279 19.5888 -4.67879
-23.4469 19.9881 -4.79324
-31.8621 22.4443 -6.02975
3.84733 -10.1906 -1.67341
-31.2638 -24.1732 -6.04118
-13.0666 -39.4224 -6.38179
-30.1156 21.9168 -5.66193
-21.3113 -51.2922 -8.46082
-7.40616 14.996 -2.52032
-32.4931 -22.8347 -5.98405
-31.781 -23.3647 -5.97745
-27.0719 -25.4006 -5.58723
-32.3487 -23.2823 -5.97847
-30.5559 -24.4594 -5.85144
-33.8935 -22.6382 -6.0509
-24.1205 20.2482 -4.64233
-32.2555 -24.1377 -5.93764
-31.2763 -23.6846 -5.79409
-24.7631 20.4057 -4.69396
-11.8379 -39.2323 -6.009
-12.247 16.7527 -2.98875
-7.42373 14.8514 -2.36634
3.53229 -9.62418 -1.45837
39.4591 -12.9776 -5.90716
-32.5806 -23.9998 -5.72489
-29.8448 -23.7195 -5.36573
-25.5964 -54.0975 -8.49728
-29.3156 -24.7256 -5.40092
-19.343 -46.6083 -7.03395
-6.60207 14.6276 -2.17726
-13.5919 17.3656 -2.99087
-11.0624 -38.7268 -5.48634
-7.17392 14.5388 -2.17579
-22.3786 -58.2573 -8.44597
-21.737 19.7682 -3.91284
-23.0663 -52.2829 -7.59494
-30.5448 -23.5789 -5.09391
46.7436 -10.7715 -6.3074
46.0625 -10.1262 -6.21215
-12.6866 -39.4276 -5.44533
6.69452 -11.033 -1.69685
-14.5719 17.8484 -2.99823
-22.1421 19.5021 -3.82485
-31.7929 -23.7346 -5.10827
10.8454 8.89554 -1.81203
-32.526 22.3647 -5.06824
-28.7435 21.8726 -4.5532
-30.1778 -23.6268 -4.83562
-12.1934 -34.6933 -4.65125
-30.9068 -63.0086 -8.79016
9.73535 -9.11146 -1.66369
12.91 -10.5508 -2.09869
-32.6244 22.8866 -4.98334
-35.1456 -21.8956 -5.15766
-29.8282 -24.6544 -4.80902
6.82898 -10.3858 -1.55094
-32.1111 -22.697 -4.87326
-12.8221 -40.004 -5.16891
13.3127 -11.0979 -2.12718
42.9726 -11.1688 -5.48158
-15.7135 18.0899 -2.92856
-15.2132 -36.8759 -4.87762
-8.47745 15.1551 -2.11411
44.9493 -10.3546 -5.58453
15.1784 7.92366 -2.05756
9.47531 -8.99073 -1.55914
-32.8778 -22.9391 -4.75422
-17.332 18.8375 -2.99509
-20.4184 9.03582 -2.64616
-30.9305 -23.9458 -4.61387
-23.9394 -54.2396 -6.96746
11.3765 -9.78647 -1.75677
43.3468 -11.6042 -5.28288
14.8639 -11.5412 -2.16261
15.1019 7.76278 -1.93154
-28.9487 22.0156 -4.14921
7.32869 -11.1288 -1.51179
-9.94319 15.8753 -2.09734
9.51256 -9.37814 -1.4868
12.8889 -10.5861 -1.85952
14.1108 -11.1376 -1.99929
9.51412 -9.17514 -1.46681
7.10974 -10.5286 -1.39139
45.9726 -10.0406 -5.12123
-10.583 15.8974 -2.059
-32.0556 22.6041 -4.2602
11.8093 -9.92192 -1.66526
6.25253 -12.8573 -1.50337
7.62355 -11.6693 -1.45017
9.90992 -8.96168 -1.40557
-14.4524 -41.7634 -4.6348
16.7591 -12.4109 -2.18673
-28.405 -57.0671 -6.61355
15.0423 7.57462 -1.72226
-30.2521 -24.1096 -3.97407
13.9622 -11.0472 -1.82434
-30.9894 -23.971 -3.96456
15.0324 7.85421 -1.70502
-12.3082 16.4602 -2.0196
-19.0529 -48.3077 -5.03328
-30.2381 -61.0844 -6.52657
-22.714 19.8698 -2.8516
-30.1047 -24.662 -3.69979
-30.0752 -24.9819 -3.72678
-20.1034 -52.6054 -5.31143
-13.6659 17.4873 -2.07744
-30.3835 -23.7705 -3.6007
-14.8336 -40.404 -4.01062
-13.0767 -40.6451 -3.98395
9.882 -9.15949 -1.25193
-30.8412 -60.0773 -6.22269
8.60892 -8.70671 -1.11167
16.6903 -12.4359 -1.90385
-14.5393 17.8356 -2.06446
-34.8607 -21.6825 -3.71561
-32.0055 22.5975 -3.45151
-30.1704 -24.3404 -3.42614
14.1794 -11.2777 -1.60805
-31.3653 -19.1134 -3.13439
11.1296 -9.76723 -1.26072
-25.8298 20.9522 -2.79415
-10.8034 -33.6249 -2.98554
9.45494 -9.06579 -1.09971
-32.6997 22.4825 -3.29796
8.73373 -8.73537 -1.01455
16.9576 -12.3673 -1.71416
-15.7824 -41.0106 -3.53234
-20.178 -46.1585 -3.94396
-14.5764 -35.9851 -3.07808
-12.6602 -35.5221 -2.99683
9.25557 -8.99466 -1.01393
11.3686 -9.85526 -1.1794
15.016 -11.7452 -1.50901
-28.9538 22.0799 -2.83427
-28.6698 -13.3824 -2.45844
11.951 -10.1248 -1.21391
-21.7507 -48.4414 -4.06775
12.8867 -10.6965 -1.2686
-37.4712 -71.0901 -5.81641
10.0113 -9.18831 -0.984729
10.9848 -9.80526 -1.02614
-32.3953 -20.1107 -2.63819
12.0466 -10.1246 -1.08941
14.8605 -11.7006 -1.31428
-14.7713 -37.3249 -2.73227
-14.3633 -37.9975 -2.78514
18.8132 -13.5961 -1.54056
-22.6155 19.8015 -1.99568
-23.1499 -53.4032 -3.84935
12.9838 -10.6807 -1.12374
-13.8738 -38.4905 -2.65939
15.4336 -11.6531 -1.25638
-29.9896 -60.7193 -4.25315
-14.0223 -43.4638 -2.83834
-31.7408 22.4231 -2.37938
-30.4533 -60.2227 -4.1077
-16.1348 -39.3029 -2.59081
31.6655 -20.9943 -2.31184
43.0972 -11.2388 -2.70332
37.2789 -8.98798 -2.32296
-14.3614 -38.5578 -2.48626
-26.1344 21.2107 -1.90911
-28.4018 -13.9828 -1.82976
-15.0252 -39.1431 -2.33879
17.0962 -12.7568 -1.19462
-26.6088 -16.0121 -1.67208
43.7084 -9.73626 -2.3024
-9.29897 -12.4249 -0.787978
-14.6284 -38.9306 -2.07153
5.7827 -12.6208 -0.689422
-13.7802 17.4694 -1.08551
-14.1218 -44.387 -2.28765
15.0524 7.89698 -0.81968
-15.5039 -39.7406 -2.02734
-13.595 -44.2156 -2.18268
18.9678 -13.4579 -1.11422
-16.0954 -46.6784 -2.30311
37.5891 -9.23224 -1.81324
-28.3018 -14.472 -1.42265
-22.7796 -52.1969 -2.52528
-15.7358 -38.7172 -1.8603
9.72 -9.17233 -0.595726
12.7105 -10.4325 -0.737822
45.4476 -10.3992 -2.07274
-13.259 -40.3318 -1.8069
-31.6713 22.3893 -1.61626
-51.2541 27.8363 -2.3279
-32.6755 22.4872 -1.45648
-17.7034 -46.2962 -1.85987
-33.7145 -21.2305 -1.42432
9.80728 -9.12709 -0.492441
6.66113 -10.9228 -0.443746
-12.4019 -36.9714 -1.29042
7.5523 -13.2564 -0.520757
18.8576 -13.3565 -0.780098
-24.8777 -54.4865 -1.97142
-12.7217 -36.0918 -1.23951
21.73 25.0624 -1.06689
-22.4389 19.9211 -0.945889
-22.1588 -55.5155 -1.91202
-19.5234 -49.9925 -1.66351
21.3488 -14.5586 -0.785013
-27.1049 -13.9484 -0.924285
-12.2741 -39.2816 -1.22299
-23.379 19.8655 -0.882095
-22.1912 -51.0706 -1.58301
-16.5049 -44.6701 -1.37296
22.8601 -10.2876 -0.756273
-33.5959 -20.4699 -1.08824
-9.68561 -12.7075 -0.456407
-21.4557 -50.5988 -1.55038
18.2648 -13.607 -0.579338
32.4011 54.0721 -1.63672
-29.1 22.2032 -0.942134
-30.2225 22.1057 -0.927162
-26.7435 -12.85 -0.72737
9.62384 -9.05647 -0.319733
-20.1521 -32.4591 -0.890355
-39.0786 13.5556 -0.905496
21.5505 -14.4197 -0.550035
-51.2577 18.4872 -1.00718
18.6824 -13.4691 -0.431673
12.926 -10.6192 -0.278467
-6.95961 15.0652 -0.290926
-32.3644 10.2353 -0.562075
-27.7657 -13.2218 -0.487102
-36.1042 -20.5608 -0.63123
-17.1703 -42.092 -0.702196
-7.57663 15.9344 -0.240202
-31.6936 -23.6759 -0.548381
-33.0223 -22.5115 -0.51143
-32.1156 -64.8915 -0.895256
17.5128 -13.0662 -0.264687
18.4643 -13.2943 -0.288083
29.5596 -18.2274 -0.462652
-19.9689 -51.1446 -0.664482
-29.2726 22.318 -0.393901
-36.5983 -20.4584 -0.463041
-25.9347 -55.3403 -0.649016
-17.7169 -40.636 -0.473379
-50.9538 27.9247 -0.485253
-31.6021 -55.7477 -0.588827
-18.7642 -49.2124 -0.4987
38.3301 -9.26028 -0.36194
-13.8828 17.6212 -0.158528
-32.1213 -71.5313 -0.534096
-17.0146 -41.2686 -0.302664
9.63234 -9.0638 -0.0410703
13.234 15.1462 -0.0421737
14.9506 7.87047 -0.0292715
-28.8562 -12.8727 -0.0574014
-11.5078 -16.755 0.0249488
-12.6515 -19.0425 0.0438245
-17.7738 -40.7996 0.18522
9.49636 -9.04134 0.0598658
-31.7101 22.4415 0.200326
-20.3321 -51.3293 0.269475
-29.6162 -13.7453 0.195869
17.0246 -12.4219 0.118138
-12.8843 -19.755 0.154252
14.8506 -11.5682 0.148387
-51.1827 18.3382 0.479486
7.15639 -12.2964 0.119529
16.1654 -11.979 0.171083
-35.5217 -21.4951 0.435674
39.0377 -8.02374 0.415427
-34.4071 -21.5619 0.46268
-12.0497 -33.2814 0.414394
-12.5143 -33.6531 0.436367
-10.7695 -31.0119 0.400674
-9.27815 -28.7073 0.36625
27.6786 56.0448 0.811949
9.64478 -9.07181 0.171269
-12.5744 -19.485 0.316134
-10.4383 -31.6866 0.458305
8.61043 -8.5538 0.184055
6.36435 -13.0205 0.211092
7.20476 -11.1023 0.202089
9.39867 -9.11142 0.189141
8.07173 -9.15881 0.195294
9.78138 -9.05696 0.219667
38.4963 -8.24798 0.646424
-23.2567 19.9441 0.54737
-32.4133 -21.8076 0.672427
-33.5968 -24.6496 0.730113
13.0177 -10.6941 0.276213
13.3327 -10.7539 0.321176
-9.81486 -12.4443 0.299261
6.88164 -11.2784 0.257664
8.0297 -9.43705 0.243698
28.2929 58.2147 1.2952
7.02859 -11.0479 0.263286
9.22625 -8.72976 0.269912
11.6058 -9.97553 0.335488
17.3883 -7.76674 0.383538
7.26362 -11.0207 0.298775
-9.35939 -12.0826 0.386619
-12.5849 -19.3193 0.551233
7.6854 -9.35693 0.27586
7.87088 -9.41279 0.284905
-24.9521 20.972 0.845083
-28.4602 -9.12653 0.749646
9.67228 -8.99956 0.33994
17.6816 -12.9169 0.552342
18.5358 -13.347 0.568383
-22.3924 19.6052 0.773926
-26.9722 21.3169 0.895857
-28.4757 -8.54639 0.777951
-32.4599 -17.3076 0.999057
-13.1322 -19.8303 0.632612
14.8903 -11.5698 0.503362
22.9649 -3.34143 0.653189
-12.0066 -18.7217 0.643855
25.2572 -4.78482 0.748408
16.8044 26.0787 0.929025
-27.4703 -20.2369 1.00984
7.28062 -11.4047 0.406289
7.01188 -10.7679 0.391383
15.1294 24.6462 0.887115
-7.5752 -8.75326 0.35387
13.129 -10.743 0.518195
-7.27083 -9.44994 0.365125
-28.1196 -7.9368 0.97194
-11.7249 -17.1392 0.695743
7.90988 -9.39545 0.406429
16.3294 11.1565 0.707918
10.9217 -9.51011 0.526201
11.9708 -10.1143 0.571175
24.0742 48.4779 2.03175
-7.40727 -8.08694 0.409768
9.70004 -9.00454 0.494194
23.0353 -3.23425 0.89315
28.4746 58.8623 2.53066
-7.39541 -9.81592 0.480685
10.4897 -9.56719 0.557034
12.8182 -10.5867 0.67185
21.7609 -2.66707 0.893936
-28.6061 -17.3546 1.3682
8.77828 -8.73889 0.511983
-6.88454 -8.41791 0.467345
9.48363 -8.97133 0.54584
12.8593 14.7618 0.864214
-28.4479 -8.34888 1.30249
15.0075 19.5474 1.10712
15.4518 26.6048 1.37037
22.6944 44.6272 2.21346
6.25587 -13.9384 0.681099
10.9057 -9.56774 0.656239
18.6183 -1.65237 0.85519
20.2534 38.5634 2.04234
15.4014 27.1364 1.46251
-11.1084 2.75528 0.550463
-7.19603 -9.48517 0.574136
9.21195 -9.02906 0.610989
11.4586 -8.79131 0.67645
20.2709 -2.32302 0.982987
11.767 11.9921 0.834034
16.8679 40.566 2.15923
7.79774 -9.50382 0.605138
10.2385 -9.32498 0.685883
14.9656 25.3775 1.47483
20.9798 40.6842 2.32292
21.1797 -2.63847 1.08542
-7.36358 -8.45975 0.581784
9.43062 -8.97909 0.678131
17.1208 25.1065 1.59599
17.0508 30.9111 1.84208
13.1009 -10.7987 0.90224
10.6865 12.4926 0.878959
14.4928 19.6728 1.31226
11.1397 -9.65936 0.797385
15.2959 19.9292 1.38514
-25.6193 19.6389 1.76234
-6.9319 -8.13253 0.591073
10.3798 12.5492 0.911751
-7.21696 -9.31658 0.66003
10.1156 12.6014 0.936914
-27.0514 19.0453 1.87689
6.17114 -13.033 0.825478
11.3148 12.2316 0.957425
-6.85349 -6.76382 0.558279
11.405 12.1617 0.981471
-6.77275 -8.36896 0.64428
6.31228 -12.6887 0.827974
14.9233 19.8557 1.49326
14.4638 23.6483 1.65334
13.9133 32.1549 2.10242
-6.07481 6.47014 0.544056
-8.12549 -7.69918 0.676952
-7.08068 -8.12279 0.661698
5.77948 -12.5691 0.836402
-7.4481 -6.85732 0.629655
7.0537 -11.2386 0.820443
7.02972 -10.6242 0.795109
11.4081 -9.84765 0.930873
12.208 -10.2126 0.986478
16.3593 7.24519 1.13987
15.1696 19.6513 1.57037
-7.20828 -6.28202 0.619951
10.3208 -9.42629 0.902165
-7.34875 -6.23436 0.631947
11.6114 12.2525 1.14997
9.79471 22.0501 1.64275
-7.22717 -9.59331 0.802494
11.7789 12.7754 1.19184
-6.93341 -4.44322 0.566119
-6.71968 -8.16127 0.720884
-6.67967 -4.42043 0.552177
9.31869 -8.90935 0.897603
10.0448 -7.88088 0.899445
12.9113 16.2729 1.50176
-6.64482 -6.63732 0.652398
9.8587 -8.32529 0.943637
11.6676 17.446 1.57766
11.6142 18.5164 1.6326
9.79426 18.6417 1.58785
9.22688 19.9407 1.65245
7.57107 22.5654 1.78939
10.9882 18.9664 1.66976
10.0611 -7.63352 0.965717
-6.99826 -7.1586 0.766969
-17.0448 -6.18225 1.41741
9.51498 -7.71388 0.960284
9.53626 19.0469 1.68112
-6.36335 -4.2489 0.60629
-6.79708 -8.18058 0.843111
4.84183 -5.74168 0.597156
9.23481 20.3173 1.7701
7.95557 19.4517 1.68979
5.03641 -5.80464 0.619182
12.9246 11.6626 1.41049
11.9171 11.9707 1.38299
6.76482 -9.43736 0.943839
12.3772 11.8386 1.40774
6.86811 20.1624 1.74366
-6.33949 -4.37626 0.627491
-7.11991 -9.42314 0.969422
11.6864 12.2434 1.40027
10.5704 9.24727 1.19578
-4.99935 -11.4061 1.05233
6.14131 -6.0612 0.753208
9.25604 -7.21081 1.00921
-6.76952 -6.66756 0.807089
10.5632 12.5184 1.42979
8.83352 -7.36064 0.99957
10.9629 12.3581 1.44569
-7.27578 -7.72845 0.93046
8.22234 -7.32001 0.977465
10.3388 12.6371 1.46776
-7.03963 -7.70679 0.9254
-6.90431 -8.29979 0.96888
10.7323 12.4757 1.49429
10.6495 13.7373 1.57473
-7.08187 -8.28719 0.992959
11.343 10.9566 1.45051
-6.29815 -4.22021 0.696799
-6.82685 -8.55036 1.00106
-6.31171 -4.38276 0.707997
11.184 8.63104 1.32563
10.7445 9.41918 1.33221
6.62582 15.7398 1.60642
10.6317 11.4378 1.47762
-11.1534 2.85807 1.08711
6.17294 -5.98025 0.819405
8.03366 -6.66 1.00235
10.8444 9.28641 1.38596
9.65598 12.7054 1.5452
9.84177 12.6302 1.57755
7.77592 12.436 1.45703
8.03486 13.432 1.55808
11.3232 8.13122 1.42071
7.25016 12.9016 1.4937
9.17219 11.4947 1.49635
7.11703 13.7786 1.58732
5.9834 14.2179 1.5839
9.30125 10.6039 1.45787
9.15453 12.4718 1.60751
11.4853 7.72331 1.44384
9.35127 10.1131 1.43412
4.98222 -5.83004 0.823326
-6.82581 -4.64237 0.87047
5.68985 14.1759 1.62173
-7.03762 -4.49294 0.890127
9.03152 10.8218 1.51348
-6.74124 -6.75083 1.02037
5.9236 -5.84681 0.899078
9.78063 8.61132 1.40465
9.05226 9.45485 1.4079
9.36061 10.4349 1.51994
4.8885 14.1683 1.61812
4.25293 -8.08837 0.989828
6.5528 10.963 1.40566
-6.7827 -3.91407 0.861642
6.44484 12.0844 1.51983
-6.87593 -3.85223 0.872799
9.78971 7.2639 1.36324
6.76431 11.5446 1.49042
9.88411 7.08681 1.36635
5.5229 11.774 1.47082
5.53352 12.3045 1.52422
4.79259 12.4727 1.51234
9.9112 6.73645 1.36581
-6.87196 -4.55042 0.943634
7.43149 -6.25089 1.10695
-7.30663 -0.782878 0.842077
-6.25773 -5.37577 0.949903
5.2598 -5.57934 0.884815
8.95486 7.96111 1.39602
4.43201 -7.20581 0.97999
10.4853 5.1909 1.37019
9.03853 7.8631 1.40835
5.21108 -5.62306 0.905774
8.68026 7.99014 1.39999
8.99312 9.14904 1.50105
-7.02481 -5.63258 1.06519
10.2077 4.77976 1.34296
-6.89955 -3.8411 0.951152
9.20882 6.19057 1.34586
5.29881 11.6152 1.54808
-6.87465 -3.05728 0.913814
-6.85912 -3.24281 0.917145
4.89157 -5.96554 0.941646
5.99097 -6.14658 1.0451
9.43999 5.66228 1.36085
8.53415 7.28599 1.3875
-6.9307 -4.29827 1.00434
-6.86234 -4.52212 1.01263
8.34114 8.67108 1.49285
5.11754 11.5094 1.56454
-6.53121 -5.60138 1.07061
3.72193 -7.60125 1.05466
8.57999 7.81279 1.45212
6.09389 -5.63222 1.04042
9.23526 6.10638 1.40313
-6.11885 -5.39917 1.02951
8.61694 6.66617 1.38945
8.15971 7.57604 1.41653
-7.07981 -1.77758 0.933221
-6.99371 -2.29948 0.939831
-6.4279 -5.30418 1.06308
8.89152 5.70049 1.35411
8.23188 8.12141 1.49056
-7.24019 -1.2492 0.941668
-6.87886 -4.10754 1.03553
7.48759 6.26799 1.26482
8.14583 7.09983 1.4013
8.04508 8.20306 1.48905
-6.89154 -2.81849 0.968982
-6.8928 -2.95799 0.969369
4.62314 10.2385 1.47686
9.05037 4.135 1.30979
-7.22476 -1.60105 0.972063
6.85654 -4.26974 1.07357
4.93949 -5.95722 1.02604
-7.30867 -1.11341 0.989132
-6.99397 -2.19297 0.980092
-7.03086 -2.26199 0.986337
-5.98139 -4.38824 0.991171
5.20304 -6.58335 1.11835
6.92768 -4.18653 1.0898
8.14133 7.23057 1.47527
-7.12926 -1.7129 0.985309
-7.06142 -1.94983 0.984883
8.84969 4.88581 1.37307
8.39145 5.91514 1.39602
-6.90206 -3.60907 1.06102
8.91891 4.18594 1.35147
3.41173 10.7238 1.54144
-7.28847 -1.19594 1.0106
-5.99644 -4.4313 1.02522
-5.97692 -4.52984 1.02646
7.16674 -3.94451 1.12445
8.13419 6.53598 1.44329
5.42268 9.16561 1.47509
-6.36627 -4.31059 1.05376
4.94295 -5.53708 1.03115
7.20451 -3.83998 1.1363
7.5814 -3.69697 1.16717
3.68328 10.2191 1.5133
3.49933 10.5303 1.54785
-7.34415 -1.07843 1.03584
-7.0524 -1.99774 1.02106
4.98173 -5.29767 1.01665
7.26657 -3.74786 1.14874
7.38376 -3.6826 1.17036
7.89671 -3.36686 1.22048
-7.1326 -1.86889 1.04822
-6.9882 -2.93746 1.09819
-5.9944 -4.36352 1.06612
7.9313 -2.79148 1.23031
8.28426 4.64974 1.39201
5.05402 8.65828 1.46982
8.42197 4.53533 1.41387
7.85621 -2.34847 1.20882
7.19765 5.72981 1.37787
3.01627 9.62909 1.50963
-7.07213 -2.01329 1.10165
7.50722 -3.11941 1.22565
8.28035 4.57623 1.43424
5.8436 7.51547 1.44594
5.34744 7.7148 1.43077
5.18492 8.03338 1.45275
5.13907 8.14524 1.45807
7.35621 -3.17949 1.22411
7.70464 -2.7652 1.24665
-6.73609 -1.67776 1.04523
7.85827 -2.26449 1.2542
7.28659 5.46494 1.39881
-7.0815 -1.94634 1.13927
-6.90007 -2.77786 1.15576
6.86416 5.56777 1.38658
-7.3301 -1.09196 1.15711
-7.12184 -1.8184 1.15078
-7.02512 -2.0612 1.14675
-7.09871 -1.86661 1.15146
-6.87546 -2.92587 1.17269
4.86359 7.54155 1.42764
3.45036 -6.03908 1.11065
-7.25154 -1.29508 1.17962
3.53118 -5.71271 1.08197
3.56789 -5.6177 1.0713
7.12585 4.80338 1.40058
4.71557 7.46373 1.43736
-7.04955 -2.01731 1.19462
-7.07133 -1.94094 1.20289
7.02088 4.86519 1.41292
3.87221 8.04488 1.47889
6.06709 -3.32688 1.15274
6.68654 4.9122 1.38365
4.71608 7.24885 1.44308
3.83949 -5.30483 1.1007
7.15953 4.45839 1.42039
7.52139 2.8761 1.36106
6.37422 5.32872 1.40843
-7.25502 -1.25156 1.25329
6.80199 4.11254 1.36532
-6.43421 -2.76477 1.19459
5.51972 -3.63642 1.13555
5.7023 -3.5257 1.15116
2.80128 7.98459 1.46392
-7.34747 -1.03598 1.28597
5.34289 -3.78986 1.14196
-6.29503 -2.25393 1.15908
-6.25591 -2.41074 1.17355
4.28481 -4.66868 1.10822
4.49858 -4.48173 1.11399
4.59679 -4.45396 1.12299
-6.78139 -1.72754 1.23234
4.38061 6.57253 1.40957
-7.13614 -0.925245 1.2858
-6.1295 -2.25234 1.16282
6.68516 3.71745 1.37146
6.14576 4.39468 1.37073
3.61096 -5.33081 1.171
5.19639 5.73921 1.41655
2.55572 7.31505 1.45664
6.52523 3.07116 1.36384
-1.70612 -5.78096 1.14074
6.44558 -1.39008 1.25121
6.31002 2.79431 1.32891
6.25232 2.39458 1.33603
-4.42709 3.91708 1.38855
4.35221 3.55674 1.34487
4.23542 3.31147 1.33146
4.6699 -1.6794 1.24637
4.82496 -1.3827 1.25585
-2.12478 4.75824 1.29992
3.72591 -2.95211 1.2223
3.67181 -2.54863 1.19349
3.40414 -2.95958 1.22521
4.02078 2.5802 1.33559
-2.59589 -3.5358 1.25099
-2.3279 -3.573 1.21665
3.76685 2.06456 1.30647
3.74298 1.98642 1.30575
-2.82931 3.46838 1.37925
-2.29859 -2.42127 1.18769
1.9497 -2.77335 1.20998
-2.117 2.75744 1.3189
-2.02254 2.74577 1.32515
2.24602 -1.86589 1.22343
2.37616 -1.49579 1.22097
-2.01242 1.87284 1.29219
-2.06638 -1.44405 1.22853
1.44448 -2.06359 1.24237
-1.99414 -1.08847 1.21439
-1.9263 -0.708025 1.21967
-1.92801 -0.703793 1.24523
-1.95664 -0.344482 1.2282
-1.89413 -0.564945 1.22945
-1.8937 -0.531133 1.23451
8.26183 -8.74317 -7.5024
12.2113 -10.3594 -8.86092
-8.60472 15.3558 -6.82705
20.9733 25.5434 -11.8781
-8.76669 -2.51064 -2.56955
-33.6699 -22.4916 -7.4805
-33.3001 -21.7773 -5.87125
-33.026 -22.4438 -5.9303
-30.5557 -19.5963 -2.72995
9.34722 -8.90305 -0.394306
-7.41516 15.9837 -0.434982
-28.9839 -11.2157 0.715798
-6.88622 -8.23016 0.45832
17.1548 24.6337 1.63035
11.6086 16.3262 1.65678
-6.67101 -6.64413 0.880258
4.31936 12.5342 1.52836
8.8275 9.19519 1.49103
8.0127 -8.80746 -10.4305
8.8797 -8.58501 -10.5527
6.99047 -11.9916 -11.5658
6.90528 -11.4016 -10.9445
8.19424 -8.30647 -9.58043
7.05379 -12.0802 -11.3739
7.1009 -11.0247 -10.5049
8.04379 -8.42067 -9.25058
6.76068 -11.3377 -10.3364
6.47635 -11.7506 -10.259
7.79776 -8.89587 -9.01753
6.23559 -14.3797 -11.8594
8.34472 -8.74862 -9.15068
6.3302 -11.9632 -10.2208
6.1753 -12.1391 -10.1548
7.53268 -9.49659 -9.04932
7.95083 -9.10248 -8.97212
10.542 -9.51655 -10.5614
6.14548 -14.1662 -11.4125
6.12277 -13.7105 -11.0389
6.15969 -12.631 -10.3348
9.25275 -8.87922 -9.40652
9.34133 -9.12751 -9.52461
5.89232 -12.5596 -10.0767
9.41751 -9.04354 -9.31724
6.90026 -11.1865 -9.32668
5.64117 -13.0242 -10.0445
9.75562 -9.14026 -9.47316
7.65018 -9.39372 -8.51682
10.0641 -9.2476 -9.601
10.993 -9.55847 -10.2208
11.5273 -9.77128 -10.1474
8.43209 -8.65603 -7.99977
7.47285 -9.35051 -7.90795
8.2157 -8.76938 -7.94198
7.67175 -9.40467 -7.93956
7.88193 -9.45514 -7.88852
8.36893 -8.58445 -7.66329
0.351938 15.8531 -10.1181
7.57126 -9.37726 -7.6689
10.9908 -9.67705 -9.30972
7.27144 -10.7679 -8.22225
8.2024 -8.54609 -7.46966
4.62854 -15.4477 -10.141
8.76182 -8.74805 -7.65985
7.96683 -9.08352 -7.45193
4.06026 -18.0538 -11.3977
8.24489 -8.67657 -7.31661
4.09237 -17.3177 -10.8575
0.138406 14.8558 -9.04004
6.69506 -11.3291 -8.01072
7.78614 -9.31927 -7.36757
10.2013 -9.38176 -8.40864
6.86154 -11.3168 -7.94388
8.10862 -9.25863 -7.38691
11.3566 -9.77178 -8.95636
5.42833 -13.9217 -8.86096
7.78009 -9.31941 -7.19875
9.41151 -9.09139 -7.75304
6.94488 -11.1821 -7.78954
8.03048 -9.1811 -7.15645
9.82041 -9.25075 -7.86169
14.999 7.49548 -9.74091
8.7231 -8.88748 -7.19505
6.97449 -11.0285 -7.49829
2.65054 -11.2508 -6.64681
7.90648 -9.12474 -6.91419
9.67204 -9.20341 -7.58319
10.8716 -9.56402 -8.16743
0.123606 15.2971 -8.6288
3.27603 -20.5444 -11.6994
6.83969 -11.0426 -7.28092
10.1783 -9.35717 -7.74186
12.4504 -10.4466 -9.11299
9.30106 -9.06614 -7.25712
4.64019 -14.361 -8.41254
8.05464 -9.27425 -6.82135
14.9227 7.6299 -9.20408
9.76474 -9.16981 -7.35595
0.829341 17.4753 -9.55508
2.73581 -19.7794 -10.8882
11.2154 -9.71834 -8.05659
4.26081 -14.5074 -8.18311
14.8348 7.7586 -9.02015
15.2507 10.5307 -9.95403
14.1615 7.8133 -8.64483
11.0347 -9.69127 -7.80882
13.3894 -10.9031 -9.18395
3.03749 -19.2623 -10.2516
11.4457 -9.90232 -7.7
2.16557 -20.3073 -10.3079
10.3396 -9.41336 -7.03041
14.4062 -11.3939 -9.22069
13.9443 -11.2783 -8.97694
11.0965 -9.73255 -7.35254
7.55449 -9.3943 -5.96912
3.57439 -8.49377 -4.54105
-8.66251 -1.90195 -4.36003
2.21554 -20.047 -9.89296
4.54539 -9.32486 -5.07302
0.397253 13.6621 -6.69183
7.65361 -9.32527 -5.88614
-8.35652 15.9392 -8.71246
-9.15799 -2.42099 -4.5639
15.1541 -11.7021 -9.19958
19.5966 5.60719 -9.74961
-10.2587 -2.53989 -4.9985
1.90733 -20.4802 -9.78073
17.4722 16.4214 -11.3607
7.63469 -11.2857 -6.42815
20.2629 5.46947 -9.88572
14.1607 -11.2107 -8.39777
2.944 -17.3988 -8.20391
19.5777 5.79276 -9.43396
18.0627 -13.1629 -10.3222
9.90691 -2.50244 -4.72187
20.522 5.20168 -9.7696
17.6034 16.5558 -11.1397
1.80501 -20.116 -9.24372
9.73518 -9.10282 -6.10235
-9.16746 -1.66398 -4.24885
9.49077 -3.48258 -4.60489
6.76015 -11.3946 -6.02514
9.95474 -2.62948 -4.67081
19.4702 5.93723 -9.16589
18.0185 17.8749 -11.4142
9.40573 -3.09846 -4.45808
15.6035 -12.0065 -8.83387
7.0876 -11.6434 -6.0957
7.19673 -10.9847 -5.85254
9.59808 -3.41866 -4.5409
-9.843 16.1266 -8.40784
17.8717 -13.0425 -9.82997
19.761 5.69276 -9.1167
16.2773 7.38348 -7.91711
18.1331 18.318 -11.4037
16.6129 -12.3548 -9.12342
-11.0381 16.7803 -8.82432
-6.45847 14.7499 -7.05623
-5.19875 4.87522 -3.10375
20.3715 5.53135 -9.17893
9.59697 -3.41892 -4.3972
18.5451 18.7988 -11.3542
15.9988 -12.3114 -8.68534
15.0155 7.50809 -7.16707
3.85453 -9.33917 -4.29198
-10.97 16.6794 -8.44783
6.98926 -10.9757 -5.4858
-13.465 3.29984 -5.84008
0.742121 -22.2028 -9.36258
15.9719 -12.0926 -8.37675
-5.12288 5.63988 -3.18604
0.994966 -22.0578 -9.25676
1.23217 -20.7087 -8.69093
14.3138 7.67743 -6.79603
18.8985 19.6972 -11.4099
3.79676 -8.98659 -4.06782
14.9278 7.81208 -7.01549
18.2474 19.4912 -11.0847
-9.46589 -1.08641 -3.93279
4.01779 -8.52338 -3.8604
14.1806 7.83063 -6.65223
6.88891 -11.0578 -5.32535
-13.5093 2.52355 -5.6213
-7.83113 15.1644 -6.93187
19.6476 21.352 -11.7601
15.2339 7.32024 -6.81195
-5.20077 14.1906 -6.05636
14.0945 -11.1428 -7.0362
1.53756 19.412 -7.56624
-8.59475 15.517 -6.88954
19.2126 5.85935 -7.78434
-1.74292 13.1569 -5.13903
5.32223 -9.44011 -4.17865
-2.36524 13.3558 -5.20776
20.0175 23.1595 -11.7428
4.67787 -8.5463 -3.69965
19.6482 5.6368 -7.77988
0.866787 -26.0534 -9.90877
15.0673 -11.6106 -7.15746
20.2179 5.47757 -7.84139
9.48142 -3.45449 -3.77322
0.528387 -22.2794 -8.30732
3.26971 -10.8617 -4.23672
20.6463 24.0234 -11.7685
0.907999 -8.69853 -3.24376
14.1682 -11.2201 -6.66313
20.6347 5.24831 -7.83004
18.212 17.9974 -9.36082
-12.9346 2.26601 -4.77363
21.342 25.4894 -12.0627
2.29985 -13.3207 -4.869
13.1564 -10.6391 -6.08756
0.792894 15.5092 -5.5587
-8.16841 -2.78749 -3.087
0.408229 -21.528 -7.69869
-4.15444 13.6196 -5.06168
0.635328 -21.6732 -7.70652
16.041 -12.1149 -7.12361
-15.4211 17.826 -8.3038
5.96089 -11.398 -4.52188
-10.8192 16.3237 -6.83674
0.0957986 -18.2816 -6.42791
14.4088 -11.4188 -6.42752
20.5899 5.4227 -7.43338
0.653636 -22.7411 -7.85833
-4.93086 14.3021 -5.18007
3.65296 -8.47911 -3.17768
4.898 -9.07187 -3.53243
-14.2182 17.65 -7.7548
2.28243 -10.9151 -3.821
-8.72172 15.8168 -6.15359
3.05706 -13.8226 -4.82496
-14.6838 18.0204 -7.87739
20.4063 5.54831 -7.10941
22.6534 28.0268 -12.0499
36.9808 -20.8752 -14.1884
-5.21481 13.8222 -4.90321
1.92922 20.9913 -6.99822
1.26806 -10.2434 -3.41275
33.2327 -20.8911 -12.9064
-5.16511 14.2116 -4.90811
-12.3441 16.8968 -6.7853
18.8262 -13.4153 -7.50564
3.56866 -8.69252 -3.0125
6.25722 -10.1727 -3.82682
2.31806 -11.0226 -3.58415
-4.41503 -33.2059 -10.6506
-1.11085 -23.3634 -7.4477
15.215 10.4792 -5.83288
-12.9518 17.2324 -6.81098
-17.6038 18.9861 -8.13637
3.01638 -9.72695 -3.21238
7.01553 -11.1794 -4.07957
1.37579 -21.6735 -6.71897
-2.50619 -26.7409 -8.24701
7.36925 34.0746 -10.6451
0.768217 15.1019 -4.59507
-10.912 16.4617 -5.94983
-2.62441 -25.8062 -7.81478
-14.053 17.5689 -6.71025
-5.14118 -33.7489 -10.1677
0.827625 -24.5837 -7.3566
-5.28913 14.5377 -4.59847
2.09946 20.9633 -6.21091
-20.8055 19.3986 -8.39027
18.4232 5.8628 -5.69228
-4.22263 14.1684 -4.34406
-7.77294 15.0755 -4.97327
4.27776 -9.18955 -2.97873
4.67011 -11.699 -3.68235
-12.5208 2.20572 -3.65365
-31.6203 -44.7924 -15.7802
-14.8825 17.9022 -6.68998
7.01836 -11.1775 -3.79876
2.57292 -9.57682 -2.81719
13.0558 -10.5675 -4.77928
-8.41621 -2.44937 -2.4854
21.6453 27.9191 -10.0141
-8.54222 -2.2514 -2.4962
-2.47179 -25.2563 -7.12496
-12.9229 1.98029 -3.64052
4.42349 -11.4192 -3.39797
-9.11891 15.6793 -4.97691
-12.7883 17.054 -5.85241
-5.28429 14.0951 -4.1113
-8.15644 -39.634 -11.0753
-20.9764 19.5742 -7.71103
-9.52994 15.8 -4.94223
-26.0664 20.0234 -8.74273
11.5911 11.6671 -4.34213
4.36343 -11.3886 -3.22994
48.4669 -14.0893 -13.3693
-7.82949 -36.9633 -9.93546
4.11292 -8.70671 -2.53498
11.2677 -10.0219 -3.94425
-14.1376 17.7003 -5.88818
6.58032 -10.4928 -3.20509
3.19514 -9.69592 -2.63864
-28.9073 -42.3387 -13.2408
-4.19738 -27.5466 -7.21311
3.56579 -10.4425 -2.84452
4.09255 -9.44241 -2.64456
15.7969 -11.8781 -5.04198
-6.99354 14.8951 -4.16213
-30.3525 -40.4794 -12.8325
4.34699 -11.2332 -3.04762
4.27559 -7.74172 -2.25051
6.58933 -10.7477 -3.14328
46.0438 -13.9211 -11.9914
-27.5424 20.7795 -8.52839
-11.2805 16.5714 -4.93964
-26.6325 -38.8526 -11.5841
-9.46311 -37.2574 -9.48583
-23.8818 20.0585 -7.66265
4.37861 -10.3983 -2.77141
-11.8016 16.9027 -4.99621
-7.67556 14.9517 -4.04837
10.3537 -9.33895 -3.33814
41.2748 -13.7104 -10.4061
15.2883 7.64608 -4.07105
-6.04426 -34.6349 -8.37882
3.98521 -9.1313 -2.36036
48.3233 -12.9333 -11.8712
-11.547 -42.5265 -10.4431
4.23234 -9.05588 -2.38404
3.90292 -11.1931 -2.79258
4.93648 -8.74281 -2.36155
-12.4967 17.0287 -4.91361
11.0995 -9.72683 -3.3726
-5.97244 -30.3004 -7.04961
-26.4632 20.4386 -7.57828
42.5378 -9.30298 -9.88048
-29.6637 21.5372 -8.21757
-34.5827 -22.6629 -9.26525
-5.21708 -24.8478 -5.66401
41.7198 -12.8969 -9.80327
5.48941 -9.53429 -2.45582
-12.309 2.80867 -2.77011
41.5953 -12.1896 -9.57552
43.6548 -12.456 -9.98641
28.5683 40.238 -10.8147
-5.24798 13.7635 -3.21796
13.5334 -10.8902 -3.82289
38.9286 -12.5103 -8.98789
-22.8081 19.8783 -6.56135
-27.2506 -67.1886 -15.7377
4.33988 -9.76737 -2.31718
4.5686 -9.23959 -2.22586
-14.2412 17.7423 -4.85689
-30.0661 21.8394 -7.93384
-30.9064 21.9332 -8.10023
-25.8268 -68.5267 -15.7027
-10.4399 16.3118 -4.10449
-8.08707 -34.3387 -7.50487
3.21412 -9.75635 -2.1898
3.99786 -9.90712 -2.2772
47.0207 -10.902 -10.3024
15.1186 7.57292 -3.58631
-14.7971 18.2145 -4.96688
5.19543 -9.10971 -2.20286
27.7134 40.101 -10.1925
-27.0067 -26.4292 -7.84703
15.1643 7.93639 -3.55499
-29.478 -22.7659 -7.72722
-29.9135 -76.7035 -17.0506
41.4753 -11.1617 -8.88163
-11.1787 16.4695 -4.04309
-15.2519 18.0322 -4.80652
-34.1018 22.8918 -8.34515
45.576 -9.9413 -9.51166
-12.5789 -40.4786 -8.61839
4.16614 -9.80494 -2.1669
4.29207 -9.77401 -2.17541
11.7081 -9.73267 -3.09722
-11.7119 16.8064 -4.08742
-18.6275 -53.4652 -11.3192
-12.3915 -38.4976 -8.00974
4.1001 -9.9944 -2.13827
-33.3072 -22.7751 -7.95489
-26.0244 20.4249 -6.51016
-32.368 -23.1533 -7.75828
-6.70993 14.8238 -3.15607
-24.8313 -58.3485 -12.3207
-32.789 -21.8286 -7.59138
3.46085 -9.42984 -1.93911
47.0958 -10.9119 -9.282
-12.4379 16.9812 -4.0223
4.01756 -9.41111 -1.95228
-35.5724 -21.6077 -7.87932
-20.598 -33.4612 -7.4742
-14.7823 -42.6551 -8.54481
