ply
format ascii 1.0 
element vertex 1874
comment /media/mkaihara/Seagate Backup Plus Drive/model_iterations/model_61.ply
property float32 x 
property float32 y 
property float32 z 
end_header 
9.65651 -9.03768 -1.6505
12.7697 -10.4362 -2.07635
-33.9026 23.783 -5.17863
-36.2049 -22.5557 -5.31271
-30.7151 -25.3875 -4.95162
6.7673 -10.292 -1.53736
-33.0474 -23.3589 -5.01498
-13.6695 -42.6465 -5.50862
13.1614 -10.9718 -2.10351
41.7608 -10.8537 -5.32789
-16.2259 18.6796 -3.02461
-15.9918 -38.7619 -5.126
-8.77188 15.682 -2.1888
43.6351 -10.0516 -5.4221
14.9839 7.822 -2.03001
9.4015 -8.92073 -1.54725
-33.8532 -23.6197 -4.8949
-17.9098 19.4653 -3.09536
-20.8135 9.21051 -2.69711
-31.8453 -24.6542 -4.74998
-25.8219 -58.503 -7.51373
11.2691 -9.69408 -1.74053
42.1109 -11.2733 -5.13318
14.6769 -11.3959 -2.13594
14.9108 7.66442 -1.90597
-30.0278 22.8359 -4.30384
7.2541 -11.0156 -1.49689
-10.2833 16.4184 -2.16997
9.43288 -9.29953 -1.47462
12.7488 -10.471 -1.83972
13.9429 -11.0049 -1.97597
9.43664 -9.10039 -1.45512
7.04525 -10.4332 -1.37917
44.6106 -9.74308 -4.97031
-10.9349 16.4261 -2.12818
-33.296 23.4786 -4.42488
11.6906 -9.82203 -1.64886
6.16628 -12.6804 -1.48337
7.54221 -11.545 -1.43521
9.82957 -8.88899 -1.3944
-15.4266 -44.5779 -4.94597
16.521 -12.2346 -2.15628
-30.7126 -61.703 -7.14988
14.8535 7.47944 -1.69958
-31.1416 -24.8186 -4.09066
13.7973 -10.9166 -1.80324
-31.906 -24.6802 -4.08157
14.8408 7.754 -1.6822
-12.7053 16.9911 -2.08515
-20.4717 -51.9044 -5.40716
-32.9045 -66.4706 -7.10135
-23.4816 20.541 -2.94781
-31.001 -25.3963 -3.80974
-30.9795 -25.7331 -3.83863
-21.7845 -57.0037 -5.7546
-14.1202 18.0684 -2.14679
-31.2638 -24.4593 -3.70482
-15.7553 -42.9139 -4.25905
-13.9656 -43.4074 -4.2538
9.7996 -9.08306 -1.24172
-33.4485 -65.1557 -6.74819
8.54648 -8.64355 -1.10378
16.4541 -12.2599 -1.87748
-15.0226 18.4283 -2.13326
-35.8956 -22.3263 -3.82567
-33.244 23.4716 -3.58461
-31.0602 -25.0584 -3.52702
14.0065 -11.1401 -1.58887
-32.1859 -19.6135 -3.21617
11.0249 -9.67532 -1.24914
-26.7469 21.6957 -2.89299
-11.3854 -35.4358 -3.14578
9.37864 -8.99259 -1.09104
-33.9668 23.3534 -3.42521
8.66912 -8.67071 -1.00721
16.7164 -12.1914 -1.69031
-16.7671 -43.5691 -3.75235
-21.5171 -49.221 -4.20546
-15.3322 -37.8508 -3.23741
-13.3492 -37.4549 -3.15953
9.1822 -8.9233 -1.00608
11.2592 -9.76038 -1.16833
14.8219 -11.5933 -1.48996
-30.038 22.9063 -2.93987
-29.2845 -13.6694 -2.51087
11.8289 -10.0213 -1.2018
-23.2743 -51.8344 -4.35253
12.7432 -10.5773 -1.25482
-41.2953 -78.3449 -6.41023
9.92684 -9.11071 -0.976617
10.8811 -9.71272 -1.01671
-33.2766 -20.658 -2.70981
11.9227 -10.0204 -1.0785
14.6693 -11.5499 -1.2978
-15.58 -39.3681 -2.88181
-15.1888 -40.1815 -2.94515
18.512 -13.3785 -1.51649
-23.3789 20.4695 -2.06252
-24.9765 -57.616 -4.15323
12.8388 -10.5614 -1.11152
-14.705 -40.7963 -2.8187
15.23 -11.4993 -1.24022
-32.613 -66.0308 -4.62566
-15.0593 -46.6775 -3.04824
-32.9599 23.2839 -2.46993
-33.0626 -65.3828 -4.46019
-17.0607 -41.5584 -2.73966
30.7902 -20.4138 -2.24914
41.8731 -10.9195 -2.62726
36.3749 -8.76994 -2.26714
-15.2059 -40.8249 -2.63258
-27.0733 21.9723 -1.97695
-29.0136 -14.2842 -1.86894
-15.912 -41.4532 -2.47709
16.8441 -12.5685 -1.17748
-27.1824 -16.3574 -1.70798
42.4586 -9.45764 -2.23718
-9.40244 -12.5632 -0.79668
-15.4991 -41.248 -2.19524
5.69507 -12.4295 -0.679366
-14.2411 18.0534 -1.12142
-15.2 -47.7757 -2.46276
14.8573 7.79453 -0.808209
-16.4175 -42.0821 -2.14728
-14.6555 -47.6642 -2.35343
18.6588 -13.2386 -1.09659
-17.3236 -50.2395 -2.47944
36.6635 -9.00478 -1.76909
-28.9141 -14.7852 -1.45324
-24.5506 -56.2549 -2.72249
-16.6275 -40.9115 -1.96628
9.63798 -9.09482 -0.590849
12.5714 -10.3183 -0.730008
44.089 -10.0881 -2.01144
-14.133 -42.9897 -1.92657
-32.8848 23.2468 -1.67709
-53.8862 29.2654 -2.44588
-33.935 23.3536 -1.51142
-18.9853 -49.6486 -1.99548
-34.6769 -21.8367 -1.46499
9.72488 -9.05033 -0.48844
6.59189 -10.8092 -0.439333
-13.1391 -39.169 -1.36789
7.44051 -13.06 -0.513388
18.5535 -13.141 -0.767978
-26.8486 -58.8029 -2.12893
-13.4294 -38.0992 -1.3092
21.0279 24.2524 -1.03058
-23.2005 20.5968 -0.977003
-21.0013 -53.7752 -1.79064
20.9593 -14.2928 -0.771229
-27.6642 -14.2363 -0.943192
-13.0976 -41.9172 -1.30599
-24.1691 20.5364 -0.910855
-23.8778 -54.9522 -1.7047
-17.6786 -47.8467 -1.47174
22.4877 -10.1199 -0.744298
-34.5347 -21.042 -1.11867
-9.79609 -12.8524 -0.461607
-23.0749 -54.4169 -1.66873
17.9736 -13.3899 -0.570536
30.1744 50.3551 -1.52071
-30.1938 23.0374 -0.976289
-31.3581 22.936 -0.960702
-27.2766 -13.1062 -0.741679
9.54518 -8.9824 -0.317229
-20.9287 -33.7099 -0.925381
-40.3557 13.9984 -0.933814
21.1586 -14.1574 -0.540532
18.3813 -13.252 -0.425129
12.7822 -10.5009 -0.275576
-7.26411 15.7239 -0.303247
-33.2232 10.5067 -0.575869
-28.34 -13.4954 -0.497
-37.162 -21.1633 -0.649766
-18.2338 -44.6988 -0.747073
-7.91548 16.6465 -0.250394
-32.6209 -24.3688 -0.564675
-33.9786 -23.1635 -0.526423
-35.1287 -70.9794 -0.981717
17.2462 -12.8673 -0.261015
18.1696 -13.082 -0.283866
28.8289 -17.7767 -0.451943
-21.5733 -55.2537 -0.719821
-30.3779 23.1603 -0.407299
-37.6782 -21.0622 -0.476754
-27.9626 -59.6664 -0.701832
-18.7345 -42.9699 -0.501978
-53.5618 29.3535 -0.508022
-33.9375 -59.8672 -0.63436
-20.1947 -52.9633 -0.538651
37.3603 -9.02582 -0.353221
-14.351 18.215 -0.162834
-35.6791 -79.4542 -0.596402
-18.0323 -43.7368 -0.322328
9.55275 -8.98883 -0.0408082
14.7557 7.76782 -0.028262
-29.4642 -13.144 -0.0584241
-11.6962 -17.0292 0.0250883
-12.8989 -19.4149 0.0442928
-18.7969 -43.148 0.194109
9.41907 -8.9677 0.0593157
-32.9161 23.2948 0.209696
-21.9638 -55.4488 0.288559
-30.2665 -14.0472 0.20031
16.7757 -12.2401 0.11614
-13.1502 -20.1627 0.156976
14.661 -11.4205 0.146285
-53.3783 19.1245 0.501977
7.06221 -12.1344 0.117872
15.9399 -11.8117 0.168459
-36.5659 -22.1271 0.448275
38.0436 -7.81926 0.404486
-35.4026 -22.186 0.475836
-12.637 -34.903 0.433004
-13.116 -35.2704 0.455757
-11.2627 -32.4315 0.41755
-9.6829 -29.9594 0.38087
25.5079 51.6489 0.75079
9.56472 -8.99642 0.169794
-12.8287 -19.8791 0.322033
-10.9499 -33.2393 0.479173
8.54795 -8.49168 0.182698
6.2648 -12.8166 0.207762
7.12775 -10.9835 0.199885
9.3211 -9.03613 0.187532
8.00899 -9.08753 0.193749
9.69983 -8.98138 0.217786
37.5245 -8.03957 0.629749
-24.037 20.6131 0.567418
-33.3218 -22.4189 0.690972
-34.6293 -25.4073 0.752092
12.87 -10.5727 0.272942
13.1793 -10.6301 0.317344
-9.92338 -12.5819 0.302472
6.80514 -11.1529 0.254779
7.96467 -9.36054 0.241699
26.0429 53.5834 1.19453
6.95375 -10.9301 0.26046
9.15482 -8.66212 0.267795
11.4895 -9.87544 0.332038
17.1837 -7.67526 0.378921
7.18728 -10.9047 0.295615
-9.45927 -12.2116 0.390643
-12.8362 -19.7052 0.561695
7.62444 -9.2826 0.273659
7.80761 -9.33704 0.2826
-25.8296 21.7093 0.876674
-29.0191 -9.30591 0.764725
9.59269 -8.92544 0.337111
17.4096 -12.718 0.543614
18.2377 -13.1322 0.558985
-23.1359 20.2559 0.801384
-27.9404 22.0817 0.929927
-29.0318 -8.71343 0.793533
-33.2804 -17.7452 1.02424
-13.4015 -20.237 0.644998
14.6967 -11.4193 0.49666
22.6347 -3.2933 0.643779
-12.2358 -19.0791 0.655599
24.8511 -4.70779 0.736286
16.1932 25.1301 0.896334
-28.1447 -20.7338 1.03429
7.1991 -11.2769 0.401745
6.9411 -10.6591 0.387447
14.593 23.7722 0.856716
-7.62547 -8.81139 0.356308
12.9784 -10.6196 0.512142
-7.32259 -9.51723 0.367762
-28.6582 -8.08894 0.990976
-11.9251 -17.432 0.707169
7.84649 -9.32007 0.403175
16.0601 10.9725 0.696795
10.8198 -9.42132 0.521251
11.8469 -10.0095 0.565196
22.396 45.0984 1.8916
-7.45178 -8.1356 0.41236
9.61982 -8.92999 0.490091
22.7026 -3.18746 0.880231
26.1249 54.0045 2.3235
-7.45169 -9.89069 0.484346
10.3934 -9.47925 0.551887
12.6751 -10.4684 0.664272
21.4663 -2.63092 0.881845
-29.2661 -17.7551 1.3996
8.71174 -8.67257 0.508109
-6.92613 -8.46884 0.470262
9.40632 -8.89811 0.541384
12.5918 14.4547 0.846867
-28.9991 -8.51075 1.32813
14.5993 19.0157 1.07773
14.8513 25.5708 1.31798
21.2478 41.7822 2.07357
6.14071 -13.6816 0.66877
10.8037 -9.47819 0.650075
18.4052 -1.63342 0.845469
19.1258 36.4161 1.92966
14.789 26.0571 1.40519
-11.2082 2.78 0.556237
-7.24791 -9.55363 0.578288
9.13753 -8.95604 0.606059
11.3556 -8.7122 0.670344
20.0162 -2.29378 0.970664
11.566 11.7872 0.820311
15.7665 37.9169 2.01917
7.73425 -9.42635 0.600247
10.1481 -9.24257 0.679819
14.4115 24.4379 1.42098
19.7527 38.3042 2.18802
20.9004 -2.60362 1.07112
-7.40975 -8.51286 0.585528
9.3541 -8.90617 0.67264
16.5244 24.2319 1.54112
16.2812 29.5159 1.75973
12.9501 -10.6743 0.891802
10.4927 12.266 0.863528
14.0926 19.1295 1.27664
11.0331 -9.5669 0.789742
14.8733 19.3785 1.34748
-26.4673 20.2888 1.82285
-6.972 -8.17964 0.594604
10.1894 12.3189 0.89551
-7.26747 -9.38184 0.66467
9.92753 12.367 0.919959
-27.9289 19.6629 1.93994
6.0754 -12.8308 0.812908
11.1164 12.017 0.941101
-6.88574 -6.7957 0.56112
11.206 11.9494 0.9648
-6.81283 -8.41855 0.64818
6.22062 -12.5044 0.816165
14.5097 19.3053 1.45242
13.9654 22.8332 1.59694
13.1847 30.4706 1.99285
-6.15678 6.55748 0.552515
-8.17488 -7.74604 0.68123
-7.12206 -8.17032 0.665677
5.69432 -12.3839 0.824339
-7.48639 -6.89262 0.633108
6.97692 -11.1162 0.811636
6.96121 -10.5206 0.787466
11.2955 -9.75033 0.921675
12.079 -10.1046 0.976035
16.1417 7.1488 1.125
14.7562 19.1157 1.52808
-7.24184 -6.31132 0.623094
10.2282 -9.34161 0.894083
-7.38346 -6.26386 0.635194
11.4074 12.0372 1.13015
9.42337 21.2139 1.58077
-7.27956 -9.6629 0.808296
11.5643 12.5425 1.17051
-6.95915 -4.45976 0.568606
-6.75788 -8.20772 0.725081
-6.70307 -4.43596 0.554497
9.24412 -8.838 0.890458
9.96965 -7.82188 0.892745
12.6135 15.8976 1.4675
-6.674 -6.66647 0.655487
9.78245 -8.26084 0.936369
11.3663 16.9953 1.53724
11.2916 18.0019 1.58757
9.49764 18.0769 1.54001
8.91197 19.2599 1.59624
7.22854 21.544 1.70841
10.666 18.4101 1.62107
9.98769 -7.57778 0.958703
-7.03365 -7.19486 0.771035
-17.2368 -6.25196 1.43378
9.44818 -7.65968 0.953581
9.23524 18.4455 1.62823
-6.38371 -4.26253 0.608634
-6.83602 -8.22751 0.848036
4.83108 -5.72893 0.595907
8.91262 19.6081 1.70845
7.67084 18.7552 1.62934
5.02411 -5.79047 0.617747
12.7095 11.4684 1.3873
11.713 11.7656 1.35958
6.71203 -9.36365 0.936598
12.1682 11.6386 1.38425
6.58701 19.3367 1.67215
-6.35988 -4.39037 0.629906
-7.17004 -9.48956 0.97623
11.4816 12.0287 1.376
10.4262 9.12105 1.17971
-5.04708 -11.515 1.06204
6.11963 -6.03981 0.750621
9.19586 -7.16389 1.00269
-6.80025 -6.69787 0.810979
10.3701 12.2895 1.40388
8.77734 -7.31378 0.993264
10.767 12.1373 1.4201
-7.31633 -7.77156 0.935788
8.17334 -7.27636 0.9717
10.1468 12.4023 1.4407
-7.07786 -7.7487 0.930567
-6.94488 -8.34862 0.974654
10.5375 12.2491 1.46737
10.4344 13.4598 1.54311
-7.12404 -8.33659 0.998956
11.1634 10.783 1.42775
-6.31791 -4.23349 0.699405
-6.86829 -8.60232 1.00719
-6.33184 -4.39679 0.710663
11.0398 8.51966 1.30874
10.5955 9.28852 1.31394
6.4292 15.2724 1.5586
10.4549 11.2474 1.45322
-11.2539 2.88382 1.09791
6.15129 -5.95926 0.8166
7.99083 -6.62447 0.997066
10.6957 9.15904 1.36714
9.47204 12.4632 1.51589
9.65683 12.3928 1.54802
7.61979 12.1862 1.42781
7.8595 13.1387 1.52408
11.1826 8.03024 1.40323
7.09263 12.6211 1.46121
9.01359 11.2959 1.47057
6.94685 13.4489 1.54926
5.81976 13.8286 1.54033
9.15422 10.4362 1.43493
8.98081 12.235 1.57705
11.3473 7.6305 1.42664
9.21076 9.96108 1.41269
4.97019 -5.81598 0.821408
-6.85088 -4.65948 0.874075
5.53017 13.7777 1.57588
-7.06437 -4.51007 0.893931
8.88467 10.6457 1.48894
-6.77217 -6.78186 1.02527
5.90459 -5.82804 0.89626
9.65481 8.50049 1.3867
8.92446 9.32128 1.38812
9.21542 10.273 1.49643
4.73894 13.7342 1.56811
4.23124 -8.04717 0.98497
6.431 10.759 1.37946
-6.80627 -3.92772 0.865105
6.30848 11.8285 1.48751
-6.90028 -3.86592 0.876365
9.68005 7.18249 1.34808
6.63225 11.319 1.46121
9.77524 7.0087 1.35141
5.40045 11.5126 1.43795
5.40371 12.0155 1.48816
4.6693 12.1512 1.47299
9.80588 6.66481 1.3514
-6.89727 -4.56723 0.947533
7.39787 -6.22264 1.102
-7.33781 -0.786231 0.846389
-6.27966 -5.39468 0.95358
5.2469 -5.56566 0.882707
8.84702 7.86517 1.37928
4.41582 -7.17951 0.976539
10.3881 5.14273 1.35759
8.93092 7.76941 1.39165
5.19835 -5.60934 0.903624
8.57521 7.89336 1.3831
8.86997 9.02367 1.48054
-7.05421 -5.65622 1.06999
10.1178 4.73765 1.33123
-6.92409 -3.85482 0.955023
9.11782 6.12934 1.33264
5.18076 11.356 1.51322
-6.89852 -3.06794 0.917539
-6.88288 -3.25409 0.920859
4.8794 -5.9507 0.939373
5.97005 -6.12512 1.04152
9.35149 5.60915 1.34817
8.43895 7.20464 1.37206
-6.9561 -4.31408 1.00847
-6.8875 -4.53876 1.01678
8.23142 8.55694 1.47322
5.00283 11.251 1.52905
-6.5561 -5.6228 1.07503
3.70715 -7.57117 1.05066
8.47813 7.71996 1.43491
6.07447 -5.61427 1.03717
9.14478 6.04649 1.38944
-6.13969 -5.41763 1.03337
8.5276 6.59699 1.37508
8.06522 7.48823 1.40013
-7.10656 -1.78433 0.937411
-7.019 -2.30783 0.94385
-6.45105 -5.32335 1.06727
8.80901 5.64753 1.3416
8.13009 8.02091 1.47212
-7.26954 -1.25428 0.946193
-6.90351 -4.12232 1.03971
7.41403 6.20634 1.25242
8.05685 7.0222 1.386
7.94436 8.10027 1.47038
-6.91556 -2.82836 0.972942
-6.91685 -2.96835 0.973322
4.52974 10.0311 1.44657
8.98005 4.10283 1.29967
-7.2533 -1.6074 0.976587
6.83496 -4.2563 1.07023
4.92722 -5.94245 1.02356
-7.33895 -1.11804 0.993962
-7.01935 -2.20096 0.984288
-7.05652 -2.27028 0.990572
-5.99885 -4.40111 0.994514
5.18582 -6.56157 1.11474
6.90561 -4.1732 1.08636
8.05087 7.15014 1.45885
-7.15658 -1.7195 0.989767
-7.08774 -1.95713 0.989215
8.77524 4.84466 1.36156
8.31227 5.85926 1.38286
-6.92641 -3.62186 1.06529
8.84965 4.15338 1.34101
3.32497 10.4499 1.50132
-7.31834 -1.20086 1.01547
-6.01411 -4.44442 1.02869
-5.9946 -4.54331 1.02993
7.14294 -3.93141 1.12075
8.05138 6.46936 1.42858
5.33494 9.01704 1.45092
-6.38676 -4.32453 1.05761
4.93236 -5.52522 1.029
7.18052 -3.8272 1.13255
7.55397 -3.68359 1.16298
3.59963 9.98602 1.47815
3.41357 10.2712 1.50903
-7.37486 -1.08296 1.04092
-7.07854 -2.00518 1.02551
4.97179 -5.28711 1.01466
7.24213 -3.73526 1.1449
7.35829 -3.6699 1.16636
7.86652 -3.354 1.21584
-7.15966 -1.87601 1.05288
-7.01294 -2.9479 1.10268
-6.01192 -4.37635 1.0697
7.90111 -2.78087 1.22565
8.21795 4.61247 1.38086
4.97554 8.52353 1.44663
8.35517 4.49931 1.40265
7.82679 -2.33969 1.20432
7.1322 5.67762 1.36528
2.94619 9.4039 1.47348
-7.09843 -2.02081 1.10643
7.48111 -3.10857 1.22141
8.21471 4.53989 1.42285
5.77147 7.42251 1.42787
5.27712 7.61313 1.41167
5.11244 7.92081 1.43211
5.06561 8.02854 1.43689
7.33163 -3.16889 1.22004
7.67672 -2.75519 1.24215
-6.75989 -1.68373 1.04963
7.82876 -2.256 1.2495
7.2228 5.41702 1.3865
-7.10796 -1.95364 1.14423
-6.9242 -2.78763 1.16043
6.80328 5.51828 1.37419
-7.36059 -1.09653 1.1627
-7.14883 -1.82532 1.15585
-7.05088 -2.0688 1.15165
-7.12544 -1.87367 1.15651
-6.89933 -2.93608 1.17738
4.79884 7.44087 1.40826
3.44599 -6.03146 1.1093
-7.28078 -1.30032 1.18514
3.52779 -5.70724 1.08097
3.56472 -5.61273 1.07038
7.06953 4.76534 1.38943
4.65288 7.36419 1.41784
-7.07561 -2.0248 1.19975
-7.09769 -1.94821 1.20809
6.96499 4.82637 1.40158
3.80984 7.91474 1.4544
6.05357 -3.31949 1.15017
6.63314 4.87288 1.37249
4.65552 7.15548 1.42414
3.83615 -5.30022 1.09975
7.10587 4.42489 1.40966
7.4763 2.8588 1.35286
6.31973 5.28306 1.39624
-7.28436 -1.25665 1.25915
6.75431 4.08364 1.35566
-6.45421 -2.77342 1.19895
5.51001 -3.63004 1.13355
5.69138 -3.51896 1.14895
2.74888 7.83393 1.43544
-7.37824 -1.04035 1.29217
5.33421 -3.78373 1.1401
-6.31414 -2.26083 1.16329
-6.27453 -2.41796 1.17773
4.28104 -4.66458 1.10723
4.49404 -4.47722 1.11285
4.59174 -4.44908 1.12175
-6.80538 -1.73369 1.23745
4.32933 6.49526 1.39261
-7.16496 -0.928994 1.29184
-6.14713 -2.25886 1.16687
6.64154 3.69312 1.36242
6.10131 4.36278 1.36067
3.6086 -5.32733 1.17024
5.14713 5.68463 1.40283
2.51169 7.18751 1.43031
6.48764 3.0534 1.35588
-1.70684 -5.78403 1.14161
6.42817 -1.38636 1.2478
6.27605 2.77919 1.32165
6.22133 2.38264 1.32929
-4.46102 3.94761 1.40098
4.32635 3.53542 1.33651
4.21192 3.29291 1.3237
4.66538 -1.67781 1.24502
4.81902 -1.38103 1.25417
-2.15053 4.819 1.31885
3.72715 -2.95309 1.22253
3.67328 -2.54967 1.19378
3.40675 -2.96184 1.22594
4.00318 2.56873 1.32934
-2.59442 -3.53418 1.25109
-2.32584 -3.5703 1.2164
3.75355 2.05709 1.30143
3.73023 1.97948 1.30087
-2.84835 3.49299 1.39086
-2.29596 -2.41889 1.1874
1.956 -2.78195 1.21329
-2.12698 2.77219 1.32772
-2.03176 2.76023 1.3339
2.25131 -1.87013 1.22572
2.38068 -1.49855 1.22272
-2.01776 1.87904 1.29803
-2.0639 -1.44266 1.22846
1.45018 -2.07095 1.24618
-1.99189 -1.0875 1.21454
-1.92445 -0.707506 1.22015
-1.9262 -0.7033 1.24575
-1.95547 -0.344294 1.22921
-1.89246 -0.564566 1.2301
-1.89208 -0.530782 1.23519
8.21594 -8.69516 -7.46174
12.1043 -10.2692 -8.78475
-8.81375 15.7341 -6.99838
20.4282 24.8759 -11.5629
-8.81314 -2.52395 -2.58319
-34.6779 -23.165 -7.70373
-34.2709 -22.4123 -6.04193
-34.0011 -23.1066 -6.10487
-31.3492 -20.1054 -2.80068
9.27329 -8.83258 -0.391295
-7.74997 16.7051 -0.454326
-29.5787 -11.446 0.730734
-6.92637 -8.27819 0.461101
16.5739 23.7993 1.57583
11.3314 15.9362 1.61747
-6.70041 -6.67342 0.884367
4.20061 12.1887 1.48575
8.70565 9.06818 1.47049
7.97457 -8.76637 -10.3824
8.83443 -8.54197 -10.5002
6.95855 -11.9399 -11.5167
6.87411 -11.3528 -10.8983
8.15467 -8.26698 -9.5353
7.02371 -12.032 -11.329
7.06794 -10.9758 -10.4589
8.00439 -8.38003 -9.20641
6.72942 -11.2878 -10.2917
6.44699 -11.7003 -10.2159
7.75972 -8.8533 -8.97488
6.20722 -14.3203 -11.8113
8.30097 -8.70343 -9.10395
6.30166 -11.9125 -10.1783
6.14913 -12.0913 -10.1154
7.49349 -9.44816 -9.0039
7.91187 -9.05882 -8.92954
10.4679 -9.45027 -10.4887
6.12214 -14.1185 -11.3746
6.10343 -13.673 -11.009
6.133 -12.5804 -10.2941
9.19741 -8.82668 -9.3515
9.28527 -9.07342 -9.46879
5.86665 -12.509 -10.0369
9.36115 -8.99008 -9.26274
6.86323 -11.1286 -9.27929
5.61735 -12.9741 -10.0066
9.6917 -9.08088 -9.4124
7.61119 -9.34683 -8.4749
9.99678 -9.18629 -9.5381
10.9169 -9.49313 -10.1515
11.4394 -9.69744 -10.0715
8.38708 -8.61045 -7.95809
7.43317 -9.30172 -7.86734
8.16992 -8.72105 -7.89881
7.63032 -9.35475 -7.89807
7.83927 -9.40489 -7.84719
8.32303 -8.53789 -7.62223
0.359723 15.8792 -10.1338
7.52995 -9.32694 -7.6284
10.9095 -9.60611 -9.24224
7.22778 -10.7048 -8.17497
8.15775 -8.50007 -7.42995
4.61445 -15.4109 -10.1173
8.71613 -8.70324 -7.62089
7.92386 -9.03528 -7.41289
4.04968 -18.0244 -11.3796
8.20029 -8.63023 -7.27799
4.08715 -17.3118 -10.8539
0.145582 14.8843 -9.0566
6.65637 -11.2658 -7.96684
7.74496 -9.27089 -7.32984
10.1248 -9.3117 -8.34679
6.82257 -11.2546 -7.90109
8.06286 -9.20715 -7.34641
11.2664 -9.69464 -8.88654
5.40255 -13.8616 -8.82354
7.73733 -9.26901 -7.1604
9.35225 -9.03474 -7.7053
6.90421 -11.1185 -7.74614
7.98572 -9.13067 -7.11769
9.7533 -9.18802 -7.80907
14.8387 7.41473 -9.63367
8.66915 -8.83294 -7.15153
6.93468 -10.9674 -7.45755
2.64059 -11.2149 -6.62634
7.86209 -9.0742 -6.87646
9.60539 -9.14042 -7.53201
10.7919 -9.4945 -8.10872
3.27979 -20.5989 -11.7301
6.80281 -10.9851 -7.24369
10.1056 -9.29076 -7.68763
12.3351 -10.3502 -9.03002
9.24126 -9.00836 -7.21147
4.6168 -14.2962 -8.37554
8.00582 -9.21863 -6.78112
14.7609 7.54657 -9.10127
9.69748 -9.10709 -7.30631
0.836785 17.4715 -9.55155
2.74153 -19.8544 -10.9289
11.1282 -9.64335 -7.99516
4.23396 -14.424 -8.13742
14.6744 7.67401 -8.91957
15.0611 10.3986 -9.82643
14.0103 7.72919 -8.54945
10.9482 -9.61575 -7.74875
13.2568 -10.7955 -9.09451
3.04376 -19.3307 -10.2874
11.3524 -9.82207 -7.63839
2.16864 -20.3805 -10.3448
10.2588 -9.33995 -6.97643
14.2593 -11.2785 -9.12826
13.7959 -11.1586 -8.88295
11.0042 -9.65186 -7.29247
7.50868 -9.33795 -5.93398
3.56326 -8.46859 -4.52794
-8.71041 -1.9125 -4.38455
2.22333 -20.16 -9.94789
4.53199 -9.29931 -5.05932
0.40362 13.6594 -6.68925
7.60763 -9.26987 -5.8518
-8.52482 16.2685 -8.89536
-9.21184 -2.43526 -4.59107
14.9807 -11.5686 -9.09597
19.3503 5.53652 -9.62504
-10.3277 -2.557 -5.0324
1.90955 -20.555 -9.81616
17.1748 16.1397 -11.1621
7.58102 -11.2078 -6.3847
20.0008 5.39856 -9.75589
14.0173 -11.0978 -8.31411
2.92894 -17.3308 -8.17292
19.3282 5.71875 -9.31167
17.8202 -12.9868 -10.1856
9.85649 -2.48962 -4.69717
20.2551 5.13388 -9.64066
17.2998 16.2681 -10.9425
1.81004 -20.2237 -9.29258
9.66864 -9.04106 -6.06147
-9.22175 -1.67385 -4.27439
9.44452 -3.46551 -4.58195
6.7108 -11.3129 -5.98301
9.90371 -2.61592 -4.64623
19.2211 5.8611 -9.04659
17.6834 17.5402 -11.1965
9.36074 -3.08354 -4.43619
15.4125 -11.8597 -8.72734
7.03433 -11.5574 -6.05177
7.14845 -10.9124 -5.81485
9.55063 -3.40167 -4.51796
-10.0484 16.4695 -8.58923
17.6295 -12.8662 -9.69861
19.5072 5.6195 -8.99768
16.0847 7.29575 -7.82098
17.7903 17.9692 -11.1826
16.4062 -12.2016 -9.01157
-11.3082 17.1957 -9.04604
-6.59046 15.0609 -7.20799
-5.24482 4.91933 -3.13307
20.1041 5.45858 -9.05654
9.54956 -3.40194 -4.37499
18.1826 18.429 -11.1268
15.8034 -12.1615 -8.58091
14.846 7.4229 -7.08371
3.83761 -9.29975 -4.27442
-11.2312 17.0814 -8.65442
6.94098 -10.9012 -5.44942
-13.6142 3.33646 -5.90563
0.743335 -22.3919 -9.44139
15.7892 -11.955 -8.28244
-5.17471 5.69816 -3.22036
0.99875 -22.2547 -9.33838
1.23196 -20.7848 -8.72274
14.1556 7.59205 -6.71841
18.5119 19.2917 -11.1709
3.7818 -8.95257 -4.05286
14.758 7.72269 -6.93318
17.8826 19.0989 -10.8575
-9.52503 -1.09321 -3.95771
4.00648 -8.50072 -3.8503
14.0226 7.74284 -6.57559
6.84044 -10.9813 -5.2894
-13.6528 2.55041 -5.68173
-8.01125 15.5198 -7.09744
19.2113 20.8752 -11.4931
15.0598 7.23623 -6.73181
-5.30275 14.4812 -6.18306
13.9389 -11.02 -6.95975
1.53118 19.2366 -7.49472
-8.80216 15.897 -7.06137
18.9683 5.78466 -7.68354
-1.75832 13.32 -5.20396
5.29395 -9.3909 -4.15743
-2.39209 13.5412 -5.28151
19.5381 22.6018 -11.4554
4.65941 -8.51342 -3.68572
19.3941 5.56377 -7.67753
0.876925 -26.5451 -10.0934
14.8889 -11.4734 -7.07401
19.9521 5.40542 -7.73664
9.43528 -3.43762 -3.75442
0.533456 -22.6981 -8.46099
3.24726 -10.7904 -4.2099
20.1357 23.4262 -11.4713
0.909752 -8.72278 -3.25235
14.0135 -11.098 -6.59159
20.3595 5.17822 -7.72403
17.8475 17.6354 -9.16889
-13.0657 2.28898 -4.82253
20.7835 24.8189 -11.7405
2.28628 -13.2544 -4.84564
13.0226 -10.5311 -6.02667
0.79589 15.4362 -5.53044
-8.20842 -2.80117 -3.10225
0.410021 -21.8667 -7.81795
-4.24253 13.9233 -5.17732
0.638396 -21.9422 -7.80082
15.8376 -11.9615 -7.03462
-15.8564 18.3311 -8.54192
5.92607 -11.3338 -4.497
-11.1081 16.7628 -7.02366
0.0935772 -18.5273 -6.51273
14.25 -11.2934 -6.35787
20.3145 5.35003 -7.33238
0.657762 -23.0633 -7.96816
-5.04952 14.6583 -5.31211
3.6386 -8.44667 -3.16587
4.87525 -9.03071 -3.51679
-14.6214 18.1526 -7.97848
2.27482 -10.8853 -3.81098
-8.95596 16.2463 -6.32382
3.02648 -13.693 -4.78122
-15.1004 18.5338 -8.10459
20.1328 5.47383 -7.01256
21.9731 27.1822 -11.6815
35.9645 -20.3021 -13.8016
-5.34537 14.1777 -5.03241
1.91298 20.7312 -6.908
1.26736 -10.248 -3.41427
-5.29225 14.572 -5.03552
-12.6891 17.3713 -6.97868
18.5369 -13.2092 -7.39182
3.55936 -8.67153 -3.00535
6.2175 -10.1091 -3.8035
2.31339 -11.0075 -3.57943
-4.58418 -34.4354 -11.0412
-1.14161 -23.9193 -7.62237
15.0004 10.3309 -5.74802
-13.3179 17.7217 -7.00706
-18.1423 19.5681 -8.3884
6.9584 -11.0894 -4.04755
1.38605 -21.9141 -6.79259
-2.58558 -27.5393 -8.49022
7.16282 33.0801 -10.3283
0.771001 15.027 -4.5703
-11.2251 16.9366 -6.12426
-2.71378 -26.6464 -8.06588
-14.4628 18.0828 -6.90909
-5.32762 -34.935 -10.5219
0.839206 -25.096 -7.50786
-5.43596 14.951 -4.73234
2.07902 20.684 -6.12475
-21.4538 20.0039 -8.65427
18.1913 5.78887 -5.6191
-4.32883 14.5394 -4.46061
-7.99082 15.5025 -5.11703
4.25492 -9.14139 -2.9636
4.63535 -11.6146 -3.65662
-12.6435 2.22731 -3.68973
-33.2899 -47.1555 -16.6093
-15.3209 18.431 -6.88998
6.95537 -11.0778 -3.7658
2.56333 -9.54429 -2.80796
12.9249 -10.4619 -4.73219
-8.45861 -2.46172 -2.49795
21.0074 27.0929 -9.71304
-8.58628 -2.26303 -2.50911
-2.56678 -26.192 -7.38528
-13.051 1.99991 -3.67686
4.38679 -11.3267 -3.37133
-9.38537 16.1404 -5.12601
-13.1639 17.5564 -6.02725
-5.4369 14.5104 -4.23545
-8.58015 -41.6681 -11.6394
-21.6457 20.1994 -7.95932
-9.80898 16.2653 -5.09038
-26.9324 20.6889 -9.03508
11.4214 11.4953 -4.27574
4.32586 -11.2927 -3.20364
46.9427 -13.6463 -12.9506
-8.27594 -39.0553 -10.4929
4.0885 -8.65526 -2.5205
11.1652 -9.93093 -3.90904
-14.5676 18.2398 -6.06994
6.53439 -10.4205 -3.18358
3.17752 -9.64445 -2.62513
-30.3914 -44.5115 -13.9172
-4.39187 -28.8068 -7.53901
3.54026 -10.3698 -2.82543
4.06737 -9.38522 -2.62907
15.5928 -11.7247 -4.97783
-7.21402 15.3689 -4.29746
-31.8264 -42.4445 -13.4527
4.31068 -11.1413 -3.02353
4.25446 -7.70327 -2.23966
6.53413 -10.6583 -3.11786
44.6415 -13.4969 -11.6278
-28.4978 21.5004 -8.82589
-11.6211 17.0733 -5.09157
-27.83 -40.598 -12.1021
-9.98603 -39.3053 -10.003
-24.6726 20.723 -7.91819
4.34836 -10.328 -2.75329
-12.1583 17.4153 -5.14994
-7.90717 15.4064 -4.17402
10.27 -9.26363 -3.31165
40.1483 -13.3363 -10.1236
15.102 7.55264 -4.01976
-6.36841 -36.4711 -8.81899
3.96446 -9.08476 -2.34871
46.8139 -12.5293 -11.5019
-12.2864 -45.2383 -11.1045
4.20008 -8.98673 -2.36649
3.85713 -11.0629 -2.76127
4.90706 -8.69087 -2.34793
-12.8781 17.5497 -5.06604
11.0016 -9.64122 -3.34341
-6.23705 -31.6285 -7.35551
-27.3616 21.1328 -7.83701
41.3783 -9.04915 -9.61212
-30.7349 22.3151 -8.51571
-35.6418 -23.357 -9.54809
40.5777 -12.5438 -9.53628
5.45233 -9.47031 -2.43982
-12.4321 2.83671 -2.7979
40.4513 -11.8542 -9.31344
42.4179 -12.103 -9.70479
-5.42247 14.2271 -3.32917
13.3806 -10.7672 -3.78044
37.9315 -12.1899 -8.75895
-23.5621 20.5357 -6.77974
-30.0369 -74.0535 -17.3397
4.30746 -9.69503 -2.3006
4.53712 -9.17618 -2.21109
-14.688 18.2997 -5.01129
-31.1745 22.6445 -8.2276
-32.0605 22.7521 -8.40392
-28.6692 -76.0635 -17.4231
-10.7705 16.8298 -4.23694
-8.5172 -36.1551 -7.89846
3.18875 -9.68055 -2.17343
3.96419 -9.82427 -2.25884
45.5952 -10.5712 -9.99125
14.9345 7.48045 -3.54107
-15.2675 18.7943 -5.12676
5.1618 -9.05099 -2.18909
26.472 38.3012 -9.72931
14.9742 7.83672 -3.50885
-30.3132 -23.411 -7.94529
-33.6625 -86.3122 -19.1794
-11.532 16.991 -4.17304
-15.7324 18.6008 -4.95969
-35.4489 23.7959 -8.67583
44.2417 -9.65003 -9.23423
-13.4007 -43.1197 -9.17679
4.13352 -9.72879 -2.15066
11.596 -9.63945 -3.06808
-12.0825 17.3391 -4.21884
-20.202 -57.9799 -12.2703
-13.0991 -40.6912 -8.46301
4.06747 -9.91567 -2.12202
-34.3067 -23.4586 -8.19283
-26.9156 21.1244 -6.73419
-33.3329 -23.8436 -7.98877
-6.94063 15.337 -3.26774
-26.9585 -63.3438 -13.3713
-33.7417 -22.4629 -7.81122
3.43393 -9.35708 -1.92471
45.6746 -10.5825 -9.00303
-12.833 17.5213 -4.15192
3.98708 -9.34005 -1.93806
-36.6462 -22.26 -8.11646
-21.4281 -34.8095 -7.77373
-15.7609 -45.4763 -9.10653
37.7658 -12.4581 -7.51781
-36.2147 24.3228 -8.16434
-33.879 -23.3975 -7.73462
-32.826 -24.0168 -7.63501
-21.5827 -53.4691 -10.8491
-17.0738 -46.3771 -9.1668
3.8188 -9.20345 -1.8405
42.4055 -11.429 -8.15568
5.75494 -9.70826 -2.06839
-24.8475 -56.3424 -11.2735
-20.6909 -51.3564 -10.014
-14.6533 18.2658 -4.15232
-31.2708 -25.2207 -7.14097
-20.4096 -27.1965 -6.08049
-39.6601 25.026 -8.27431
-26.925 21.1412 -5.95843
-34.3175 23.4832 -7.22007
3.90724 -10.0441 -1.86881
4.77012 -8.60943 -1.71051
13.9914 7.51378 -2.73905
14.0649 8.07104 -2.77725
-31.0258 22.5615 -6.57656
42.086 -11.907 -7.44639
41.884 -10.8476 -7.36534
-31.428 -24.9598 -6.80813
-21.1906 20.1813 -4.91407
-20.6392 -51.301 -9.34301
14.8467 7.44118 -2.78517
-31.9028 22.5853 -6.52938
-23.8686 -56.907 -10.1966
43.4021 -11.6921 -7.30612
-10.4141 16.5331 -3.15325
-20.9305 -51.9256 -8.92879
-35.083 -24.2181 -6.71755
-22.907 20.1258 -4.77478
-24.3172 20.7587 -4.9554
-40.3689 24.442 -7.3129
-11.2875 16.8939 -3.13666
3.47032 -9.52406 -1.56772
3.86698 -10.2258 -1.69281
-7.66667 15.5501 -2.64828
-31.2574 22.7499 -5.90976
-31.9305 -24.6622 -6.13504
-28.0936 -26.2784 -5.82765
42.0722 -10.9374 -6.60767
44.7049 -9.7396 -6.97062
-6.58163 14.6598 -2.40456
9.82824 -5.15172 -1.64694
-33.6706 -24.2851 -6.18232
-26.8622 -67.9205 -10.8324
10.189 -9.16102 -2.04196
44.8452 -10.3744 -6.83581
-36.853 -24.5325 -6.51559
-31.6834 -26.1338 -6.00792
-12.8105 -42.446 -6.52339
16.901 -12.2278 -3.05575
-25.5342 21.0231 -4.80672
-25.018 -56.0558 -8.84541
-7.66361 15.3496 -2.45335
-12.7819 17.4274 -3.08147
6.03141 -11.523 -1.85854
-13.4865 18.0261 -3.16246
-34.919 23.5885 -5.92451
6.75596 -11.0355 -1.80855
37.4852 -12.3708 -5.55198
-31.3164 -25.0939 -5.60065
-33.2089 23.8655 -5.66529
-20.8283 -50.1998 -7.50648
44.9956 -10.066 -6.35799
-6.91229 15.287 -2.29287
-22.9678 -59.9428 -8.72007
7.74851 -9.37709 -1.63248
-14.0809 17.9791 -3.07862
13.2076 -10.5341 -2.28595
-22.346 20.3264 -4.06206
41.9945 -10.8577 -5.75861
44.7212 -9.79575 -6.05973
-22.7281 20.0009 -3.95898
-32.86 -24.5887 -5.36067
-14.9768 18.3397 -3.06163
-34.2325 22.8483 -5.34334
-38.5244 -16.2666 -5.39934
7.0132 -10.4301 -1.61267
10.7649 8.81353 -1.78637
-33.9809 -23.4174 -5.28118
-31.626 23.0877 -4.95325
-35.7658 -22.3182 -5.28414
41.8588 -10.8254 -5.4108
6.79262 -10.3625 -1.54828
-7.69998 15.4015 -2.13219
-25.1554 21.1225 -4.02221
-33.5986 23.6792 -5.07043
6.29112 -12.0656 -1.65775
44.6735 -9.531 -5.59505
14.9892 7.85295 -2.03444
-18.1401 -43.9347 -5.73148
7.08311 -10.5271 -1.52776
-20.5951 9.12746 -2.6663
-14.4764 -43.7905 -5.42296
-32.0158 -24.6836 -4.72703
-31.4992 -25.1914 -4.71985
41.9413 -11.2348 -5.10331
11.2253 -9.667 -1.71633
-30.0555 22.7894 -4.3396
6.63904 -10.8174 -1.45308
7.48631 -9.21702 -1.35829
11.5772 -9.71879 -1.7169
9.44642 -4.6084 -1.19021
14.9676 7.69142 -1.8965
-10.4057 16.5657 -2.20789
-32.3775 23.6584 -4.49239
38.781 -12.7663 -4.57871
9.35276 -9.01921 -1.4375
-11.1247 16.6847 -2.18005
6.78862 -12.7808 -1.56769
44.8147 -9.73981 -4.97181
10.7629 8.84453 -1.50132
16.7565 -12.4472 -2.24039
42.1363 -10.9283 -4.66449
9.61477 -8.97469 -1.39349
8.376 -8.46109 -1.24726
-31.0593 -24.8547 -4.1422
-30.5534 -61.2842 -7.14367
14.9644 7.50486 -1.71036
-31.9559 -24.6401 -4.14025
-12.9241 17.6182 -2.21872
-12.841 17.2039 -2.13393
10.2027 -9.08373 -1.33827
-21.1109 -53.6139 -5.64898
6.31236 -12.0884 -1.31998
16.6261 -12.1639 -1.98029
42.0255 -11.2928 -4.17138
-31.1015 -62.868 -6.66769
-21.0922 -55.3524 -5.62549
-23.434 20.4974 -2.91056
45.5123 -10.1247 -4.355
9.71211 -8.98297 -1.2247
39.6085 -13.0658 -3.88665
-15.0973 18.5068 -2.163
-29.8062 -13.5896 -2.98602
-32.7291 -63.8028 -6.60967
15.8428 -11.8581 -1.80026
8.63265 -8.72359 -1.11139
12.882 -10.6335 -1.45462
45.0999 -10.4533 -3.96599
9.39769 -9.02395 -1.09525
10.9457 -9.63902 -1.22598
-34.3529 23.5918 -3.46798
16.826 -12.2701 -1.72493
-17.1003 -44.4982 -3.81829
14.6701 -11.471 -1.48507
-11.8183 -33.0857 -2.77309
-29.9864 22.8003 -2.91327
-33.2822 23.5251 -3.14647
-22.9694 -52.4683 -4.42184
-51.4988 28.0279 -4.43998
-21.498 20.2329 -2.14757
-33.5105 23.703 -2.97482
16.3631 -12.2264 -1.49435
42.0522 -11.2532 -3.17162
-39.8687 -75.4352 -6.1576
13.9635 -11.0479 -1.27435
-15.7012 -41.6513 -3.07229
10.7603 -9.60965 -0.988472
-23.4579 20.5395 -2.10584
12.8605 -10.6119 -1.1162
17.9333 -13.0069 -1.47702
16.0261 -12.1218 -1.32715
-14.8042 -41.046 -2.82262
43.8066 -11.3931 -2.82944
-32.258 -65.3599 -4.44792
35.7763 -8.67935 -2.25942
42.9808 -9.83758 -2.70702
6.0443 -13.0654 -0.86052
30.8408 -20.4073 -2.21311
-9.89033 16.5105 -1.13152
-15.7017 -40.9591 -2.49783
16.5935 -12.4011 -1.16322
-9.70107 -12.5759 -0.870391
14.9555 7.67269 -0.908768
13.8905 -10.9957 -0.948734
-12.8466 17.4091 -1.13017
-16.6121 -41.1744 -2.35807
14.8498 7.80848 -0.822246
-16.4407 -42.0245 -2.21426
-14.2187 18.0222 -1.09785
9.56113 -9.01868 -0.602878
-24.2517 -55.6306 -2.74622
12.4424 -10.2287 -0.746797
-16.1653 -45.0624 -2.12562
-17.363 -42.779 -1.97669
6.84987 -12.6483 -0.638233
-14.0501 -42.8293 -1.92016
-52.9218 28.7807 -2.44041
18.3161 -13.1588 -0.915376
16.7844 -12.4758 -0.814558
-42.0735 -81.6609 -3.46584
-18.4158 -48.2924 -1.90368
-33.8129 23.2326 -1.50044
42.5306 -10.9586 -1.5816
-34.9043 -69.4309 -2.60017
-26.1489 -57.3055 -2.121
20.1056 23.2532 -1.02049
-21.5409 20.1859 -0.961816
8.1083 -14.3106 -0.552506
9.41735 -8.99031 -0.422075
11.2925 -9.94139 -0.489093
18.5707 -13.1308 -0.747575
34.7697 -13.1139 -1.23333
21.8919 26.5 -1.10194
-27.4738 -13.7807 -0.963392
-23.0082 20.4888 -0.938866
-31.8573 22.5629 -1.21826
-25.2554 -58.0631 -1.96127
-13.9229 -39.3876 -1.28693
-21.7464 -55.4721 -1.80425
-16.7773 -45.4701 -1.38873
-34.1716 -20.7191 -1.06437
11.4416 -9.70637 -0.40199
16.3221 -12.1401 -0.536322
-41.2845 25.54 -1.28016
-30.4417 23.1632 -0.946256
-30.9626 22.6917 -0.907413
9.56348 -9.00291 -0.304299
-41.5281 14.3531 -0.971013
-31.6982 -53.0791 -1.39265
21.2396 -14.2051 -0.561766
30.437 -18.4561 -0.80355
14.2182 3.92934 -0.30084
27.2592 47.6345 -1.00848
23.5124 -10.9463 -0.45684
47.0459 -10.8332 -0.89811
-30.7653 -22.109 -0.69084
-29.7297 -29.2005 -0.660836
-19.1586 -47.0105 -0.845615
12.7113 -10.4529 -0.27082
18.4997 -13.3678 -0.348896
-29.3722 -13.0553 -0.421927
-32.9814 -24.6825 -0.573178
-33.7663 -68.0703 -1.02625
-28.0209 -59.6375 -0.903248
-34.0851 -23.2783 -0.538892
-30.4609 23.1743 -0.450439
16.9801 -12.6803 -0.251709
29.2609 -18.1432 -0.405292
-30.9203 22.6999 -0.426909
-19.2484 -44.1453 -0.515526
-12.1142 -36.4626 -0.387164
-33.7169 -59.4085 -0.629684
-14.3901 18.2535 -0.178256
-26.7969 -13.5102 -0.242248
-15.0834 18.3864 -0.162487
-22.6632 20.2403 -0.156202
-21.0962 19.7875 -0.131415
-10.5792 -13.6005 -0.0604931
14.7177 7.73154 -0.0199816
11.1012 -9.76165 -0.00780377
-34.6417 -18.974 0.0603106
-11.4268 -33.9605 0.116418
16.94 -12.3074 0.0908391
-18.9656 -43.5414 0.210801
18.7598 -13.2177 0.121843
7.17128 -12.3273 0.10406
25.9733 -10.6563 0.172663
-55.6815 19.8822 0.564109
16.2333 -12.0306 0.192887
37.393 -7.63426 0.360142
-29.1756 -8.22688 0.354695
-36.4511 -22.0012 0.469603
-11.4111 -32.6944 0.371203
-12.8069 -35.4886 0.448932
-10.3587 -31.8402 0.401522
6.3255 -12.9294 0.183741
7.20952 -11.1067 0.174102
-28.3295 22.2378 0.551767
11.3062 -9.87413 0.225671
-24.2389 20.7286 0.526721
10.8938 -9.72684 0.22921
12.9626 -10.6712 0.264519
36.345 -7.77834 0.618403
-34.7168 -23.2597 0.76013
-31.4008 22.4517 0.758305
6.13804 -12.8244 0.275885
7.01803 -11.0444 0.252101
8.02241 -9.41376 0.241533
27.273 56.0795 1.3567
7.72529 -9.43921 0.27577
10.124 -9.16973 0.32954
-28.9114 -9.27074 0.731453
-23.4277 20.4488 0.841701
-27.7268 21.8625 0.948025
-29.0406 -8.71991 0.799131
9.18534 -8.89122 0.345339
9.61962 -8.94072 0.357987
-25.7224 21.679 0.914373
25.34 -5.12634 0.719856
12.9723 -10.6419 0.499827
14.76 24.0451 0.870662
6.18513 -12.7596 0.446216
7.45253 -11.6173 0.433134
-28.5641 -8.05598 0.973889
-12.6523 -19.3722 0.762254
-28.2459 -8.82826 1.0233
16.0853 11.0096 0.704602
-29.9533 -18.561 1.23172
15.6971 27.2672 1.12305
-30.5716 -16.676 1.29053
23.5033 -4.24411 0.862935
-27.9498 -19.8784 1.27092
-7.30458 -7.96451 0.407904
9.04678 -8.82195 0.469711
12.4021 13.5666 0.708875
25.7874 53.1973 2.23928
24.6521 52.4869 2.18394
-11.5776 -9.16421 0.582292
8.7188 -8.66451 0.486254
-25.8084 21.2599 1.35783
21.807 -2.95543 0.891605
-28.9199 -17.566 1.38621
9.40894 -8.92151 0.531629
12.4251 14.3102 0.81551
6.57141 -12.4449 0.597627
14.8063 19.2385 1.06744
20.6791 28.5633 1.54462
-9.5162 -13.8366 0.738128
-10.0065 -15.6497 0.824541
7.59242 -10.9428 0.586801
8.61972 -8.70911 0.553742
24.1492 -3.69945 1.10313
-29.9756 -8.73533 1.42528
6.7373 -11.076 0.596492
-8.28556 -8.15398 0.547168
21.1489 42.6702 2.27873
-28.6807 -17.7258 1.59378
-9.79025 -13.7327 0.802719
9.65445 -8.95764 0.620298
15.3103 42.5464 2.18908
-30.3793 -13.4559 1.58595
-6.7714 -8.25534 0.525456
14.4294 33.5561 1.86405
-29.8632 -11.6945 1.60958
-7.60225 -6.99054 0.522132
-6.70794 -7.60418 0.513037
16.0217 29.0232 1.7216
10.513 12.2931 0.874292
14.1605 19.27 1.28413
9.33885 -8.91961 0.691928
14.7474 19.1884 1.33643
15.1939 23.4669 1.53955
-27.6696 19.4822 1.85528
-6.98249 -8.20594 0.597585
-26.5964 20.4074 1.86426
6.08726 -12.8528 0.795705
-7.11703 -9.17198 0.662113
9.92114 12.3921 0.933724
14.8131 24.9583 1.69577
6.45496 -12.9643 0.833478
13.7554 22.4416 1.55492
-8.27239 -8.13144 0.698984
11.4967 11.576 0.973045
14.5963 19.4133 1.45944
-7.41053 -10.0318 0.775713
7.0022 -11.1586 0.802836
11.249 -9.70288 0.900594
5.86094 -10.7441 0.759465
-7.20424 -6.65896 0.613129
14.3963 20.4222 1.58113
16.1025 7.14767 1.14399
-7.04553 -6.15574 0.614016
6.45568 -13.4309 0.99312
9.32833 21.0711 1.55465
10.3753 12.5055 1.11097
13.477 18.122 1.57534
12.3178 20.4227 1.65045
11.3024 11.9394 1.15409
6.59103 -9.8295 0.838102
11.4509 11.7154 1.18568
9.79386 -6.91351 0.853023
12.3105 11.9176 1.25853
9.91234 -8.37084 0.950461
-6.17909 6.69697 0.680516
10.3966 9.15446 1.0407
11.8502 17.718 1.60395
11.4023 18.1661 1.61623
-6.95571 -7.71001 0.805293
10.7808 18.6075 1.65015
9.50058 -8.9448 1.00844
-6.42243 -4.30349 0.609855
9.11934 18.2704 1.6319
10.0669 -6.88871 0.97673
12.405 11.5095 1.36805
9.67383 18.7827 1.70136
-7.2783 -9.65407 0.984859
6.70917 -9.36819 0.937664
12.1924 11.6637 1.38266
12.0962 11.8961 1.40896
11.3741 11.8885 1.36225
-5.06256 -11.5547 1.0612
10.2647 12.8425 1.39902
-6.96957 -6.09032 0.797334
-6.82617 -6.70491 0.808326
-5.22366 -11.4567 1.07082
-7.31222 -7.75923 0.918247
9.27185 -7.24604 1.01671
-7.13243 -8.07114 0.9427
-7.02793 -7.70249 0.917099
9.34502 12.4737 1.38194
-6.96393 -8.38638 0.973966
10.7755 9.04133 1.28206
10.4118 13.4098 1.534
10.4848 9.20837 1.27751
7.67533 13.9325 1.46322
-6.50879 -8.14915 0.95568
-6.91566 -9.03506 1.05025
11.1525 10.7563 1.42977
11.2079 9.14444 1.35371
10.8236 10.7584 1.43067
6.44513 14.8939 1.52509
-11.457 2.93511 1.10934
-6.36751 -4.17499 0.71347
-6.81454 -6.30208 0.860865
9.38516 13.2358 1.56535
-6.04959 6.57355 0.879977
7.95218 -6.60237 1.00734
7.89019 13.1561 1.52396
-7.07956 -7.62935 1.04864
9.26592 11.586 1.49649
6.97201 12.3791 1.442
7.02649 12.9449 1.50166
9.49836 9.05925 1.35852
5.8275 13.8922 1.56155
9.09787 12.3738 1.60137
-6.11252 -4.46065 0.793295
5.92666 13.6184 1.56455
6.18671 13.5516 1.56627
-6.97738 -4.43218 0.884284
8.73534 8.98501 1.33609
9.09986 10.1375 1.48167
7.29722 10.957 1.43081
5.7988 11.4216 1.39275
-6.30758 -7.42028 1.06459
10.2356 6.43283 1.3377
8.96045 8.10996 1.33234
7.27896 11.6351 1.51557
6.81519 11.5832 1.48597
5.33121 11.8385 1.44464
4.84457 12.0422 1.4523
4.67588 13.5984 1.58207
9.83498 7.03206 1.35012
8.72524 9.27484 1.42305
5.35695 11.4622 1.42489
-6.84991 -6.73181 1.06908
6.83809 10.6733 1.42805
4.29401 13.0991 1.55807
9.74201 -3.19236 1.14309
-6.10961 -5.41889 0.945621
7.283 -6.11474 1.0795
10.3842 5.69756 1.35858
-7.38771 -0.986659 0.85427
-6.26292 -5.3609 0.949068
5.24315 -5.55147 0.879774
5.04349 11.5683 1.4661
-6.88943 -4.56347 0.957762
4.44933 -7.25502 0.984261
10.378 5.13395 1.35881
8.8535 7.85792 1.38976
-6.00674 -4.37166 0.865971
-6.49181 -5.27837 0.988572
4.08805 -7.85833 1.05347
4.96234 -5.84517 0.919922
10.1389 4.74081 1.34182
8.48826 8.24237 1.4332
5.25045 11.4385 1.53646
9.01746 6.24687 1.34323
7.98261 8.30763 1.44336
-6.49619 -5.75245 1.08032
3.70333 -7.56647 1.05512
8.64867 6.66847 1.37341
-6.47398 -5.34954 1.06305
9.06342 5.99498 1.38747
8.15686 7.11738 1.38129
8.08692 7.48232 1.40685
5.77192 -5.34078 1.00962
-6.97883 -4.44755 1.06244
8.07357 7.97134 1.47172
-7.36401 -1.04333 0.961199
-6.92934 -2.82896 0.977654
8.95391 4.09114 1.2893
8.37664 6.60851 1.40077
4.99433 -6.02314 1.02851
4.91243 -6.18746 1.04619
6.86428 -4.279 1.07672
-7.13982 -1.71983 0.984765
-7.0159 -2.222 0.984129
-6.03055 -4.42617 1.00025
8.11062 6.63843 1.42099
8.58905 4.42884 1.31764
8.60869 5.15345 1.37053
8.00306 7.11561 1.45773
-6.81453 -3.73688 1.05549
8.84039 4.14966 1.33686
8.24225 5.81739 1.38162
-6.40363 -4.33292 1.05818
-5.96254 -4.52897 1.02276
5.33856 8.99623 1.44499
3.62332 10.0238 1.48023
-7.37423 -1.09394 1.03264
-6.91037 -3.9306 1.10349
4.94537 -5.53961 1.02629
5.22457 -5.39447 1.04231
7.45766 -3.53422 1.15415
3.3681 10.1009 1.492
8.38217 4.58757 1.3518
7.36939 -3.67534 1.16825
7.58096 -3.33225 1.18064
7.75544 -3.30296 1.19613
8.92059 2.80884 1.34621
4.83031 -5.63137 1.06645
7.34821 -2.85093 1.14754
-6.96444 -3.303 1.12374
7.91143 -2.77726 1.22252
8.65569 -1.81819 1.29831
4.99127 8.54569 1.46091
2.93814 9.39126 1.46393
7.72586 -1.88639 1.17212
7.21195 5.74353 1.37376
3.43922 9.51435 1.49551
3.1705 9.74682 1.51906
-7.37655 -1.04427 1.10491
-7.08026 -2.02473 1.09773
6.92979 6.27313 1.41135
-6.26761 -2.27332 1.00079
-7.24611 -1.37644 1.11366
7.92205 4.80722 1.41182
5.69378 7.33676 1.40919
5.27767 7.60967 1.40952
5.04147 7.98936 1.42836
6.75525 -3.22365 1.13199
7.2411 -3.12248 1.20764
7.63008 -2.75333 1.23614
-7.32288 -0.733587 1.12418
-7.10295 -1.95606 1.13737
6.7848 -3.0909 1.15303
3.74919 -5.78561 1.06608
-7.05863 -2.07765 1.15383
-7.35221 -1.09382 1.16745
7.34603 4.76479 1.38301
-7.20428 -1.44466 1.16931
-7.2774 -1.30215 1.18649
-7.1031 -2.02064 1.2012
7.05542 4.75351 1.38881
-7.10678 -1.947 1.21073
6.99504 4.85495 1.41441
6.60186 4.84233 1.36639
5.1946 6.22907 1.35125
4.66033 7.1524 1.42579
3.8091 7.90594 1.45876
-7.25504 -1.37463 1.23296
2.79223 -5.77652 1.08157
7.12806 4.41998 1.41302
6.49969 5.22715 1.4072
3.87327 -5.36474 1.11562
3.93643 -5.02071 1.08002
-7.27822 -1.25346 1.25314
-6.60294 -2.6271 1.20596
7.40471 2.84326 1.34538
7.01739 3.8842 1.3669
-6.41867 -2.7549 1.18865
6.76209 4.09107 1.35685
5.68095 -3.5187 1.15019
-7.40228 -1.04049 1.293
-6.36118 -2.28199 1.16214
5.53393 -3.64702 1.14243
5.31782 -3.77323 1.14294
3.58517 7.13889 1.40529
-6.80449 -1.73646 1.2336
4.4797 -4.46712 1.11337
-7.09787 -0.915381 1.2752
4.72472 -4.45732 1.14949
4.31749 6.47616 1.38895
6.57507 3.46806 1.34252
6.61417 3.67613 1.35947
-6.44583 -1.50161 1.19068
3.60871 -5.32613 1.17034
5.06652 5.6005 1.38289
-6.15917 -2.18472 1.198
3.4132 -5.15867 1.15036
3.3772 6.75019 1.41215
-1.69758 -5.7815 1.14467
6.43519 2.72786 1.33018
-2.14313 -5.72737 1.17571
6.29963 2.79181 1.32663
-2.78761 -5.37679 1.18695
-3.53341 5.36585 1.39251
4.46359 3.88723 1.35092
4.15151 -2.87902 1.17716
4.62863 -2.18629 1.23692
4.19375 3.28721 1.31997
3.70821 -2.93088 1.22413
4.01386 2.5717 1.33182
-1.4432 -4.11789 1.22189
-2.3213 -3.58008 1.21274
3.85606 2.36194 1.31013
-2.86606 3.53238 1.36428
-2.48104 -2.917 1.18972
-2.37848 -2.93813 1.19464
1.84325 -2.81215 1.18218
1.86625 -2.79036 1.2122
1.99228 -2.52673 1.1985
-2.04573 2.81045 1.32246
2.80364 -0.55565 1.25908
2.78286 -0.336806 1.24075
-2.08963 -1.61946 1.21328
-2.0774 -1.45154 1.23837
-1.86248 -1.79618 1.28369
-1.99499 -1.13162 1.20485
-1.9865 -1.07056 1.23169
-1.94633 -0.880522 1.23195
-1.93072 -0.708538 1.22227
-1.92959 -0.701637 1.24949
-1.90599 -0.46978 1.22235
-1.8714 -0.345774 1.21959
-1.85624 -0.401249 1.22629
2.37781 -19.6934 -10.0096
-7.60898 -8.98341 0.465561
8.01714 -8.79859 -10.4662
8.26323 -8.62885 -10.5026
8.21483 -8.28964 -9.88511
6.9575 -11.9566 -11.4094
8.51549 -8.9728 -9.7405
7.84974 -8.93658 -9.13472
5.85025 -12.7988 -10.7297
9.42602 -8.83306 -9.74361
6.14786 -14.0955 -11.5767
8.28657 -8.67831 -9.02166
8.01722 -9.16836 -9.10783
7.29146 -9.24512 -8.77257
5.91014 -14.1528 -11.1905
7.71769 -9.30523 -8.72351
7.85495 -9.11608 -8.66833
7.12799 -10.5796 -9.08264
6.81933 -11.0718 -9.21853
10.0512 -9.191 -9.56577
6.53873 -11.1742 -8.86348
8.0323 -8.62704 -7.8494
7.35962 -9.27967 -7.87089
8.515 -8.68029 -8.08251
7.71932 -9.47167 -8.0275
6.48646 -12.7733 -9.35492
7.93228 -9.17969 -7.91286
5.00225 -16.0393 -10.8065
-0.473168 13.9384 -8.91761
7.72671 -9.24336 -7.72558
7.3341 -10.8621 -8.34514
8.3766 -8.56489 -7.63262
10.8722 -9.61795 -9.20742
8.98804 -8.81756 -7.89677
11.7608 -10.029 -9.68685
8.07159 -8.53466 -7.22712
4.04149 -16.8452 -10.6173
4.24954 -15.3804 -9.79776
7.84348 -9.35773 -7.3175
3.95294 -15.6317 -9.61494
11.4751 -9.82395 -9.04751
6.86291 -11.0751 -7.73668
7.7707 -8.81798 -6.96262
5.48718 -13.9973 -8.88308
6.48754 -12.7049 -8.34879
8.3608 -8.59324 -6.98711
9.6856 -9.07909 -7.74104
2.79057 -11.7956 -6.94813
5.47829 -13.8973 -8.45837
9.59264 -9.10336 -7.47598
6.6166 -11.0684 -7.2611
3.34963 -20.7125 -11.7589
8.87733 -8.93768 -7.06187
12.1845 -10.2226 -8.91051
6.82244 -11.0042 -7.21325
4.68289 -14.612 -8.48027
6.22109 -12.6207 -7.74071
0.89663 18.5743 -10.1221
14.6069 7.71833 -8.97529
4.20374 -14.2435 -8.02104
14.7127 -11.6425 -10.114
14.9603 7.43402 -8.89739
13.9991 7.71303 -8.49155
4.76537 -14.8488 -8.28645
12.0751 -10.1435 -8.29924
1.8143 -20.5008 -10.5883
11.4087 -9.84581 -7.72075
2.0819 -20.2261 -10.3179
13.9504 -11.0732 -9.0092
0.00518637 14.2798 -7.16717
-7.31391 15.2045 -8.45701
10.5883 -9.59526 -7.18019
7.51236 -9.4227 -6.0042
-8.52746 16.1676 -8.83555
11.6339 -9.77062 -7.35364
10.4889 -9.57984 -6.82139
14.7695 -11.3233 -8.97691
16.6721 15.7929 -10.9085
7.48113 -11.0575 -6.36104
14.9957 7.40928 -7.84705
13.9144 -11.0183 -8.29561
-11.9816 17.1584 -9.59017
15.8201 -11.9873 -9.06826
9.77284 -2.45032 -4.62791
-9.11797 -1.65765 -4.21445
18.6837 18.0288 -11.7135
3.91296 -9.0985 -4.49544
-10.2362 16.723 -8.80675
-5.35083 4.44983 -3.13005
6.8555 -11.2866 -5.94525
9.42381 -9.08278 -5.77278
15.9985 7.29818 -7.75688
-6.64555 15.0952 -7.20532
1.50064 -18.7542 -8.13749
-11.2015 17.0445 -8.78331
9.57897 -3.36935 -4.3491
7.01485 -11.0416 -5.5303
15.8045 -11.9473 -8.29371
14.6326 7.73496 -6.94143
18.7144 19.4701 -11.2847
1.02053 -22.6421 -9.43583
-4.53834 13.885 -6.02007
-9.9428 -1.1121 -4.14649
14.072 7.77011 -6.56247
20.401 22.1912 -12.2848
-13.0866 2.45247 -5.42409
15.0966 7.17273 -6.7588
-5.22974 14.3343 -6.1383
3.63732 -8.80607 -3.79249
13.9266 -10.9964 -6.93498
19.2614 21.5567 -11.2119
18.7831 5.79204 -7.62112
1.53919 19.2358 -7.4809
-8.74862 15.7653 -6.95262
11.3926 -10.045 -5.84245
19.1959 22.2546 -11.3187
0.683281 15.3735 -5.89243
-1.66239 12.7672 -4.95382
2.7136 -12.2454 -4.81234
-8.77694 -1.25357 -3.37007
0.70328 -23.6929 -8.94401
15.1633 -11.6204 -7.20518
9.48793 -3.46202 -3.80972
-14.6059 18.0072 -8.64325
-7.89741 -3.50821 -3.16952
1.09639 -10.4645 -3.86967
7.02569 -11.2328 -4.84538
14.1793 7.91713 -5.86221
-8.29996 -2.8497 -3.15566
0.78992 15.2813 -5.45531
-3.9595 13.394 -4.9429
5.7351 -10.9828 -4.36054
15.8126 -11.9503 -7.0205
19.0555 5.88529 -7.01577
2.10879 20.5796 -7.25281
21.5703 26.0761 -11.7584
-14.9122 18.4087 -8.13376
2.96915 -13.3303 -4.70094
-8.90729 16.0921 -6.28754
18.4456 -13.0648 -7.74782
-5.04608 14.5011 -5.22274
1.36171 -22.2842 -7.39817
1.75854 19.5954 -6.49797
1.44825 -10.3205 -3.44432
38.9849 -19.9284 -14.3698
6.16604 -10.0427 -3.7724
17.5359 -12.3821 -6.87609
2.1168 20.6531 -6.60598
-13.3803 17.8641 -7.03913
1.4537 -22.7799 -7.11196
-4.30841 14.752 -4.77749
-10.9717 16.6253 -6.03895
-2.76561 -28.1371 -8.5887
3.0628 -9.46547 -3.02372
0.795625 -24.3465 -7.32541
19.0832 -13.5452 -6.94463
17.5777 5.56086 -5.40919
-7.90031 15.2956 -5.01371
4.22552 -10.4858 -3.2859
3.61811 -10.5612 -3.17765
4.23795 -10.9369 -3.29291
-13.3365 17.8268 -6.19491
-9.30244 15.9036 -5.01422
-13.2599 1.9877 -3.67654
-16.9572 19.4831 -7.01525
26.2284 -17.2667 -8.50955
-3.94295 -28.1108 -7.61235
3.78107 -9.14117 -2.64693
-9.81647 16.3195 -5.07109
47.0646 -13.742 -13.002
10.524 -9.38635 -3.73304
-6.45759 14.9538 -4.25709
-14.4438 18.1099 -6.08047
-8.05653 -38.1146 -10.1466
4.95412 -9.56379 -2.78814
6.55264 -10.4871 -3.19053
-7.22179 15.3291 -4.30931
-10.5724 16.468 -5.00209
-9.96323 -39.4801 -10.1251
-9.10715 -39.3133 -9.85323
10.931 -9.6361 -3.58343
-7.97994 15.4892 -4.22692
-11.7481 17.0765 -5.01927
14.5921 7.70795 -3.91652
4.04325 -9.24486 -2.38833
15.195 7.52524 -3.99568
3.74383 -8.90179 -2.27028
-6.56278 -32.695 -7.72137
5.62045 -9.87421 -2.63362
44.5724 -10.7864 -10.6594
-12.8335 17.4817 -4.99354
14.8484 7.60434 -3.77388
43.6191 -9.43589 -10.1102
-9.80781 16.3382 -4.26692
3.71039 -9.24281 -2.16709
42.7861 -10.9761 -9.64133
15.1066 7.49431 -3.61082
-10.6584 16.6385 -4.23397
-22.0403 -34.6493 -8.82185
4.81548 -9.74009 -2.34434
44.8631 -10.5045 -9.8589
-14.8199 18.3618 -4.96589
-32.357 -23.8823 -8.52403
41.5282 -13.8952 -9.26501
14.8323 7.83763 -3.49828
-35.6405 24.1019 -8.79879
-8.42758 -34.47 -7.18546
3.94603 -11.4893 -2.44232
44.3943 -9.5783 -9.23783
11.7654 -9.73889 -3.06326
42.8077 -11.02 -8.80911
-27.0721 20.4292 -6.7327
6.13582 -10.27 -2.3821
45.7449 -10.6972 -9.17612
-12.8218 17.4949 -4.19303
-26.9495 21.12 -6.65419
16.0207 12.1181 -3.83895
-6.8991 15.1884 -3.20397
-33.2635 -24.0597 -7.85761
-31.7632 -24.8727 -7.75283
-35.8677 23.9007 -8.11714
-33.7696 -22.2766 -7.64488
17.9966 5.65802 -3.52091
-34.2949 -20.6925 -7.48002
-15.1848 -43.7786 -8.63168
3.76622 -9.80985 -1.9788
-24.8571 -61.8838 -12.4021
-16.9429 -45.6438 -8.90484
3.97164 -9.62654 -1.87858
13.0537 -10.2002 -2.98786
45.231 -10.0651 -8.32383
