ply
format ascii 1.0 
element vertex 1875
comment /media/mkaihara/Seagate Backup Plus Drive/model_iterations/model_18.ply
property float32 x 
property float32 y 
property float32 z 
end_header 
8.00424 -9.57233 0.289436
-24.0437 20.2088 0.813546
-27.7753 -8.90694 0.732498
9.8234 -9.14021 0.344925
18.1 -13.2226 0.565002
18.9899 -13.674 0.581889
-21.6289 18.937 0.746774
-25.967 20.5226 0.861725
-27.7948 -8.34205 0.760212
-31.4469 -16.7675 0.969363
-12.7492 -19.2523 0.61554
15.1992 -11.8099 0.513417
23.4102 -3.40624 0.66507
-11.673 -18.2019 0.627279
25.8068 -4.88895 0.763889
17.5123 27.1778 0.966442
-26.6167 -19.6081 0.980056
7.4505 -11.6709 0.415379
7.16427 -11.002 0.399506
15.744 25.6476 0.921546
-7.48068 -8.64415 0.349922
13.3787 -10.9474 0.527661
-7.17257 -9.32241 0.360712
-27.4613 -7.751 0.950016
-11.4277 -16.7049 0.679331
8.04352 -9.55424 0.412934
16.6329 11.3639 0.719977
11.1029 -9.66793 0.534537
12.1839 -10.2943 0.580928
26.2816 52.923 2.21549
-59.738 21.812 2.36436
-7.32151 -7.99339 0.405461
9.8514 -9.14506 0.501519
23.4825 -3.29707 0.909685
31.6825 65.4952 2.81279
-7.29018 -9.67636 0.474444
10.664 -9.72618 0.565884
13.0582 -10.785 0.683983
22.1556 -2.71545 0.909363
-27.777 -16.8517 1.33004
8.91122 -8.87125 0.519338
-6.80115 -8.31602 0.46217
9.63094 -9.11069 0.553911
13.1486 15.0939 0.882597
-27.772 -8.15053 1.27243
15.465 20.1433 1.13962
16.149 27.8053 1.43077
24.5481 48.2732 2.39213
6.49223 -14.4651 0.70599
11.0881 -9.72775 0.666765
18.9039 -1.67773 0.867573
21.6572 41.2366 2.18208
16.1125 28.3895 1.52865
-10.9992 2.72822 0.544832
-7.09698 -9.35469 0.566844
9.35598 -9.17023 0.620106
11.6365 -8.92777 0.686497
20.613 -2.36225 0.998811
11.9802 12.2095 0.848234
18.2631 43.9219 2.33628
7.87779 -9.33331 0.589272
7.93139 -9.66672 0.615046
10.4046 -9.47633 0.696553
15.602 26.4569 1.53627
22.5189 43.6696 2.49159
21.5554 -2.6853 1.10389
-7.2748 -8.35786 0.575292
9.57756 -9.11901 0.688233
17.8107 26.1184 1.65898
17.9683 32.5747 1.9398
13.3513 -11.0051 0.918954
10.8888 12.7291 0.89474
14.9386 20.2781 1.35151
11.3277 -9.82237 0.810342
15.7699 20.5469 1.42693
-24.736 18.962 1.70055
-6.85146 -8.03826 0.584717
10.5779 12.7887 0.928315
-7.12052 -9.19222 0.651836
10.3109 12.8447 0.954197
-26.13 18.3968 1.81198
6.37026 -13.4532 0.8512
11.5237 12.4574 0.974247
-6.78705 -6.69832 0.553242
11.6151 12.3857 0.998706
-6.6916 -8.26878 0.637104
6.50306 -13.0719 0.852132
15.3861 20.4715 1.5385
15.0305 24.5749 1.71705
14.7865 34.1734 2.23337
-6.00356 6.39427 0.537003
-8.03537 -7.61389 0.669926
-6.99881 -8.02897 0.65457
5.96281 -12.9674 0.861974
-7.37408 -6.78924 0.623798
7.21504 -11.4956 0.838518
7.17659 -10.846 0.811074
11.6044 -10.0171 0.946346
12.4275 -10.3962 1.00365
16.6114 7.35682 1.15656
15.6319 20.2502 1.61719
-7.14174 -6.22407 0.614579
10.4898 -9.58063 0.916392
-7.2812 -6.17712 0.626486
11.8278 12.4808 1.17061
10.2064 22.9771 1.71119
-7.12776 -9.46152 0.792161
12.0065 13.0223 1.21407
-6.88285 -4.41085 0.562176
-6.64165 -8.06663 0.713065
-6.63207 -4.38897 0.548421
9.46222 -9.04656 0.910876
10.1835 -7.98973 0.911337
13.2344 16.6801 1.53851
-6.58346 -6.57624 0.646759
10.0013 -8.44567 0.956728
11.993 17.9325 1.62094
11.9641 19.0744 1.68107
10.1134 19.2492 1.63903
9.5684 20.679 1.71312
7.95172 23.7004 1.87919
11.3377 19.5698 1.72222
10.1964 -7.73614 0.978151
-6.92675 -7.08553 0.7596
-16.7918 -6.09049 1.39692
9.64244 -7.81719 0.972592
9.86046 19.6946 1.73779
-6.31997 -4.21996 0.602326
-6.71824 -8.08583 0.833926
4.88908 -5.79765 0.602504
9.58445 21.0868 1.8367
8.2614 20.1998 1.75447
5.08587 -5.86158 0.624779
13.1564 11.8717 1.43503
12.1342 12.1887 1.40747
6.88441 -9.60409 0.959816
12.6006 12.0522 1.43242
7.17195 21.0549 1.82076
-6.29581 -4.34615 0.623351
-7.0237 -9.29598 0.957082
11.903 12.4703 1.42552
10.7213 9.37926 1.21221
-4.90303 -11.1869 1.03324
5.43927 -5.83888 0.709032
6.2038 -6.12285 0.760361
9.37227 -7.30133 1.02131
-6.70592 -6.60508 0.79994
10.7644 12.7568 1.4564
8.94503 -7.45351 1.01162
11.1675 12.5888 1.47204
-7.19652 -7.64441 0.92089
8.3248 -7.41118 0.989072
10.5385 12.8812 1.49553
-6.96343 -7.62354 0.91595
-6.82318 -8.2024 0.958143
10.9359 12.7123 1.52204
10.875 14.0281 1.60751
-6.99878 -8.19008 0.981958
11.5321 11.1392 1.47406
-6.25563 -4.19175 0.692276
-6.74394 -8.44667 0.989588
-6.26822 -4.35261 0.703317
11.3367 8.74895 1.34311
10.9002 9.55569 1.3509
6.82711 16.2182 1.65513
11.3795 11.3133 1.49702
10.8157 11.6357 1.50261
-11.0435 2.82992 1.07607
6.23459 -6.03993 0.827057
8.12519 -6.73585 1.0132
11.0003 9.41989 1.40529
9.84538 12.9546 1.57503
10.0323 12.8748 1.60761
7.93188 12.6855 1.48591
8.21219 13.7285 1.59215
11.4732 8.23892 1.43893
7.40709 13.181 1.52578
9.33334 11.6967 1.52219
7.28788 14.1095 1.62525
6.14682 14.6064 1.62717
9.45058 10.7742 1.4808
9.3321 12.7137 1.63829
11.6338 7.82313 1.4619
9.49389 10.2674 1.45551
5.03171 -5.8879 0.830919
-6.77551 -4.60821 0.864306
5.84866 14.5719 1.66709
-6.98583 -4.45991 0.883815
9.18016 10.9999 1.53796
-6.67701 -6.68664 1.01115
5.98101 -5.90339 0.907226
9.90994 8.72518 1.42271
9.18097 9.58932 1.42745
9.50818 10.5994 1.54345
5.03659 14.598 1.66743
4.32572 -8.22632 1.00581
6.67057 11.16 1.43071
-6.73682 -3.88762 0.85599
6.5781 12.3344 1.55113
-6.82937 -3.82618 0.867062
9.90378 7.34854 1.3786
6.8932 11.7646 1.51863
9.99787 7.16837 1.38156
5.64054 12.0249 1.50216
5.65918 12.5841 1.55887
4.91121 12.7819 1.54998
10.0219 6.81165 1.38053
-6.82165 -4.51714 0.936979
7.50863 -6.31564 1.11784
-7.26361 -0.77827 0.837006
-6.20879 -5.3338 0.94282
5.30821 -5.63059 0.892382
9.06414 8.05826 1.41261
4.4928 -7.30431 0.992605
10.5918 5.24365 1.38357
9.14793 7.95826 1.42494
5.25967 -5.6754 0.913627
8.78592 8.0874 1.4166
9.1169 9.275 1.52129
-6.96597 -5.58548 1.05666
10.3065 4.82606 1.35544
-6.85282 -3.81512 0.944891
9.30354 6.25424 1.35923
5.41147 11.8623 1.58109
-6.8316 -3.03816 0.90819
-6.8155 -3.22221 0.911429
4.94103 -6.02572 0.950516
6.05201 -6.20908 1.05511
9.53368 5.71847 1.37387
8.62996 7.36779 1.40265
-6.88128 -4.26766 0.997413
-6.81234 -4.48921 1.00551
8.45012 8.78438 1.51199
5.22655 11.7548 1.59802
-6.47798 -5.55581 1.06228
3.78244 -7.72409 1.07073
8.68217 7.90583 1.46902
6.1502 -5.68414 1.04944
9.32959 6.16875 1.417
-6.07129 -5.35729 1.02188
8.70771 6.73639 1.40366
8.25358 7.6632 1.43244
-7.03823 -1.76715 0.927714
-6.95186 -2.28573 0.934232
-6.37785 -5.26295 1.05516
8.97741 5.75555 1.36673
8.33296 8.22114 1.50851
-7.19763 -1.24186 0.936059
-6.83103 -4.07901 1.02855
7.55982 6.32846 1.27664
8.23461 7.17721 1.41619
8.14454 8.30448 1.50711
-6.84918 -2.80118 0.963103
-6.84998 -2.93963 0.963438
4.70948 10.4299 1.50462
9.12717 4.17009 1.32043
-7.1819 -1.59156 0.966256
6.90903 -4.30236 1.08125
4.98818 -6.01572 1.03547
-7.26545 -1.10683 0.983197
-6.95242 -2.17995 0.974285
-6.98872 -2.24844 0.980448
-5.94127 -4.35885 0.984772
5.26076 -6.65608 1.13
6.98036 -4.21831 1.09755
8.23144 7.31059 1.49124
-7.08727 -1.70282 0.979475
-7.01971 -1.93832 0.979057
8.92869 4.92942 1.38488
8.47226 5.9721 1.40905
-6.85649 -3.58527 1.05418
8.99422 4.22128 1.36242
3.49126 10.9745 1.578
-7.24541 -1.18888 1.00455
-5.95601 -4.40147 1.01857
-5.93608 -4.49894 1.01972
7.22038 -3.97397 1.13233
8.21722 6.60269 1.45765
5.5038 9.3028 1.49714
-6.32301 -4.28136 1.04684
4.98761 -5.58692 1.03982
7.25793 -3.8684 1.14419
7.63839 -3.7247 1.17541
3.75934 10.4307 1.54502
3.5777 10.7667 1.5831
-7.30058 -1.07203 1.0296
-7.01069 -1.98593 1.01502
5.02438 -5.34286 1.02472
7.32007 -3.77539 1.15666
7.43822 -3.70971 1.17846
7.95572 -3.39197 1.22907
-7.09026 -1.85781 1.04198
-6.94433 -2.91903 1.0914
-5.95431 -4.33439 1.05924
7.98755 -2.81123 1.23852
8.35386 4.68881 1.40329
5.12548 8.7808 1.49064
8.49262 4.57338 1.42532
7.90933 -2.3643 1.21649
7.26208 5.78109 1.38988
3.07852 9.82879 1.5415
-7.0302 -2.00136 1.09512
7.55986 -3.14124 1.23372
8.34933 4.61436 1.44578
5.91022 7.60118 1.46231
5.41137 7.80709 1.44783
5.25068 8.13535 1.47117
5.20567 8.25087 1.47697
7.40723 -3.20149 1.23208
7.75789 -2.78427 1.25475
-6.69874 -1.66848 1.03939
7.91124 -2.27971 1.26214
7.34981 5.51236 1.41062
-7.03963 -1.93484 1.13253
-6.8579 -2.7609 1.14879
6.92348 5.61588 1.39827
-7.28674 -1.08551 1.15017
-7.07977 -1.80766 1.14396
-6.98361 -2.04903 1.13998
-7.05683 -1.8556 1.14465
-6.83305 -2.90784 1.16556
4.92141 7.63128 1.44463
3.48858 -6.10537 1.122
-7.2089 -1.28746 1.17261
3.56699 -5.7702 1.09207
3.60296 -5.67249 1.08098
7.18228 4.84142 1.41135
4.77126 7.55196 1.45439
-7.00791 -2.0054 1.18757
-7.02962 -1.9295 1.19579
7.0766 4.9038 1.42382
3.92663 8.15818 1.49996
6.10465 -3.3474 1.15935
6.73885 4.95064 1.39418
4.7697 7.33136 1.45953
3.8733 -5.35121 1.10961
7.21399 4.4923 1.43087
7.57152 2.89527 1.36975
6.42639 5.37234 1.41971
-7.21242 -1.24421 1.24585
6.85029 4.14175 1.3747
-6.39711 -2.74885 1.18778
5.55387 -3.65883 1.14204
5.7374 -3.54731 1.15771
2.84571 8.11202 1.48781
-7.30403 -1.02986 1.27826
5.37636 -3.81349 1.14856
-6.26089 -2.24173 1.15281
-6.22167 -2.39756 1.16717
4.31611 -4.70256 1.11565
4.52999 -4.51283 1.12113
4.62872 -4.48472 1.13016
-6.74338 -1.71786 1.2254
4.42519 6.63951 1.42398
-7.09523 -0.919941 1.27831
-6.09694 -2.24039 1.15666
6.72992 3.74234 1.38033
6.18902 4.42562 1.38013
3.64304 -5.37773 1.18055
5.24073 5.78821 1.42855
2.59214 7.4202 1.47814
6.56506 3.08991 1.37185
-1.68872 -5.72338 1.13019
6.47877 -1.39716 1.2572
6.34642 2.81043 1.33626
6.28659 2.40772 1.34303
-4.39855 3.89158 1.37856
4.37556 3.57584 1.352
4.25676 3.32817 1.33808
4.68804 -1.68585 1.25077
4.84348 -1.38793 1.26025
-2.10623 4.71488 1.28652
3.74219 -2.96484 1.22707
3.68577 -2.55815 1.19751
3.41832 -2.97169 1.22973
4.03754 2.59098 1.34106
-2.58397 -3.51974 1.2456
-2.31723 -3.5569 1.21146
3.78026 2.07193 1.31101
3.75601 1.99336 1.31018
-2.81496 3.45011 1.37091
-2.29159 -2.41397 1.18418
1.95558 -2.78114 1.21292
-2.10978 2.74713 1.31299
-2.01591 2.73578 1.31934
2.25058 -1.86944 1.22544
2.38048 -1.49833 1.22278
-2.00798 1.86816 1.28819
-2.06224 -1.44115 1.22594
1.44665 -2.06612 1.24362
-1.99073 -1.08658 1.21209
-1.92349 -0.706968 1.21754
-1.92519 -0.70274 1.24306
-1.95398 -0.344013 1.22608
-1.89152 -0.564148 1.22737
-1.89112 -0.530392 1.23242
8.34456 -8.82901 -7.5746
12.3829 -10.5038 -8.98259
-8.40124 14.9877 -6.66014
21.6088 26.3221 -12.2458
-8.69966 -2.49146 -2.54991
-32.4459 -21.674 -7.20842
-32.1175 -21.0039 -5.66232
-31.8393 -21.6374 -5.71681
-29.5785 -18.9698 -2.64177
9.49068 -9.03973 -0.400385
-7.11155 15.3294 -0.417143
-28.2452 -10.9299 0.698576
-6.80548 -8.13378 0.453411
17.8228 25.5931 1.69253
11.9051 16.7432 1.69843
-6.60951 -6.5831 0.872593
4.43321 12.8652 1.56899
8.95002 9.32282 1.51132
8.07768 -8.87647 -10.511
8.24073 -8.14855 -10.0359
8.95524 -8.65601 -10.6388
7.04499 -12.0788 -11.6485
6.9593 -11.4852 -11.0233
8.26238 -8.3736 -9.65665
7.10602 -12.1631 -11.4507
7.15835 -11.109 -10.5837
8.11229 -8.49039 -9.32589
6.81547 -11.424 -10.4137
6.52809 -11.838 -10.3339
7.86496 -8.97015 -9.0915
6.28322 -14.4785 -11.9395
8.42044 -8.82599 -9.23022
6.38052 -12.0514 -10.2947
6.22199 -12.2234 -10.224
7.60181 -9.58098 -9.12813
8.01985 -9.17895 -9.04624
10.661 -9.62244 -10.6772
6.18638 -14.2493 -11.4784
6.15847 -13.7796 -11.0939
6.20689 -12.7195 -10.4059
9.34567 -8.96672 -9.49768
9.43539 -9.21757 -9.6171
5.93782 -12.648 -10.1463
9.51239 -9.13285 -9.40782
6.96554 -11.2875 -9.40912
5.68341 -13.1119 -10.1108
9.86148 -9.23791 -9.57267
7.72023 -9.47704 -8.59091
10.1749 -9.34785 -9.70342
11.1158 -9.6635 -10.3316
11.6676 -9.88879 -10.2678
8.5122 -8.73645 -8.07279
7.54522 -9.43856 -7.98083
8.29718 -8.85459 -8.01761
7.74692 -9.49435 -8.0137
7.95933 -9.54553 -7.96244
8.4511 -8.66708 -7.73566
0.343955 15.8141 -10.0937
7.64684 -9.46849 -7.74189
11.1232 -9.79217 -9.41883
7.34957 -10.88 -8.30589
8.28308 -8.62852 -7.54029
4.65356 -15.5127 -10.1829
8.84412 -8.82826 -7.72903
8.04552 -9.17114 -7.52239
4.07687 -18.098 -11.425
8.32608 -8.76027 -7.38583
4.10231 -17.3323 -10.8666
0.131333 14.8156 -9.01595
6.7656 -11.4437 -8.08983
7.86254 -9.40832 -7.43656
10.3284 -9.49753 -8.51047
6.93306 -11.43 -8.02156
8.19206 -9.35183 -7.45976
11.5029 -9.89642 -9.06884
5.47459 -14.0287 -8.92758
7.85929 -9.41204 -7.2688
9.51447 -9.18929 -7.83509
7.01949 -11.2978 -7.86833
8.1129 -9.27329 -7.22685
9.93496 -9.3573 -7.95063
15.1888 7.59101 -9.86728
8.81918 -8.98397 -7.27157
7.04871 -11.1417 -7.57347
2.66939 -11.3151 -6.68341
7.98889 -9.21791 -6.98328
7.53945 -8.97467 -6.65181
9.78654 -9.31109 -7.67026
11.0045 -9.67951 -8.26457
0.116501 15.2646 -8.61113
3.27014 -20.4584 -11.6514
6.90989 -11.1514 -7.35108
10.3017 -9.4693 -7.83302
12.6334 -10.5991 -9.244
9.40608 -9.16709 -7.33644
4.68109 -14.4729 -8.47647
8.14435 -9.37577 -6.89436
15.1132 7.72792 -9.32455
9.88072 -9.27749 -7.44075
0.820813 17.4579 -9.5465
2.72725 -19.6634 -10.8255
11.3595 -9.84197 -8.15751
4.30589 -14.6449 -8.25858
15.023 7.85775 -9.13761
15.4696 10.6831 -10.1009
14.3376 7.91113 -8.75534
11.1785 -9.81637 -7.90797
13.5975 -11.0715 -9.32378
3.02861 -19.1593 -10.1979
11.6001 -10.0347 -7.80133
2.15962 -20.1804 -10.2446
10.4769 -9.53744 -7.12131
14.6358 -11.5742 -9.36486
14.1759 -11.4647 -9.12316
11.2499 -9.86623 -7.45175
7.64235 -9.50173 -6.0357
3.60349 -8.55772 -4.57399
-8.59717 -1.88761 -4.32708
2.20328 -19.8682 -9.8063
4.58007 -9.39066 -5.10782
0.390828 13.651 -6.68724
7.74197 -9.43115 -5.95137
-8.18965 15.6128 -8.53104
-9.08402 -2.40144 -4.52703
15.4206 -11.907 -9.35861
19.901 5.69452 -9.9032
-10.1667 -2.51711 -4.95359
1.90205 -20.3419 -9.71562
17.8148 16.7461 -11.5892
7.7352 -11.431 -6.50897
20.5881 5.55746 -10.0465
14.3873 -11.3889 -8.52955
2.96517 -17.4865 -8.244
19.8855 5.88403 -9.58445
18.4262 -13.4267 -10.5269
9.98561 -2.52235 -4.75942
20.8544 5.28612 -9.92988
17.9532 16.8874 -11.3668
1.79601 -19.9328 -9.16094
9.85394 -9.21274 -6.17468
-9.09526 -1.65089 -4.21528
9.56752 -3.51073 -4.64192
6.85403 -11.5492 -6.1047
10.0347 -2.65063 -4.70836
19.777 6.03095 -9.31247
18.4052 18.2613 -11.6653
9.47967 -3.12283 -4.49302
15.8959 -12.2308 -8.99675
7.18793 -11.8045 -6.17792
7.29024 -11.1242 -5.92502
9.67629 -3.44651 -4.57773
-9.64082 15.7889 -8.22906
18.2355 -13.3071 -10.0272
20.0742 5.78318 -9.2633
16.5057 7.48746 -8.03072
18.5282 18.72 -11.6583
16.9279 -12.5881 -9.29373
-10.7682 16.3654 -8.60261
-6.32977 14.447 -6.90831
-5.15749 4.8359 -3.07777
20.703 5.62154 -9.33036
9.67528 -3.44681 -4.43292
18.9636 19.2261 -11.6167
16.299 -12.5415 -8.84571
15.213 7.60735 -7.26386
3.89564 -9.4334 -4.33371
-10.7109 16.2806 -8.24266
7.08406 -11.1214 -5.55674
-13.3003 3.25937 -5.76767
0.739014 -21.8759 -9.22678
16.256 -12.3064 -8.52327
-5.07705 5.58854 -3.15593
0.987766 -21.7244 -9.11901
1.22991 -20.5437 -8.62259
14.4964 7.77592 -6.88525
19.3454 20.1661 -11.6862
3.83544 -9.07315 -4.10555
15.1248 7.91574 -7.11062
18.6666 19.9423 -11.3458
-9.39 -1.07771 -3.90108
4.05208 -8.59168 -3.89028
14.3622 7.93149 -6.73998
6.98472 -11.2084 -5.39597
-13.3487 2.49344 -5.55366
-7.65591 14.8188 -6.77072
20.1553 21.9071 -12.0709
15.4376 7.41852 -6.90542
-5.10249 13.9111 -5.93438
14.3406 -11.3368 -7.15694
4.01279 -9.25714 -3.95791
1.54061 19.5498 -7.62264
-8.39301 15.1474 -6.72226
19.5115 5.95072 -7.90744
-1.72597 12.9869 -5.07111
5.38744 -9.55285 -4.22694
-2.3375 13.1687 -5.13317
20.5759 23.8095 -12.0777
4.72738 -8.63383 -3.73624
19.9606 5.72659 -7.90552
0.850384 -25.2946 -9.62434
15.3458 -11.8247 -7.2876
20.5457 5.56657 -7.97041
9.55894 -3.48273 -3.80397
0.520652 -21.6458 -8.0751
3.31645 -11.0076 -4.29152
21.2421 24.7207 -12.1155
0.905947 -8.64982 -3.22644
14.4146 -11.4146 -6.77699
20.9753 5.33512 -7.96114
18.6313 18.4138 -9.58164
-12.787 2.24012 -4.7185
21.9946 26.2732 -12.4393
2.32251 -13.4252 -4.90584
13.3738 -10.8143 -6.18631
0.78835 15.5498 -5.5748
-8.10851 -2.76707 -3.06443
0.405069 -20.9881 -7.50894
-4.07005 13.3297 -4.95115
0.629371 -21.2177 -7.5472
16.3553 -12.3518 -7.26108
-14.9812 17.3155 -8.06276
6.03814 -11.5408 -4.57699
-10.5356 15.8925 -6.65298
0.0994459 -17.8727 -6.28703
14.6624 -11.619 -6.53868
20.9295 5.51234 -7.55782
0.645813 -22.2006 -7.67451
-4.81755 13.9627 -5.05408
3.6953 -8.57353 -3.21165
4.95672 -9.17768 -3.57223
-13.8146 17.1468 -7.53048
2.3003 -10.983 -3.84387
-8.49522 15.4015 -5.98881
3.10957 -14.0407 -4.89864
-14.2662 17.5054 -7.64914
20.7436 5.64016 -7.22874
23.4631 29.0325 -12.4887
38.4242 -21.6891 -14.7389
-5.09148 13.487 -4.78123
1.93958 21.194 -7.06873
1.27031 -10.2321 -3.40906
19.868 -14.4412 -8.15362
34.4792 -21.674 -13.387
-5.04482 13.8711 -4.78759
-12.0033 16.4279 -6.59395
19.259 -13.7235 -7.67608
3.60337 -8.77193 -3.039
6.3454 -10.3136 -3.87826
2.33211 -11.0713 -3.59939
-4.18172 -31.5033 -10.1101
-1.0644 -22.5176 -7.18228
15.4591 10.6478 -5.92926
-12.5897 16.7482 -6.61661
-17.0576 18.3954 -7.88014
3.07537 -9.91145 -3.27077
13.6149 -10.7354 -5.45342
7.13165 -11.3622 -4.14442
1.35514 -21.2257 -6.58242
-2.39068 -25.5734 -7.89168
7.56317 35.0222 -10.9471
0.763328 15.1331 -4.60592
-10.6067 15.9986 -5.77945
-2.49788 -24.6144 -7.45891
-13.6454 17.0575 -6.51203
-4.87792 -32.0663 -9.66554
0.807379 -23.7403 -7.10803
-5.1508 14.1487 -4.47236
2.11192 21.1694 -6.27476
-20.1403 18.7772 -8.11866
18.7044 5.95243 -5.78089
-4.12196 13.8175 -4.23372
-7.56651 14.6709 -4.83689
4.33887 -9.31772 -3.01872
4.74812 -11.8881 -3.73998
20.3632 -14.554 -7.37502
-12.3827 2.18139 -3.61286
-29.6874 -42.0563 -14.8197
-14.4458 17.3751 -6.49023
7.14491 -11.3774 -3.86473
2.6023 -9.67615 -2.84521
13.2729 -10.7426 -4.85732
-8.35428 -2.43135 -2.46713
22.3913 28.8861 -10.3665
-8.47907 -2.23477 -2.47774
-2.33978 -23.9554 -6.76329
-12.7779 1.95806 -3.59921
50.7368 -16.3193 -14.8258
4.50565 -11.6257 -3.45734
-8.86428 15.2385 -4.83419
-12.4192 16.56 -5.68016
-5.1424 13.7093 -3.99583
-7.61554 -37.0335 -10.3544
9.94885 -9.06741 -3.66175
-20.2901 18.9329 -7.45569
-9.26289 15.3547 -4.80017
-25.1637 19.3293 -8.43706
11.773 11.8511 -4.41319
4.44822 -11.6046 -3.2891
50.5762 -14.7025 -13.9501
-7.28008 -34.388 -9.24939
4.17945 -8.84574 -2.57382
11.4466 -10.1806 -4.00557
-13.7116 17.1656 -5.70766
6.68304 -10.6545 -3.25306
3.24518 -9.84144 -2.67666
-27.1831 -39.8146 -12.4544
-3.9426 -25.8963 -6.78655
3.62962 -10.6233 -2.89192
4.16005 -9.59509 -2.68568
16.116 -12.1179 -5.1424
-6.78732 14.4521 -4.03539
-28.6329 -38.187 -12.1082
4.43123 -11.4458 -3.10331
4.33811 -7.85428 -2.28185
6.70744 -10.9389 -3.1975
47.9708 -14.5037 -12.4923
-26.5428 20.0248 -8.21608
-10.951 16.0855 -4.79224
-25.1985 -36.7624 -10.9632
-8.82076 -34.7413 -8.85049
-23.0637 19.3707 -7.39743
4.4553 -10.5764 -2.8172
-11.4558 16.4056 -4.84679
-7.45927 14.5271 -3.93081
10.5063 -9.47618 -3.38626
42.8358 -14.2288 -10.7987
15.5028 7.75367 -4.13005
-5.63011 -32.2867 -7.81616
4.04734 -9.27062 -2.39498
50.4047 -13.4904 -12.3818
-26.1378 -39.0432 -11.1397
-10.6685 -39.3031 -9.65709
4.31441 -9.23044 -2.42814
-24.1315 -35.0122 -9.97367
4.00369 -11.478 -2.8611
5.014 -8.87907 -2.39698
-12.1248 16.5205 -4.76458
3.33927 -9.85745 -2.39055
-6.84178 -32.2946 -7.64696
11.2725 -9.87815 -3.42414
-5.62163 -28.5385 -6.64397
-25.5306 19.7177 -7.30874
-10.2699 -36.9809 -8.68365
44.1067 -9.6462 -10.2448
-28.5444 20.724 -7.90495
-33.3042 -21.8251 -8.92286
-4.99227 -23.7938 -5.42659
43.3024 -13.3861 -10.1745
5.58046 -9.69112 -2.49484
-12.1732 2.77768 -2.73918
43.1634 -12.6493 -9.93594
45.3664 -12.9443 -10.3774
30.2745 42.644 -11.4697
-5.08922 13.342 -3.11669
13.7829 -11.0909 -3.89225
40.309 -12.9539 -9.30596
-22.0316 19.2011 -6.3356
-24.3478 -60.0366 -14.0684
4.42371 -9.95384 -2.35975
4.65132 -9.40556 -2.26433
-13.8006 17.1924 -4.70416
-28.9065 20.9968 -7.62542
-29.693 21.0719 -7.77974
-22.9161 -60.8089 -13.9407
-10.1238 15.8164 -3.97753
-7.5472 -32.0583 -7.01087
3.28277 -9.96023 -2.23371
4.08347 -10.1168 -2.32355
48.9652 -11.3529 -10.7282
15.3302 7.67912 -3.63825
-14.3326 17.6417 -4.80848
5.28174 -9.26008 -2.23793
29.244 42.321 -10.7644
-37.1061 24.376 -9.30371
-25.9918 -25.4364 -7.5528
15.382 8.05059 -3.60785
-28.4535 -21.9748 -7.45892
-26.204 -67.1964 -14.9439
43.0074 -11.5741 -9.2094
-10.8386 15.9674 -3.91764
-14.7758 17.4685 -4.65419
-32.6773 21.9354 -7.99412
47.3897 -10.337 -9.89013
-11.6195 -37.3957 -7.9665
4.2515 -10.0037 -2.20915
4.38807 -9.99146 -2.22194
11.9003 -9.89241 -3.14717
-11.3545 16.2923 -3.96029
-16.9027 -48.52 -10.2772
-7.69117 -29.7735 -6.15851
-7.07029 -28.8976 -5.96933
-11.5394 -35.8564 -7.46393
4.1859 -10.201 -2.1808
-32.0938 -21.9454 -7.66509
-25.0999 19.699 -6.27679
-31.192 -22.3121 -7.47643
-6.4987 14.3539 -3.05362
-22.5254 -52.9336 -11.1815
-31.6293 -21.0566 -7.32282
3.53673 -9.63392 -1.97937
49.0483 -11.3643 -9.66673
-12.0541 16.4563 -3.89595
4.10078 -9.60442 -1.99081
-34.2731 -20.8185 -7.5913
-19.5787 -31.806 -7.10607
-13.6486 -39.3872 -7.89403
40.1591 -13.2476 -7.99247
-33.3307 22.3859 -7.51113
-31.7101 -21.8996 -7.24007
-30.7216 -22.4771 -7.14624
-18.4405 -45.6898 -9.27745
-14.8182 -40.2562 -7.96323
3.9136 -9.42855 -1.8838
45.3613 -12.2259 -8.7227
5.90446 -9.95947 -2.12018
-21.1227 -47.8993 -9.59054
-17.824 -44.2468 -8.63361
-13.7438 17.1313 -3.89122
-29.2443 -23.5862 -6.67891
-19.0756 -25.4195 -5.68486
-22.0483 -57.6161 -10.9557
-36.3684 22.9489 -7.58479
-25.0948 19.7041 -5.55087
-31.6875 21.6835 -6.66412
4.03137 -10.3597 -1.92535
4.8815 -8.80984 -1.74891
14.3551 7.70942 -2.81332
14.445 8.2895 -2.85552
-28.7716 20.9221 -6.09619
45.0234 -12.7383 -7.96469
44.75 -11.59 -7.86816
47.2196 -10.9597 -8.3014
-29.4021 -23.3508 -6.36985
-19.8201 18.8758 -4.59362
-17.7053 -44.012 -8.0211
15.243 7.64016 -2.8625
-29.5759 20.9377 -6.05076
6.7965 -11.3165 -2.21781
16.7191 -12.4502 -3.43479
-20.2483 -48.2804 -8.65633
41.331 -13.0328 -7.06194
46.5211 -12.5327 -7.82987
-9.76799 15.5057 -2.95411
-17.914 -44.4453 -7.64761
-32.7644 -22.6174 -6.27379
-21.4293 18.8273 -4.46458
-24.0092 -15.0517 -4.47524
-22.7022 19.3799 -4.62412
-37.0509 22.4331 -6.70972
-10.5889 15.8471 -2.9394
3.58729 -9.84263 -1.61809
4.00635 -10.5917 -1.75111
-7.14337 14.4863 -2.46332
-28.9624 21.0796 -5.47379
-29.8773 -23.0763 -5.74082
-26.2749 -24.5773 -5.45092
-19.0354 -44.2472 -7.3408
44.9766 -11.6927 -7.06279
47.9354 -10.4437 -7.47358
-6.13558 13.6627 -2.23721
9.98225 -5.23239 -1.67284
-31.4815 -22.7061 -5.78052
-22.0763 -55.8277 -8.90894
10.4365 -9.38355 -2.09063
48.1193 -11.1321 -7.33403
-34.3557 -22.8702 -6.07411
-29.5765 -24.3959 -5.60867
-11.1087 -36.8148 -5.66268
17.5199 -12.6755 -3.16611
-23.8114 19.6047 -4.48052
-37.4563 23.1012 -6.41862
-21.3205 -47.7743 -7.54247
-7.15142 14.3213 -2.28564
-11.9921 16.35 -2.88851
6.24971 -11.9389 -1.9235
-12.6334 16.8852 -2.95988
-32.2179 21.7641 -5.46447
6.97313 -11.3897 -1.86484
39.8726 -13.159 -5.90432
-29.2956 -23.4745 -5.23938
-30.6537 22.0294 -5.22761
-27.5476 -23.3153 -5.0241
-17.949 -43.263 -6.47276
48.2868 -10.8026 -6.82233
-14.9666 2.80146 -2.09575
-6.42061 14.1966 -2.12575
-19.1195 -49.9029 -7.26397
7.93338 -9.6005 -1.6704
9.40021 -9.254 -1.81866
-13.2027 16.8575 -2.88439
13.6072 -10.853 -2.35402
-20.8847 18.9972 -3.79471
44.9025 -11.6099 -6.15653
47.9661 -10.5068 -6.49881
-21.2671 18.7153 -3.70296
-30.7309 -22.9953 -5.01325
-14.0372 17.1889 -2.86756
-31.6565 21.1292 -4.93985
-36.2032 -15.2863 -5.07364
7.21825 -10.7347 -1.65839
9.01199 -9.26455 -1.69142
11.0418 9.04098 -1.83545
-31.809 -21.9206 -4.94345
-29.2705 21.3683 -4.58292
-33.478 -20.8905 -4.94587
-28.3224 -57.8858 -8.05081
44.7364 -11.5698 -5.78201
6.99333 -10.6685 -1.59263
-7.17244 14.3447 -1.983
-23.4496 19.6903 -3.74812
-31.0244 21.8652 -4.68061
6.53183 -12.5258 -1.71904
47.9065 -10.2211 -5.99948
15.4059 8.07157 -2.09372
-15.9046 -38.5224 -5.02775
7.29285 -10.8385 -1.57164
-19.7932 8.77223 -2.56223
-12.5269 -37.8973 -4.69609
-29.9581 -23.0971 -4.42299
-29.4598 -23.5602 -4.41404
44.8516 -12.0147 -5.45666
11.5213 -9.92191 -1.7608
-27.8534 21.1199 -4.0205
6.84815 -11.1576 -1.49739
7.66193 -9.43296 -1.38931
-21.1053 -50.7269 -6.18888
11.8885 -9.98016 -1.76228
9.58594 -4.67651 -1.20805
15.3799 7.90356 -1.95135
-9.73329 15.4949 -2.06315
-29.9174 21.861 -4.14997
41.3554 -13.614 -4.88161
9.57369 -9.23228 -1.47079
-10.4199 15.6275 -2.04015
7.07073 -13.3107 -1.63076
48.0783 -10.4494 -5.33347
11.0468 9.07825 -1.54384
17.3838 -12.9132 -2.32308
45.071 -11.6898 -4.98874
9.84292 -9.18772 -1.42594
8.55633 -8.64323 -1.27358
-29.0771 -23.2683 -3.87744
-25.7828 -51.7162 -6.02961
15.3747 7.71082 -1.75973
-29.9077 -23.0607 -3.87443
-12.1025 16.4983 -2.07627
-12.0442 16.1365 -2.00023
10.4508 -9.30466 -1.37026
-17.9037 -45.4705 -4.79251
6.57526 -12.5918 -1.37323
9.70543 -9.16304 -1.262
-49.8479 27.7662 -5.51026
17.2386 -12.6121 -2.05222
44.9632 -12.0825 -4.46237
-26.1219 -52.8033 -5.60092
-17.7438 -46.5669 -4.73415
-21.8861 19.1438 -2.7177
48.9015 -10.879 -4.67896
9.94363 -9.19717 -1.25338
42.3003 -13.954 -4.14989
-14.1308 17.3223 -2.0236
-28.3825 -12.9403 -2.84299
-27.4975 -53.6051 -5.5536
16.4052 -12.2792 -1.86325
8.82783 -8.92088 -1.13603
-34.1821 -19.3865 -3.44179
13.2718 -10.9553 -1.49792
48.4502 -11.2302 -4.26028
9.62156 -9.23897 -1.12086
11.2332 -9.89224 -1.25763
-31.7049 21.7737 -3.20039
17.4507 -12.7257 -1.78807
-14.8676 -38.6891 -3.3203
15.164 -11.8573 -1.5343
-35.3788 -69.1367 -6.16785
-10.6199 -29.7323 -2.49255
-27.7866 21.1281 -2.6994
-30.7455 21.7324 -2.90652
-19.683 -44.9622 -3.78919
7.78606 -9.52762 -0.981586
-46.5135 25.3152 -4.01006
-20.088 18.9063 -2.00658
-30.9374 21.8834 -2.7464
16.9696 -12.6798 -1.54893
45.0067 -12.0442 -3.39408
-32.5941 -61.6721 -5.0329
14.4153 -11.4056 -1.31494
-13.7535 -36.4851 -2.69116
11.0431 -9.86236 -1.01402
-21.9021 19.1777 -1.96622
13.2512 -10.9344 -1.14956
18.6496 -13.5264 -1.53518
-20.1357 -46.3932 -3.34206
16.6135 -12.5664 -1.37507
-12.9535 -35.9155 -2.46961
47.013 -12.2273 -3.03625
-26.9109 -54.5265 -3.70907
37.8534 -9.18351 -2.39063
46.0098 -10.5312 -2.89774
6.35507 -13.7373 -0.903406
32.9928 -21.8315 -2.3658
-9.22129 15.3939 -1.05446
-13.8113 -36.0292 -2.19646
17.2187 -12.8685 -1.20638
-9.41916 -12.2104 -0.844904
15.3737 7.88737 -0.936312
14.3369 -11.3493 -0.978754
-12.0306 16.3037 -1.05841
-14.6311 -36.2648 -2.07589
15.2665 8.02774 -0.847432
-14.4254 -36.8741 -1.94169
-13.313 16.8747 -1.02814
9.79086 -9.23546 -0.617154
-20.578 -47.2039 -2.32814
12.8064 -10.5281 -0.768312
-13.9491 -38.885 -1.83277
-15.2209 -37.5015 -1.73123
7.16071 -13.223 -0.666328
-12.155 -37.0542 -1.65987
-47.6876 25.9348 -2.19994
19.071 -13.7014 -0.952533
17.4267 -12.9534 -0.845237
-33.741 -65.4881 -2.77542
-15.8027 -41.4404 -1.63145
-31.25 21.4721 -1.38766
45.5371 -11.7334 -1.69341
-28.8181 -57.3241 -2.14305
-22.1582 -48.5602 -1.79435
21.5012 24.8679 -1.09586
-20.1301 18.8644 -0.89972
8.52357 -15.0441 -0.579951
9.64345 -9.20628 -0.432097
11.6054 -10.217 -0.50245
19.3386 -13.6741 -0.778007
36.9021 -13.9184 -1.30867
23.6464 28.6245 -1.19535
-26.2359 -13.1596 -0.919268
-21.4852 19.1332 -0.877698
-29.5182 20.9067 -1.12987
-21.2687 -48.8976 -1.64854
-12.2597 -34.6843 -1.13131
-18.3664 -46.8528 -1.52095
-14.4873 -39.2639 -1.19674
-32.1268 -19.4791 -0.999362
11.7531 -9.97082 -0.412809
16.9267 -12.59 -0.555864
-37.7802 23.3726 -1.17274
-28.1801 21.4429 -0.877192
-28.691 21.0275 -0.842098
9.79391 -9.21993 -0.311585
-38.7052 13.3778 -0.905904
-27.6402 -46.2852 -1.21083
22.2227 -14.8628 -0.587326
32.4269 -19.6631 -0.855283
14.5369 4.01744 -0.30897
-45.811 16.5163 -0.952117
31.7139 55.4228 -1.18196
24.519 -11.4151 -0.476351
50.7342 -11.6828 -0.968758
-28.9711 -20.8198 -0.649073
-27.6273 -27.1354 -0.612021
-16.6168 -40.7748 -0.730163
13.093 -10.7669 -0.278848
19.2763 -13.9292 -0.363231
-28.0094 -12.4494 -0.40157
-30.8604 -23.0951 -0.534548
-27.9474 -56.3395 -0.844328
-23.6558 -50.3477 -0.758118
-31.9367 -21.811 -0.503251
-28.1959 21.4517 -0.418524
17.6415 -13.1745 -0.261292
31.1079 -19.2886 -0.430273
-28.6616 21.0421 -0.397312
-35.6966 -19.9459 -0.458755
-16.8924 -38.7425 -0.44903
-10.7358 -32.3162 -0.340359
-28.8487 -50.8318 -0.534054
-13.4634 17.0786 -0.168143
-25.627 -12.9204 -0.230857
-14.1167 17.2087 -0.153473
-21.191 18.9258 -0.147684
-19.7414 18.5173 -0.124582
-10.2454 -13.1714 -0.0578484
15.1309 7.9487 -0.0222535
11.4038 -10.0279 -0.00807916
-32.6491 -17.8827 0.0582915
-10.1907 -30.2873 0.107042
17.5863 -12.7773 0.0943322
-16.6699 -38.2713 0.189416
19.5404 -13.7678 0.12698
7.46889 -12.8392 0.108306
27.157 -11.142 0.180339
-50.7342 18.1161 0.512317
16.8333 -12.4754 0.19998
39.649 -8.09508 0.381257
-27.9316 -7.87596 0.339989
-34.1477 -20.6108 0.441794
-10.2454 -29.355 0.336685
-49.2474 26.9908 0.684614
-11.4265 -31.6645 0.404289
-9.29864 -28.5832 0.363835
6.64036 -13.5735 0.192659
7.45536 -11.4857 0.17987
-26.3194 20.6603 0.510358
11.6192 -10.1477 0.231739
-22.6251 19.349 0.489454
11.1885 -9.99013 0.235222
13.3637 -11.0016 0.272553
38.4794 -8.23535 0.654094
-32.517 -21.7858 0.71405
-29.1174 20.8197 0.70081
6.44521 -13.4666 0.289309
7.25763 -11.4217 0.26045
8.22622 -9.65306 0.247422
33.2556 68.3845 1.64744
7.92309 -9.68103 0.282557
10.3776 -9.39957 0.337523
-27.6761 -8.87453 0.700744
-21.8916 19.1084 0.784057
-25.7859 20.3326 0.879137
-27.8037 -8.3484 0.765585
9.40347 -9.10248 0.353238
9.85158 -9.15642 0.366316
-23.9437 20.1805 0.848606
26.3398 -5.32871 0.747569
13.3732 -10.971 0.515001
15.9319 25.9548 0.937026
6.48787 -13.3845 0.46743
7.72321 -12.0395 0.448454
-27.3745 -7.72038 0.933757
-12.0589 -18.4637 0.728438
-27.07 -8.4606 0.981211
16.6618 11.4042 0.728188
-28.3793 -17.5856 1.1687
17.137 29.7696 1.22322
-29.0064 -15.822 1.22595
24.3513 -4.39732 0.893334
-26.4805 -18.8334 1.20599
-7.18016 -7.82887 0.401244
9.25917 -9.02916 0.480367
12.9134 14.1261 0.736353
31.1317 64.2251 2.69838
29.8762 63.6104 2.6418
-11.3174 -8.95821 0.569662
8.91821 -8.86276 0.496982
-24.0556 19.8165 1.26277
22.5221 -3.05242 0.920061
-27.4642 -16.6818 1.31806
9.63429 -9.13528 0.543966
12.9703 14.9381 0.849574
6.86142 -12.9942 0.623264
15.6926 20.3902 1.12929
22.5403 31.1346 1.68086
-9.21301 -13.3961 0.715861
-9.63498 -15.069 0.795494
7.83652 -11.2946 0.605146
8.8178 -8.90934 0.566032
25.041 -3.83617 1.14307
-28.6695 -8.35467 1.36371
6.97191 -11.4618 0.616626
-8.13596 -8.00675 0.537634
24.5402 49.5144 2.64085
-27.2376 -16.8339 1.5153
-9.48269 -13.3016 0.778761
9.8878 -9.17424 0.634855
18.3032 50.866 2.61428
-28.9437 -12.8201 1.51215
-6.6538 -8.11202 0.516715
16.3892 38.1142 2.11495
-28.5084 -11.1639 1.53748
-7.48616 -6.88381 0.514332
-6.60195 -7.4841 0.505211
17.6534 31.9795 1.89468
10.911 12.7586 0.906011
15.0174 20.4363 1.36005
9.56222 -9.13304 0.707993
15.6273 20.3334 1.4144
16.3603 25.2684 1.6558
-25.9028 18.2386 1.73386
-6.86132 -8.06356 0.587612
-24.8513 19.0687 1.73883
6.38657 -13.4846 0.833683
-6.97734 -8.99206 0.649694
10.3047 12.8714 0.968547
16.0628 27.064 1.837
6.76337 -13.5836 0.87219
14.7854 24.1222 1.66966
-8.12349 -7.98506 0.686792
11.8999 11.9822 1.00587
15.482 20.5914 1.54635
-7.24764 -9.8113 0.759427
7.24226 -11.5411 0.829551
11.5547 -9.96669 0.924544
6.06777 -11.1232 0.785338
-7.10123 -6.56379 0.604511
15.3245 21.7392 1.68148
16.5699 7.35518 1.17603
-6.95134 -6.07345 0.605881
6.7767 -14.0979 1.04112
10.0997 22.8138 1.68226
10.7746 12.9869 1.15257
14.2424 19.1512 1.66345
13.1592 21.8182 1.76194
11.7144 12.3746 1.195
6.77748 -10.1076 0.860999
11.8615 12.1355 1.22707
9.98084 -7.04546 0.868766
12.759 12.3518 1.30323
10.1381 -8.5616 0.971521
-6.0224 6.5271 0.66131
10.6904 9.41325 1.0691
12.5286 18.7326 1.69467
12.0875 19.258 1.71231
-6.84234 -7.58432 0.792558
11.4668 19.7919 1.75422
9.72909 -9.16 1.03205
10.8803 14.6054 1.42698
-6.35766 -4.26008 0.603481
9.73112 19.4965 1.74074
10.2633 -7.02312 0.995204
12.8415 11.9146 1.41515
10.33 20.0571 1.81609
-7.12656 -9.45289 0.965131
6.88046 -9.60725 0.960768
12.6265 12.079 1.43086
12.5337 12.3266 1.45891
11.7869 12.32 1.4107
-4.91848 -11.2265 1.03251
10.6754 13.3564 1.45412
-6.87781 -6.01013 0.786934
-6.73114 -6.61167 0.797282
-5.08027 -11.1431 1.04289
-7.19206 -7.63178 0.903577
9.45209 -7.38692 1.03586
-7.01121 -7.93403 0.927172
-6.91473 -7.57851 0.902746
9.71323 12.9654 1.43565
-6.84127 -8.23875 0.957385
11.0793 9.29629 1.31735
10.8496 13.9738 1.59775
10.7832 9.47047 1.31302
8.05384 14.6198 1.53499
-6.39857 -8.01122 0.940043
-6.78301 -8.86185 1.03084
11.5199 11.1106 1.47602
11.5287 9.40622 1.39162
11.1807 11.1135 1.47707
6.82851 15.7804 1.61582
-11.2389 2.87927 1.08691
-6.3047 -4.13379 0.706188
-6.7251 -6.2195 0.849714
9.78361 13.7979 1.63124
-5.90033 6.41117 0.856037
8.08465 -6.71231 1.02349
8.24438 13.7469 1.59204
-6.96612 -7.50714 1.03228
9.60222 12.0066 1.55024
7.27454 12.9167 1.50436
7.3515 13.5439 1.57097
9.76421 9.31287 1.39589
6.15693 14.6782 1.65014
9.45728 12.8627 1.66418
-6.05228 -4.41667 0.785286
6.24889 14.3594 1.6499
6.51262 14.266 1.64897
-6.90115 -4.38374 0.874429
8.97746 9.23418 1.37255
9.38551 10.4558 1.52766
7.56226 11.3552 1.48251
6.04385 11.9048 1.45168
-6.21265 -7.30869 1.04902
10.4595 6.57353 1.36628
9.18638 8.31452 1.36535
7.56464 12.092 1.57488
7.08865 12.0482 1.5455
5.57936 12.3902 1.51221
5.08738 12.6467 1.52564
4.96793 14.4488 1.68176
10.0599 7.19289 1.38035
8.97595 9.54143 1.46344
5.59458 11.9712 1.48837
-6.75379 -6.6374 1.05436
7.08363 11.0567 1.47916
4.55552 13.8988 1.65407
9.87917 -3.23726 1.1586
-6.04102 -5.35802 0.935016
7.39023 -6.20464 1.09474
10.5975 5.81465 1.38583
-7.31282 -0.976644 0.844822
-6.19272 -5.30082 0.938424
5.30404 -5.61582 0.889353
5.27781 12.1064 1.53468
-6.81406 -4.51353 0.947117
4.52825 -7.38333 1.00075
10.5813 5.23455 1.38478
9.07066 8.05072 1.42333
-5.94922 -4.32979 0.857472
-6.41828 -5.2186 0.977354
4.17695 -8.02873 1.07515
5.02342 -5.91699 0.93055
10.3282 4.82937 1.36625
8.70519 8.4531 1.46939
5.48523 11.9506 1.60566
9.20281 6.37533 1.3703
8.18894 8.52246 1.48032
-6.4183 -5.68353 1.06745
3.77829 -7.71878 1.0752
8.83314 6.81078 1.40222
-6.39991 -5.28833 1.05089
9.24514 6.11523 1.41478
8.33902 7.27642 1.41172
8.27571 7.65708 1.4393
5.83903 -5.4028 1.02072
-6.90271 -4.39902 1.05066
8.27381 8.16914 1.50789
-7.28984 -1.03281 0.950704
-6.86269 -2.80172 0.967749
9.10016 4.15801 1.30982
8.55332 6.74796 1.42989
5.0579 -6.09957 1.04085
4.97764 -6.26936 1.05928
6.9392 -4.32564 1.0879
-7.07086 -1.7032 0.974548
-6.94901 -2.20079 0.974132
-5.97232 -4.38342 0.990396
8.28148 6.77835 1.45056
8.73114 4.50215 1.33895
8.76322 5.246 1.39467
8.18165 7.27448 1.48993
-6.74621 -3.69939 1.04458
8.98465 4.21742 1.35817
8.39978 5.92863 1.40762
-6.33936 -4.28942 1.04735
-5.90471 -4.48503 1.01267
5.50693 9.28031 1.49085
3.78468 10.4717 1.54743
-7.3 -1.08291 1.02142
-6.83898 -3.88996 1.0918
5.00112 -5.60188 1.03716
5.28231 -5.45391 1.05315
7.53884 -3.57264 1.16615
3.52668 10.5783 1.56375
8.52171 4.66399 1.37386
7.44962 -3.71529 1.1804
7.66326 -3.36836 1.1929
7.84147 -3.33953 1.20884
9.04968 2.84953 1.36519
4.88554 -5.69555 1.0779
7.42237 -2.87964 1.15859
-6.89534 -3.2702 1.11217
7.99808 -2.80763 1.23537
8.75722 -1.83948 1.313
5.14206 8.80427 1.50548
3.06992 9.81502 1.53142
7.80461 -1.90556 1.18355
7.34472 5.84935 1.39879
3.58595 9.92165 1.56072
3.316 10.1962 1.59051
-7.30222 -1.03373 1.09292
-7.0124 -2.0053 1.08654
7.06677 6.39725 1.43907
-6.21511 -2.25426 0.991776
-7.17492 -1.3629 1.10192
8.0542 4.88746 1.43502
5.82936 7.51167 1.44285
5.41181 7.80339 1.44558
5.18025 8.20965 1.46803
6.81872 -3.25384 1.1421
7.31468 -3.15415 1.21937
7.71015 -2.78217 1.24857
-7.24911 -0.726182 1.11193
-7.03473 -1.93724 1.12575
6.84846 -3.11982 1.16332
3.79112 -5.84979 1.07713
-6.99119 -2.05777 1.14213
-7.27855 -1.08284 1.15488
7.46456 4.84175 1.40503
-7.1341 -1.43057 1.15712
-7.20559 -1.28928 1.17395
-7.03485 -2.00119 1.18896
7.16767 4.82922 1.41066
-7.03853 -1.92827 1.19839
7.10777 4.93327 1.437
6.70649 4.91917 1.38786
5.29827 6.35369 1.37838
4.77453 7.32805 1.4612
3.92575 8.14883 1.50441
-7.1838 -1.3611 1.22002
2.82466 -5.84279 1.09304
7.23669 4.48741 1.43431
6.60881 5.31501 1.43071
3.91149 -5.41732 1.12582
3.97082 -5.06422 1.08873
-7.2064 -1.24106 1.23991
-6.54345 -2.6034 1.19451
7.49816 2.8792 1.36202
7.11583 3.93876 1.38581
-6.36227 -2.73066 1.17765
6.85833 4.14937 1.37593
5.7268 -3.54699 1.15895
-7.32767 -1.02999 1.27906
-6.30701 -2.26253 1.15158
5.57826 -3.67612 1.15104
5.35957 -3.80272 1.15137
3.68243 7.33342 1.44439
-6.74249 -1.72061 1.22158
4.51534 -4.50247 1.1216
-7.0295 -0.906552 1.26197
4.76355 -4.49375 1.15831
4.41282 6.61959 1.42015
6.65919 3.51251 1.35948
6.70177 3.72491 1.37726
-6.3908 -1.48876 1.17968
3.64301 -5.37631 1.18061
5.15734 5.7011 1.40789
-6.10888 -2.16685 1.18752
3.44279 -5.20287 1.15951
3.46389 6.92443 1.44951
-1.67964 -5.72123 1.13328
6.50794 2.75878 1.34499
-2.12245 -5.67268 1.16489
6.37059 2.82333 1.34137
-2.76378 -5.33096 1.17706
-3.46016 5.25262 1.3598
4.51915 3.93583 1.36802
4.17097 -2.89235 1.18227
4.65181 -2.19712 1.24276
4.23828 3.32232 1.33428
3.7229 -2.94232 1.22859
4.04837 2.59402 1.34358
-1.43712 -4.10053 1.21663
-2.31267 -3.56657 1.20779
3.8867 2.38091 1.32086
-2.83225 3.48873 1.34458
-2.47399 -2.90845 1.18562
-2.3722 -2.93014 1.19077
1.84245 -2.81073 1.18157
1.86548 -2.78902 1.21161
1.99133 -2.52537 1.1979
-2.02938 2.78502 1.30776
2.80734 -0.556271 1.261
2.7869 -0.33717 1.24285
-2.08772 -1.61762 1.21075
-2.07565 -1.44997 1.2358
-1.86128 -1.79449 1.28139
-1.99382 -1.13066 1.20243
-1.98535 -1.06964 1.2292
-1.94533 -0.879821 1.22941
-1.92972 -0.707986 1.21963
-1.92855 -0.701066 1.24678
-1.90492 -0.469434 1.21951
-1.87039 -0.345566 1.21667
-1.85536 -0.401006 1.22347
2.36709 -19.5065 -9.91601
-7.45998 -8.80744 0.456898
8.12359 -8.91227 -10.5995
8.36543 -8.73222 -10.6272
8.3173 -8.39014 -10.0037
7.047 -12.101 -11.5449
8.63752 -9.09832 -9.87489
7.95391 -9.05173 -9.25075
5.91824 -12.9339 -10.8408
9.5737 -8.96897 -9.89163
6.21834 -14.2403 -11.6936
8.4047 -8.79929 -9.14559
8.13199 -9.29625 -9.23288
7.392 -9.36884 -8.88784
5.98341 -14.3109 -11.3132
7.83002 -9.43718 -8.84505
7.96706 -9.24285 -8.78691
7.22543 -10.718 -9.19941
6.91583 -11.2213 -9.34059
10.2322 -9.35441 -9.73336
6.63231 -11.3265 -8.98178
8.14829 -8.74897 -7.9586
7.46969 -9.41506 -7.98347
8.64317 -8.80844 -8.20007
7.8418 -9.61868 -8.14966
6.58488 -12.9559 -9.48591
8.05452 -9.31814 -8.03007
5.04114 -16.1345 -10.8695
-0.483282 13.8573 -8.8667
7.84398 -9.38042 -7.83804
7.45477 -11.0353 -8.47545
8.50719 -8.69627 -7.74774
11.0857 -9.80472 -9.38375
9.13007 -8.95442 -8.01764
12.0201 -10.2484 -9.89571
8.20057 -8.66912 -7.33882
4.05787 -16.8719 -10.6339
4.28371 -15.4729 -9.85541
0.096286 14.1908 -8.62191
7.97134 -9.50731 -7.4322
3.97209 -15.6718 -9.63917
11.7238 -10.0352 -9.2392
6.97711 -11.2531 -7.85827
7.8814 -8.94053 -7.05788
5.56209 -14.1705 -8.99064
6.58991 -12.8945 -8.47076
8.49151 -8.72537 -7.09279
9.86353 -9.24405 -7.87944
2.82365 -11.9117 -7.01419
5.58357 -14.1489 -8.60757
9.77352 -9.27337 -7.61321
6.72432 -11.2419 -7.37238
3.32778 -20.4976 -11.6391
9.02888 -9.08814 -7.17878
12.4662 -10.4572 -9.11217
6.93362 -11.1772 -7.32417
4.74988 -14.7978 -8.58542
6.32759 -12.8262 -7.86379
0.884509 18.6518 -10.1683
14.9501 7.90122 -9.19236
4.26369 -14.4222 -8.11899
15.1261 -11.9679 -10.3931
15.3182 7.61316 -9.11615
14.3229 7.89289 -8.69409
4.82378 -15.0064 -8.3723
12.3472 -10.3702 -8.48226
1.8049 -20.2566 -10.4639
11.6599 -10.061 -7.88699
2.07293 -20.0212 -10.2148
14.3343 -11.3767 -9.25271
-0.00793353 14.2269 -7.14212
-7.03637 14.6108 -8.12058
10.8114 -9.79588 -7.32789
7.65021 -9.59326 -6.11034
18.1002 5.63321 -9.2505
-8.18299 15.4993 -8.4642
11.9074 -9.9994 -7.52305
10.7091 -9.77941 -6.96119
15.1905 -11.6447 -9.22845
17.2685 16.3631 -11.3098
7.64049 -11.2889 -6.49098
15.3655 7.59299 -8.04592
14.2781 -11.3044 -8.50843
-11.4173 16.3418 -9.12708
16.297 -12.3469 -9.33716
9.8996 -2.48222 -4.68868
-8.99415 -1.63512 -4.15675
19.4954 18.8167 -12.2343
3.97187 -9.22928 -4.55779
-9.77649 15.961 -8.39912
-5.26834 4.38 -3.07895
7.00499 -11.5279 -6.06905
9.6046 -9.25541 -5.8806
16.4132 7.48822 -7.96301
-6.37446 14.4619 -6.89689
1.50516 -18.6732 -8.10224
-10.6694 16.2258 -8.35491
9.70534 -3.41388 -4.40682
-9.24988 -1.72707 -4.03959
7.16705 -11.2769 -5.64513
16.2749 -12.3009 -8.53651
14.9938 7.92706 -7.11796
19.5602 20.356 -11.8071
1.00877 -22.0911 -9.20939
-4.39524 13.4186 -5.81356
-9.79554 -1.09564 -4.08454
14.4149 7.96052 -6.72748
21.4983 23.3905 -12.9594
-12.8049 2.39961 -5.30592
15.4767 7.35405 -6.93373
-5.02978 13.7634 -5.8884
3.69761 -8.94658 -3.85071
12.6778 -10.505 -6.44762
14.3232 -11.3086 -7.12909
20.2014 22.6162 -11.7722
19.3169 5.95702 -7.84155
1.54614 19.5176 -7.59602
-8.34038 15.0193 -6.61748
11.6565 -10.2762 -5.97483
20.1858 23.4095 -11.9161
0.673352 15.4536 -5.92648
-1.63494 12.4697 -4.83595
2.73295 -12.3043 -4.83471
-8.66342 -1.23735 -3.3261
0.69178 -22.8606 -8.6343
15.6376 -11.9831 -7.42702
9.61338 -3.50787 -3.86043
-13.8711 17.095 -8.20005
-7.80233 -3.46598 -3.13142
1.09197 -10.3739 -3.83739
7.18489 -11.4829 -4.95052
14.5356 8.11702 -6.0143
-8.19764 -2.81456 -3.1167
0.781985 15.3853 -5.496
-3.79676 12.8163 -4.72404
5.86137 -11.2191 -4.45161
16.324 -12.3359 -7.24409
19.6103 6.05696 -7.22369
2.17406 21.3595 -7.53739
22.9762 27.7821 -12.5396
-9.22446 -1.33641 -3.18435
-14.093 17.3927 -7.67907
3.02659 -13.5594 -4.77902
-8.45164 15.2601 -5.95629
19.1441 -13.5589 -8.03738
-4.82671 13.8482 -4.98213
1.32896 -21.5388 -7.15449
1.77751 19.979 -6.63113
1.45127 -10.3064 -3.43972
41.8296 -21.3818 -15.412
-3.18061 -23.4972 -7.65259
6.28949 -10.2401 -3.8445
18.1649 -12.8257 -7.11941
2.14461 21.0812 -6.74896
-12.6482 16.8819 -6.64665
1.40522 -21.8165 -6.81589
-4.11486 14.0595 -4.54797
-10.3781 15.7208 -5.70484
-2.53146 -25.8521 -7.89996
3.11985 -9.63276 -3.07507
0.768691 -23.121 -6.96199
19.8565 -14.094 -7.22255
18.0563 5.71253 -5.55969
-7.48778 14.4886 -4.74366
4.32036 -10.7141 -3.35494
3.70681 -10.8113 -3.25012
4.34814 -11.2139 -3.37341
-12.5718 16.8012 -5.83335
-8.78615 15.0157 -4.7289
-12.9798 1.94569 -3.5982
-15.9357 18.3067 -6.5868
27.6394 -18.1947 -8.9628
-3.5394 -25.2737 -6.85386
3.85773 -9.32162 -2.69722
-9.27373 15.4118 -4.78393
50.7005 -14.8033 -14.0035
10.7742 -9.60915 -3.82001
-6.08911 14.0903 -4.00551
-13.6136 17.066 -5.72531
-7.144 -33.8329 -9.01625
5.06876 -9.7824 -2.84969
6.7099 -10.7361 -3.26411
-6.7961 14.4179 -4.04743
-9.98243 15.5447 -4.71682
-8.75832 -34.7258 -8.91541
-7.93716 -34.2824 -8.60269
11.2067 -9.8789 -3.67204
-7.52634 14.6021 -3.97983
-11.0702 16.088 -4.72408
14.9806 7.91358 -4.02444
4.13084 -9.44107 -2.43715
15.5958 7.72441 -4.10463
3.82716 -9.0964 -2.31799
-5.90046 -29.4268 -6.95687
5.75348 -10.1055 -2.69335
47.7741 -11.5613 -11.4233
-12.0851 16.4597 -4.69732
15.2436 7.80717 -3.87783
46.6561 -10.0932 -10.8129
-9.23438 15.3789 -4.01188
-29.8341 -73.3144 -17.205
3.8125 -9.49438 -2.22374
45.766 -11.7409 -10.3112
15.5116 7.69564 -3.71099
-10.0289 15.6528 -3.97887
-20.1747 -31.7178 -8.07908
-16.36 -51.13 -11.5742
4.94202 -9.99383 -2.40326
9.64643 -9.11963 -2.79816
48.1133 -11.2657 -10.5717
-13.9229 17.2488 -4.66107
-30.3036 -22.3668 -7.98415
44.4201 -14.8625 -9.90779
15.2345 8.05059 -3.59659
-32.8438 22.2105 -8.10488
-7.43236 -30.4098 -6.34661
4.08087 -11.8741 -2.52125
47.5584 -10.2613 -9.89509
12.0808 -10 -3.14394
45.7985 -11.7902 -9.42309
-25.2882 19.0828 -6.28608
6.3079 -10.5569 -2.44656
49.1398 -11.4914 -9.85575
-12.0465 16.4355 -3.93548
-25.1304 19.694 -6.20198
16.5932 12.5521 -3.9808
-6.45427 14.2033 -2.99146
-31.1189 -22.5085 -7.35175
-29.71 -23.265 -7.25259
-33.0629 22.0316 -7.47938
-31.6628 -20.8868 -7.16848
18.51 5.81953 -3.62396
-32.2091 -19.4339 -7.02548
-13.2098 -38.0895 -7.5165
3.88439 -10.1145 -2.03788
-20.7258 -51.6041 -10.3496
-14.7354 -39.7021 -7.75169
4.08366 -9.89499 -1.92899
13.4222 -10.4879 -3.07086
48.5325 -10.8 -8.93034
-13.8663 17.1973 -3.945
-25.2549 19.8075 -5.6646
15.4847 8.19725 -3.05447
-28.4114 -24.7586 -6.56918
45.6538 -11.6943 -8.09066
-7.45694 14.3626 -2.73859
-9.09575 16.7487 -3.21663
47.7285 -11.2356 -8.29089
-28.6512 20.8692 -5.96569
-28.5403 -21.9574 -6.01895
-19.5393 18.6827 -4.49579
-30.0907 21.2507 -6.14371
16.446 -12.2706 -3.36127
-9.72534 15.4388 -2.90061
-39.8539 23.4513 -7.33445
-29.782 -22.3733 -5.96358
-31.4995 -21.7273 -6.02706
3.53959 -9.78647 -1.62569
-22.3043 19.0532 -4.52872
-13.389 -15.0236 -3.11048
17.5053 -12.3754 -3.31956
-10.5176 15.7402 -2.87403
49.3217 -11.5594 -7.68848
-19.7727 -45.8237 -7.5453
-27.5064 20.6292 -5.13945
-35.506 22.1388 -6.20907
-29.764 -23.1039 -5.62145
47.6999 -10.222 -7.26349
-31.6939 -22.9213 -5.71517
-45.4853 25.3965 -7.48885
-33.3718 -22.2593 -5.7741
7.00455 -13.4407 -2.19853
-34.1109 -19.8254 -5.58353
-6.46649 14.2551 -2.17113
-12.3342 16.65 -2.88128
-29.91 21.5339 -5.15006
-25.751 -22.0834 -4.67782
-21.2343 -47.2915 -7.15168
-13.972 -40.8483 -5.94135
38.8643 -12.9248 -5.61637
-21.7459 19.1094 -3.85068
-30.3635 -22.7387 -4.95239
-28.8086 -23.6336 -4.92655
-31.8964 -21.9671 -4.96075
7.62277 -9.65491 -1.58979
45.7288 -11.7058 -6.05654
-31.159 21.2032 -4.79055
-28.3958 -15.1522 -4.10247
6.15467 -7.9707 -1.28578
47.9128 -11.2617 -6.2397
-28.941 21.2702 -4.48068
14.9651 -11.6592 -2.32984
-15.0638 17.2326 -2.73604
-27.9613 21.06 -4.23351
-30.318 21.4322 -4.46922
-9.7254 15.4678 -2.10944
-29.7394 -21.3889 -4.30955
-19.7933 -47.6515 -6.00501
13.365 -10.8095 -2.01148
37.869 -12.5138 -4.61442
6.53 -10.6486 -1.43465
11.4817 -9.94967 -1.71117
17.027 -12.6774 -2.39123
-10.41 15.6093 -2.0761
7.02757 -13.0931 -1.62675
11.9053 -9.94227 -1.71716
45.5529 -11.6814 -5.16278
-36.074 22.4928 -4.56181
47.9895 -11.2141 -5.30615
15.4003 -11.8257 -2.06499
-12.1859 16.4634 -2.10277
15.1616 8.0251 -1.71665
14.4398 -11.3913 -1.83658
-13.1782 16.8544 -2.0742
6.6615 -12.7656 -1.38467
9.61884 -9.12389 -1.28101
17.6337 -12.894 -2.13119
-27.6332 -13.2045 -2.88472
-14.0884 17.2523 -2.07556
-30.8819 -60.1647 -6.29554
-32.0633 -20.0633 -3.34845
16.7019 -12.5154 -1.87743
40.9167 -13.6146 -3.85906
11.4051 -10.1383 -1.26065
46.0272 -11.7642 -3.9622
-14.3392 -37.3159 -3.21158
-32.8317 -64.1987 -5.61643
18.2871 -13.326 -1.78635
-28.1286 21.2889 -2.69808
7.62692 -9.39535 -0.936265
-30.5573 21.6309 -2.781
-14.7567 -36.5062 -2.94304
-21.0976 -48.2605 -3.80658
-30.9516 -58.244 -4.68978
-29.7153 -59.5156 -4.55606
12.9344 -10.7643 -1.13231
17.6911 -12.8853 -1.47899
-36.4629 22.6997 -2.80841
46.3277 -11.8613 -3.13915
-27.4583 -12.9115 -1.81654
-33.2132 -64.1679 -4.37402
14.9747 -11.6743 -1.14373
33.2221 -21.8854 -2.17285
33.1224 -20.8758 -2.139
15.7569 7.78214 -0.913774
15.1785 8.04871 -0.885331
-12.1003 16.513 -1.03888
-21.3312 -47.0724 -2.65387
-12.0822 -32.8866 -1.73599
-25.9737 -15.0009 -1.4228
-34.6876 -65.375 -3.61151
9.88556 -9.31043 -0.679075
13.8544 -11.0178 -0.869186
16.4714 10.4786 -0.924575
16.8243 11.7924 -0.959069
7.12257 -13.064 -0.706834
-19.494 -5.75198 -0.87253
-26.2412 -46.7654 -2.36399
10.6533 -14.383 -0.730931
18.7556 -13.5257 -0.944689
45.4435 -11.6083 -1.86672
-9.1415 -12.0908 -0.584438
47.1523 -11.0417 -1.90461
23.8326 28.6526 -1.27595
-30.5307 20.871 -1.28252
-34.4389 -19.3119 -1.2841
-16.041 -39.9793 -1.38221
17.0728 -12.7373 -0.694773
18.5182 -13.0325 -0.709827
14.698 3.98122 -0.450457
-22.0252 -50.6118 -1.65234
-21.4415 19.1004 -0.821135
-10.9667 -33.2547 -0.939962
45.8566 -9.74157 -1.31141
-38.7249 24.0876 -1.2339
-50.1416 18.0304 -1.27717
-21.4748 -35.8125 -0.908901
46.6703 -10.8376 -1.03099
-28.8934 21.8366 -0.724952
-29.0749 9.24811 -0.638503
37.0134 64.8073 -1.38077
-28.2906 20.8798 -0.674496
13.3548 -10.9428 -0.299135
-32.7204 -20.3627 -0.595902
-26.1285 -52.5473 -0.869571
18.1426 -13.0841 -0.324896
-11.1927 -33.8394 -0.457614
-13.4271 17.0454 -0.222253
-17.7095 -40.7007 -0.47932
32.141 -20.1313 -0.34167
-21.4373 19.1272 -0.196203
-9.65555 -12.3925 -0.0468469
7.27609 -12.1376 -0.0244803
14.9963 7.84237 -0.00100354
-33.6341 -20.7689 0.212438
-21.6335 -36.9747 0.319143
-48.7366 26.6986 0.566438
6.94692 -12.3261 0.146401
8.19416 -9.31684 0.123815
-38.6843 -20.5666 0.483524
-10.417 -29.5014 0.351899
11.3875 -9.92677 0.197869
-21.8328 18.6554 0.376483
-11.8724 -18.4211 0.3201
-29.2282 20.799 0.637441
-33.251 -22.2921 0.718563
-32.7063 -24.1617 0.711834
10.9019 -9.79722 0.23897
7.98618 -9.84433 0.272147
8.08342 -9.43493 0.267825
-64.182 22.2252 1.58647
18.8047 -13.6506 0.565629
-27.6781 -8.31519 0.774201
-26.2703 20.6015 0.959896
11.8925 -10.1891 0.426884
17.7456 -7.69231 0.550322
-23.5284 19.9553 0.916803
-7.76614 -9.10704 0.381448
13.1769 14.3265 0.690673
-26.5428 -18.8835 1.1267
6.4242 -13.2368 0.517051
9.1066 -8.96119 0.436261
25.3838 -4.49818 0.861529
19.3991 18.5259 0.966703
14.8435 25.6961 1.1139
-85.8505 30.6385 3.34598
