ply
format ascii 1.0 
element vertex 1878
comment /media/mkaihara/Seagate Backup Plus Drive/model_iterations/model_5.ply
property float32 x 
property float32 y 
property float32 z 
end_header 
10.4815 -9.70519 0.234945
42.5874 -9.12329 0.708181
-21.5565 18.4864 0.503675
-28.9712 -19.4912 0.614507
-29.726 -21.8087 0.660676
14.028 -11.5239 0.297162
14.3692 -11.5897 0.345522
-9.08078 -11.5138 0.28327
7.71361 -12.6426 0.28902
8.69886 -10.2237 0.263773
35.105 72.2767 1.57217
-23.8035 -15.2831 0.607785
7.83855 -12.3217 0.293776
9.87635 -9.34485 0.288328
12.4727 -10.7205 0.359886
18.4654 -8.24709 0.404933
-81.1832 34.9431 1.91105
8.0725 -12.2485 0.332046
-8.6402 -11.1527 0.363336
-11.246 -17.2642 0.502401
8.33871 -10.1526 0.298995
8.53391 -10.2059 0.308548
-23.0151 19.3443 0.775607
-26.4131 -8.47005 0.704037
10.3639 -9.64307 0.363501
19.2611 -14.0705 0.600692
20.2351 -14.5703 0.619482
-20.7979 18.2096 0.714946
-24.7867 19.59 0.819662
-26.4442 -7.93642 0.73056
-29.3814 -15.6655 0.916458
-11.7345 -17.7205 0.57549
16.1111 -12.5181 0.543711
24.3439 -3.54138 0.687145
-24.5669 -17.473 0.868834
-10.7589 -16.7772 0.586679
26.9766 -5.10967 0.794038
18.2962 28.3982 0.996301
-24.7739 -18.2501 0.923262
8.13251 -12.7396 0.453495
7.7891 -11.962 0.434317
16.3924 26.7072 0.946996
-7.12336 -8.23107 0.33756
14.1547 -11.5821 0.5577
-58.4124 25.7862 1.91832
-6.80161 -8.84042 0.346654
-26.1632 -7.38439 0.912243
-10.5805 -15.466 0.637056
8.57274 -10.1829 0.439732
16.9612 11.5891 0.726353
11.7149 -10.2007 0.563284
12.8725 -10.876 0.613038
30.0788 60.5746 2.51024
-54.7671 19.9963 2.16994
-6.98855 -7.62941 0.391242
10.3943 -9.6489 0.528446
32.9773 96.8882 3.86479
24.419 -3.42776 0.941308
36.8717 76.2466 3.24255
-47.0817 18.8155 1.9704
-6.89618 -9.15304 0.453789
11.2669 -10.2759 0.597146
13.8124 -11.4076 0.722646
22.9731 -2.81476 0.938324
14.8949 20.2299 1.05769
-26.0357 -15.7953 1.25721
-11.0543 -17.5541 0.888583
9.41402 -9.37172 0.547856
-6.46748 -7.90746 0.443941
10.1663 -9.617 0.583888
13.39 15.3719 0.890436
-26.4416 -7.75988 1.21896
15.9462 20.7707 1.16458
16.955 29.1956 1.489
27.305 53.7054 2.63851
7.44797 -16.5951 0.809117
11.7045 -10.2683 0.702879
19.492 -1.72925 0.890226
23.6606 45.0574 2.36493
16.8972 29.7763 1.58983
-10.8434 2.69009 0.537835
-6.71825 -8.85496 0.541657
9.88843 -9.69199 0.654465
12.2181 -9.37369 0.719609
21.3256 -2.44317 1.02883
12.1284 12.3616 0.851511
20.3518 48.9514 2.58424
8.38641 -9.93575 0.626489
8.46742 -10.3201 0.65575
10.9849 -10.0046 0.734355
16.286 27.6201 1.59114
24.6615 47.8346 2.7089
22.3438 -2.78281 1.13962
-6.93293 -7.96486 0.552945
10.1127 -9.62841 0.725591
18.6112 27.2946 1.72069
19.1328 34.6894 2.0505
14.1338 -11.6498 0.97163
11.0104 12.8724 0.897557
15.3723 20.8685 1.38039
11.9583 -10.369 0.854266
16.2562 21.182 1.46032
-23.7235 18.186 1.62818
-6.53001 -7.6608 0.561872
10.6918 12.9274 0.931174
-6.75255 -8.71707 0.623318
10.4272 12.9901 0.957834
-25.0419 17.6307 1.73421
7.21282 -15.2326 0.962244
11.6589 12.6048 0.978456
-6.51341 -6.4279 0.534935
11.7601 12.5411 1.00394
-6.36558 -7.86562 0.610861
7.30791 -14.6899 0.9561
15.8569 21.0992 1.57509
15.6433 25.5786 1.77536
15.864 36.6691 2.38157
-6.01225 6.40385 0.536406
-7.7035 -7.29925 0.64684
-6.67539 -7.65771 0.629047
6.75654 -14.6933 0.974816
-7.08447 -6.52224 0.603471
7.87898 -12.5535 0.914352
7.78734 -11.7691 0.878758
12.2573 -10.5803 0.99819
13.1346 -10.9875 1.05933
16.9297 7.49864 1.172
16.0946 20.8513 1.65462
-6.87451 -5.99068 0.595521
11.0798 -10.1193 0.966501
-7.01417 -5.9502 0.607446
11.9917 12.6541 1.17948
10.6134 23.8929 1.76931
-6.75239 -8.96336 0.756009
12.169 13.1995 1.22297
-6.67711 -4.27838 0.54849
-6.32638 -7.68359 0.684095
-6.43364 -4.25714 0.535087
9.99021 -9.55111 0.960125
10.6679 -8.36946 0.952904
13.5062 17.0241 1.56126
-6.32889 -6.32244 0.625863
10.5073 -8.87267 1.00336
12.2589 18.3311 1.64791
12.2471 19.5274 1.71159
10.3692 19.7365 1.67152
9.85111 21.2906 1.75453
8.30927 24.7663 1.95407
11.6241 20.0655 1.75646
10.6671 -8.09296 1.02135
-6.63742 -6.78922 0.73244
-16.2031 -5.87655 1.35339
10.1021 -8.18948 1.017
10.1149 20.2038 1.77366
-6.13234 -4.09412 0.587561
-6.40212 -7.70535 0.799826
5.1507 -6.10779 0.63267
9.84823 21.6698 1.87804
8.49024 20.7602 1.79434
5.35267 -6.16895 0.65548
13.348 12.0456 1.44848
12.2998 12.3556 1.41931
7.39792 -10.3202 1.02935
12.7736 12.2186 1.44468
7.40457 21.7385 1.87115
-6.10641 -4.21496 0.607801
-6.65712 -8.8109 0.912995
12.0556 12.6312 1.43641
10.8233 9.46883 1.21744
-4.52754 -10.3319 0.961479
5.70981 -6.12917 0.74202
6.49903 -6.41403 0.794384
9.79591 -7.63098 1.06533
-6.44464 -6.34793 0.77322
10.889 12.9053 1.46601
9.36482 -7.80289 1.05697
11.294 12.7327 1.48143
-6.8881 -7.31693 0.886512
8.72778 -7.76956 1.03481
10.6634 13.0345 1.50599
-6.66182 -7.29357 0.881367
-6.50175 -7.81608 0.918449
11.0681 12.8666 1.53314
11.0263 14.224 1.62222
-6.67333 -7.80926 0.941762
11.6623 11.2658 1.48372
-6.07057 -4.0672 0.675082
-6.41561 -8.03553 0.947032
-6.0789 -4.22066 0.685445
11.4459 8.83399 1.34977
10.9991 9.64317 1.35674
6.93138 16.4656 1.673
11.4862 11.4212 1.50409
10.9291 11.7585 1.51138
-10.8914 2.7915 1.06233
6.52543 -6.32141 0.863303
8.48818 -7.0364 1.05612
11.1042 9.5096 1.41215
9.9524 13.0959 1.58497
10.1366 13.0095 1.61713
7.98825 12.7761 1.48973
8.28822 13.8562 1.59983
11.59 8.32346 1.44737
7.46113 13.2774 1.53012
9.40988 11.7932 1.52792
7.35486 14.2394 1.63319
6.20639 14.7477 1.63603
9.52193 10.856 1.48545
9.43067 12.848 1.64854
11.7589 7.90779 1.47148
9.5582 10.3377 1.45897
5.29912 -6.20054 0.872253
-6.5697 -4.46783 0.841809
5.89617 14.6906 1.67382
-6.77958 -4.32778 0.861439
9.24943 11.0832 1.543
-6.41274 -6.42209 0.97606
6.25996 -6.17833 0.946898
9.97903 8.78672 1.42655
9.22996 9.64143 1.4289
9.5786 10.6785 1.54836
5.08185 14.7283 1.6757
4.71564 -8.96614 1.09244
6.69205 11.1958 1.42912
-6.55179 -3.78033 0.835921
6.61248 12.3985 1.55275
-6.64462 -3.72218 0.847034
9.97317 7.40063 1.38253
6.92357 11.8164 1.51893
10.0706 7.22107 1.3859
5.66027 12.0661 1.50112
5.68585 12.6425 1.5598
4.94126 12.8576 1.55306
10.096 6.86262 1.38512
-6.61706 -4.3812 0.912732
7.8325 -6.58739 1.16334
-7.14583 -0.76496 0.825512
-5.99422 -5.14927 0.91452
5.5638 -5.90124 0.932472
9.11423 8.10322 1.4146
4.826 -7.84475 1.06249
10.6904 5.29304 1.39111
9.20057 8.00445 1.42733
5.51715 -5.95277 0.955377
8.82887 8.12736 1.41774
9.16325 9.32308 1.52289
-6.72836 -5.39473 1.02514
10.3993 4.87014 1.36247
-6.66819 -3.71184 0.922996
9.36065 6.29318 1.36218
5.42104 11.8829 1.57765
-6.66825 -2.96494 0.88964
-6.64758 -3.14227 0.892226
5.21104 -6.35438 0.999221
6.34579 -6.50991 1.10333
9.6002 5.75889 1.37815
8.66806 7.40081 1.40326
-6.68373 -4.14471 0.972629
-6.60919 -4.35488 0.979498
8.48534 8.82152 1.51235
5.23314 11.769 1.59383
-6.25197 -5.36181 1.0298
4.12932 -8.42936 1.16386
8.72151 7.94215 1.46992
6.41922 -5.93218 1.09235
9.38739 6.20754 1.42036
-5.85999 -5.17074 0.990798
8.74942 6.76912 1.40492
8.28341 7.69134 1.43199
-6.9031 -1.73259 0.912543
-6.80568 -2.23706 0.917466
-6.16316 -5.08564 1.0241
9.02893 5.78909 1.36933
8.36676 8.25483 1.50882
-7.07186 -1.21953 0.922122
-6.63977 -3.96434 1.00358
7.57657 6.34291 1.2743
8.26579 7.20474 1.41603
8.17356 8.33445 1.50668
-6.69177 -2.73621 0.944128
-6.68947 -2.87021 0.944079
4.70467 10.4177 1.49714
9.1944 4.20137 1.32527
-7.04876 -1.56146 0.950957
7.13191 -4.44065 1.11308
5.25429 -6.33567 1.08725
-7.14122 -1.08725 0.968817
-6.8091 -2.1344 0.957098
-6.84301 -2.20096 0.962944
-5.76006 -4.22555 0.958728
5.56204 -7.03613 1.19113
7.20124 -4.35129 1.1292
8.26294 7.3389 1.49135
-6.95304 -1.66995 0.963615
-6.88111 -1.89944 0.962523
8.98492 4.96097 1.38852
8.51083 5.99977 1.41019
-6.67919 -3.4921 1.03058
9.05846 4.25194 1.36723
3.48346 10.9469 1.56839
-7.11981 -1.16761 0.989639
-5.77385 -4.26655 0.991494
-5.75148 -4.35874 0.992133
7.43622 -4.09224 1.16303
8.24813 6.62797 1.45771
5.49438 9.28649 1.48882
-6.13853 -4.15621 1.02031
5.23365 -5.86168 1.0876
7.47069 -3.98128 1.17455
7.85351 -3.82904 1.2053
3.74773 10.3959 1.53427
3.56772 10.7339 1.57263
-7.17665 -1.05318 1.01461
-6.87115 -1.94579 0.997697
5.25957 -5.59217 1.06925
7.53034 -3.88331 1.18667
7.64844 -3.814 1.20852
8.16581 -3.48097 1.25819
-6.95221 -1.82101 1.02456
-6.78116 -2.84977 1.06919
-5.77389 -4.20271 1.03129
8.17788 -2.87766 1.26459
8.39847 4.71432 1.40578
5.11091 8.75516 1.48073
8.54105 4.59997 1.42844
8.08217 -2.41537 1.2396
7.27856 5.79442 1.38789
3.06357 9.77678 1.52795
-6.89047 -1.96099 1.07636
7.75218 -3.2206 1.26168
8.39343 4.63928 1.4484
5.90075 7.58887 1.45449
5.396 7.78458 1.43823
5.23461 8.10996 1.46111
5.18845 8.22318 1.46652
7.59844 -3.28359 1.26045
7.94211 -2.84982 1.28105
-6.57561 -1.63735 1.02307
8.08227 -2.32844 1.28586
7.36757 5.52604 1.40892
-6.90142 -1.89624 1.11334
-6.70323 -2.69813 1.12633
6.93439 5.6249 1.39537
-7.16348 -1.0665 1.13339
-6.94359 -1.77226 1.12496
-6.8437 -2.00738 1.12026
-6.92029 -1.81909 1.12553
-6.67507 -2.84012 1.14217
4.90058 7.59843 1.43305
3.73608 -6.53536 1.19609
-7.08276 -1.2643 1.15489
3.80121 -6.14661 1.1586
3.83308 -6.03248 1.14497
7.20157 4.85476 1.41016
4.7498 7.51728 1.44237
-6.86894 -1.96503 1.16719
-6.89214 -1.89117 1.17555
7.09426 4.9163 1.42237
3.90024 8.10186 1.4842
6.27452 -3.43996 1.18809
6.74843 4.958 1.39119
4.74706 7.29597 1.44716
4.09119 -5.65042 1.16726
7.23658 4.50673 1.4304
7.619 2.91385 1.37373
6.42906 5.37475 1.41523
-7.08762 -1.22205 1.22718
6.86922 4.15352 1.37368
-6.25223 -2.68611 1.16447
5.7257 -3.77138 1.17374
5.90775 -3.65198 1.18847
2.81887 8.03175 1.46777
-7.18236 -1.01207 1.2598
5.55076 -3.93649 1.18211
-6.13155 -2.19491 1.1323
-6.08863 -2.34575 1.14563
4.51071 -4.91336 1.16168
4.71952 -4.70059 1.16393
4.81835 -4.66742 1.1724
-6.61727 -1.68515 1.20561
4.40099 6.60234 1.41082
-6.9796 -0.904241 1.26029
-5.96954 -2.19297 1.13585
6.75062 3.75418 1.37982
6.19485 4.42994 1.37654
3.85597 -5.68952 1.24416
5.22505 5.77073 1.41909
2.56573 7.33989 1.45691
6.59052 3.10223 1.37251
-1.56893 -5.32823 1.05986
6.59005 -1.42044 1.27495
6.37152 2.82187 1.33697
6.31623 2.41941 1.34483
-4.41342 3.9057 1.38435
4.3657 3.56752 1.34394
4.24826 3.32124 1.3304
4.77958 -1.7181 1.27078
4.92809 -1.41148 1.27791
-2.1494 4.81518 1.31557
3.86038 -3.05718 1.26069
3.78873 -2.62832 1.22594
3.53106 -3.06798 1.26476
4.03531 2.58932 1.33525
-2.48592 -3.38819 1.2051
-2.22461 -3.41782 1.17022
3.78246 2.07291 1.30666
3.75912 1.99478 1.30614
-2.83834 3.48096 1.38491
-2.2207 -2.34077 1.154
2.03453 -2.88683 1.25289
-2.12498 2.77064 1.32666
-2.03076 2.76005 1.33356
2.31273 -1.91806 1.2517
2.9522 -2.10167 1.51843
2.43558 -1.53087 1.24402
-2.01052 1.87402 1.29481
-2.01293 -1.40747 1.20331
1.49498 -2.12585 1.27355
-1.94817 -1.06369 1.19278
-1.88794 -0.693731 1.20165
-1.88992 -0.689726 1.22704
-1.92392 -0.337963 1.21354
-1.85869 -0.554001 1.21274
-1.85879 -0.520905 1.21805
8.55088 -9.03729 -7.74622
12.7707 -10.826 -9.25042
-8.14735 14.5369 -6.46066
16.5305 -12.8125 -7.86745
22.0047 26.8197 -12.4899
-8.49186 -2.43133 -2.49039
-18.8856 -47.9073 -11.2617
-29.8716 -19.9533 -6.62922
-29.6474 -19.3877 -5.21885
-29.359 -19.9511 -5.26346
-27.5315 -17.657 -2.45017
-26.0851 -50.367 -3.65944
10.0064 -9.53085 -0.421014
-6.99333 15.0743 -0.414592
-26.7343 -10.3446 0.66941
-6.48177 -7.7466 0.436192
18.5399 26.6269 1.74805
12.125 17.054 1.72123
-6.35574 -6.33093 0.843678
4.46013 12.9403 1.57213
9.00047 9.37583 1.51371
8.19753 -8.99498 -10.6458
8.39621 -8.29279 -10.2061
9.09373 -8.77868 -10.7844
7.11785 -12.1763 -11.7379
7.04041 -11.5937 -11.1225
8.39945 -8.50123 -9.79821
7.1717 -12.2474 -11.5262
7.25276 -11.2325 -10.6962
9.18993 -8.82057 -10.1032
8.25488 -8.62808 -9.47119
8.37223 -8.37202 -9.34654
6.90453 -11.5478 -10.5213
6.60854 -11.9553 -10.4312
8.00741 -9.11944 -9.23676
6.32326 -14.5281 -11.9763
8.58211 -8.98407 -9.38924
6.45622 -12.164 -10.3859
6.28759 -12.3199 -10.3001
7.75102 -9.75417 -9.2863
8.1659 -9.33261 -9.1918
10.9011 -9.83031 -10.9006
6.21375 -14.269 -11.4912
6.17774 -13.7807 -11.0924
6.26917 -12.8124 -10.4774
9.54433 -9.1477 -9.6826
9.63337 -9.40077 -9.80164
5.99962 -12.7437 -10.2184
9.71452 -9.31699 -9.59103
7.09381 -11.4725 -9.55665
5.73395 -13.188 -10.1652
10.0906 -9.4437 -9.77861
7.67502 -8.13105 -7.87425
7.87692 -9.65506 -8.74576
10.4116 -9.55651 -9.91288
11.3638 -9.87016 -10.5462
9.79766 -9.4043 -9.39947
11.958 -10.1269 -10.508
8.70104 -8.9199 -8.23584
7.7195 -9.64284 -8.14635
8.49464 -9.05501 -8.19186
12.6933 -10.8676 -10.9197
7.92683 -9.70143 -8.18136
-8.65424 -1.92774 -5.78346
8.14428 -9.75416 -8.12955
8.65258 -8.864 -7.90454
0.330634 15.3881 -9.82057
7.83334 -9.68621 -7.91253
11.4119 -10.0383 -9.64839
7.52841 -11.1263 -8.48622
8.48502 -8.82918 -7.70862
4.64373 -15.4116 -10.1147
9.03885 -9.0122 -7.88432
9.21888 -8.99287 -7.94529
10.825 -9.94896 -9.13532
8.24124 -9.38255 -7.68886
4.03031 -17.7921 -11.2317
8.53023 -8.96503 -7.55166
4.04483 -16.9958 -10.6565
0.12488 14.4268 -8.77825
6.92313 -11.687 -8.25446
8.05309 -9.62351 -7.59981
10.6314 -9.76924 -8.74557
13.2599 -10.6712 -10.3623
7.09324 -11.6715 -8.18391
8.40198 -9.58004 -7.6346
11.8319 -10.1725 -9.31419
5.53416 -14.1342 -8.99004
8.06073 -9.64094 -7.4384
9.7636 -9.42116 -8.02581
7.19218 -11.5546 -8.03966
8.32365 -9.50287 -7.39862
10.2123 -9.61056 -8.15838
15.3294 7.66291 -9.9624
9.06685 -9.22777 -7.46126
7.22514 -11.4 -7.74175
2.69606 -11.3555 -6.70348
8.20527 -9.45653 -7.1567
7.71404 -9.16947 -6.79027
10.0711 -9.57423 -7.87933
11.3138 -9.94405 -8.48348
0.110041 14.8485 -8.37553
3.1667 -19.6615 -11.2016
7.0766 -11.3989 -7.50731
10.6019 -9.7379 -8.04773
13.0472 -10.9403 -9.53311
9.67127 -9.41736 -7.52946
4.72684 -14.5555 -8.52026
8.93208 -9.07579 -7.05356
8.38402 -9.6414 -7.08177
6.29228 -12.7485 -7.81223
15.254 7.80168 -9.41542
10.1718 -9.54339 -7.6465
0.79011 16.9245 -9.25391
2.63401 -18.8239 -10.3682
11.6983 -10.1285 -8.38781
4.36589 -14.7849 -8.3317
15.1574 7.92993 -9.22339
15.5977 10.7747 -10.191
14.4575 7.97905 -8.83254
11.5244 -10.1135 -8.13984
14.0626 -11.4444 -9.62968
2.92973 -18.3863 -9.79073
11.9717 -10.3497 -8.03884
2.07982 -19.2197 -9.76167
8.8527 -8.57481 -6.20163
10.8318 -9.85486 -7.35012
15.1361 -11.9634 -9.67251
14.7001 -11.8833 -9.4479
11.6345 -10.198 -7.69426
7.89573 -9.80615 -6.22089
3.69741 -8.75016 -4.6705
8.86524 -8.423 -5.96509
-8.40119 -1.84407 -4.23198
2.10901 -18.8109 -9.2905
4.68299 -9.57391 -5.20193
0.378401 13.2887 -6.50897
7.99673 -9.73117 -6.13273
-7.92839 15.1155 -8.25937
-8.86236 -2.34243 -4.41991
8.74589 -8.60224 -5.95928
10.7289 -9.80702 -7.02328
16.0134 -12.3597 -9.70628
20.2496 5.79564 -10.0805
-9.90644 -2.4523 -4.82977
1.82691 -19.2934 -9.21987
18.0041 16.9312 -11.7244
1.92646 -16.0529 -7.62941
3.73456 -9.04131 -4.59504
8.00651 -11.816 -6.71957
20.9738 5.66285 -10.2386
14.8998 -11.7886 -8.82184
2.93796 -17.1959 -8.10573
20.243 5.99102 -9.76071
19.1903 -13.9783 -10.9515
10.1621 -2.56607 -4.83956
21.2572 5.38948 -10.1254
18.1499 17.0797 -11.5034
1.71634 -18.798 -8.6453
10.1788 -9.51012 -6.36685
10.5943 -9.67156 -6.60378
-8.89032 -1.61316 -4.12337
9.75984 -3.5801 -4.73032
7.11344 -11.9676 -6.31666
10.2162 -2.69768 -4.78953
21.0199 20.3399 -13.2048
20.1334 6.14081 -9.48438
18.6354 18.4975 -11.8244
2.27733 -18.6367 -8.43887
12.5994 -10.3153 -7.24991
9.66172 -3.18178 -4.5748
16.5605 -12.738 -9.36131
7.46114 -12.2349 -6.39406
7.55201 -11.5074 -6.12072
9.87104 -3.51476 -4.66518
-9.33609 15.2903 -7.96986
19.0187 -13.874 -10.4463
20.444 5.89097 -9.43796
16.7162 7.58441 -8.13747
18.7552 18.9579 -11.8148
12.9637 -10.9318 -7.44488
17.6221 -13.0996 -9.66362
-10.3892 15.7903 -8.30041
-6.14506 14.028 -6.70826
-5.12627 4.80958 -3.06419
21.1053 5.73201 -9.51569
9.8716 -3.51564 -4.51836
19.2154 19.4901 -11.785
16.9741 -13.0561 -9.20081
15.3736 7.6894 -7.34476
4.02888 -9.72571 -4.46045
-10.3452 15.7254 -7.96201
7.35867 -11.5365 -5.75548
-13.0031 3.18725 -5.64085
0.70432 -20.2069 -8.53063
16.8905 -12.7811 -8.84526
-5.04673 5.55855 -3.1422
0.93379 -20.0535 -8.42566
1.1775 -19.2973 -8.10472
14.6312 7.85007 -6.95342
19.6198 20.4616 -11.8667
3.96721 -9.35609 -4.22623
15.2772 7.99747 -7.18669
18.9003 20.2018 -11.5023
-9.18852 -1.05397 -3.81999
4.17565 -8.82834 -3.99117
14.4933 8.00578 -6.80578
7.2664 -11.6442 -5.59696
-13.046 2.43752 -5.42963
-7.42747 14.3789 -6.5704
20.4881 22.2792 -12.2865
15.6141 7.50489 -6.98857
10.1896 -9.09526 -5.51637
-4.95986 13.5259 -5.77059
19.1179 21.4049 -11.2664
14.9445 -11.8105 -7.4483
4.22337 -9.72129 -4.14573
1.48068 18.885 -7.36418
-8.13657 14.6866 -6.51857
19.8621 6.05907 -8.05374
-1.67071 12.5761 -4.90979
5.60981 -9.93034 -4.38567
-2.26627 12.7728 -4.97841
20.9416 24.2447 -12.3102
14.0327 -11.2713 -6.8402
3.33141 23.5563 -9.06276
4.91173 -8.95312 -3.86688
20.3413 5.83705 -8.06047
0.777036 -22.4456 -8.55239
13.1171 -10.9889 -6.46464
16.0185 -12.3396 -7.59735
20.9511 5.67779 -8.13192
9.76227 -3.55585 -3.88106
0.485038 -19.3305 -7.22309
3.44446 -11.3836 -4.43004
21.6316 25.1872 -12.3562
-1.95337 -25.1385 -9.43868
0.887972 -8.32376 -3.10883
15.0211 -11.8908 -7.0526
21.4088 5.44668 -8.12988
6.76027 -10.7248 -4.62819
18.9236 18.7096 -9.74466
-12.5125 2.19266 -4.61894
22.4296 26.8074 -12.7051
2.33515 -13.3863 -4.88867
13.9323 -11.2623 -6.43546
0.756918 15.0086 -5.38035
-7.90961 -2.69868 -2.99161
0.383075 -18.8288 -6.74686
-3.95513 12.9591 -4.81402
0.58924 -19.1712 -6.82854
17.1062 -12.9156 -7.58511
-14.3969 16.6409 -7.74917
6.27021 -11.9609 -4.73608
5.00979 -12.124 -4.64702
-10.1912 15.3746 -6.43719
0.107519 -16.1668 -5.69673
15.2887 -12.1111 -6.80882
21.3584 5.62673 -7.71705
0.598951 -19.8737 -6.88006
-9.11989 -1.16964 -3.14334
-4.67626 13.558 -4.90827
3.86137 -8.93498 -3.33916
5.17345 -9.56197 -3.714
-13.2957 16.5036 -7.24876
2.32677 -11.0256 -3.8557
7.9942 -8.37648 -3.9054
-8.23219 14.9269 -5.80537
3.19991 -14.3646 -5.00467
-13.7174 16.8327 -7.35597
6.36971 -10.0832 -3.98415
21.1718 5.75792 -7.38246
24.1278 29.8693 -12.8644
41.2884 -23.302 -15.8274
-4.95446 13.1291 -4.65543
1.85148 20.3333 -6.78255
1.25371 -9.9576 -3.319
20.965 -15.2367 -8.59431
37.0139 -23.2636 -14.3601
-4.90266 13.4849 -4.65536
-11.5908 15.8646 -6.369
15.4454 -11.876 -6.34251
20.2651 -14.4382 -8.06824
3.74107 -9.07835 -3.13879
6.64528 -10.7876 -4.04837
13.177 -10.736 -5.45044
2.34556 -11.0498 -3.59023
-3.52355 -26.6412 -8.56173
-0.911805 -19.6189 -6.26932
15.6511 10.782 -6.00931
1.90382 19.1923 -6.12836
-12.1456 16.1586 -6.38485
-16.3361 17.6179 -7.54768
3.28081 -10.5374 -3.46631
14.244 -11.2297 -5.69737
7.50694 -11.948 -4.34912
1.23526 -19.0019 -5.90161
-2.03587 -21.9198 -6.77603
7.21627 33.522 -10.4838
0.728205 14.5144 -4.41676
-10.2642 15.4838 -5.5949
-38.0509 -105.374 -33.8798
-2.12628 -21.0719 -6.39728
-13.1486 16.4376 -6.27657
-4.10805 -27.0824 -8.17374
0.71855 -20.5134 -6.1537
-5.00037 13.7403 -4.34446
2.00393 20.1858 -5.98372
-19.2265 17.9256 -7.75094
19.043 6.0615 -5.89
-3.99742 13.406 -4.10852
-7.35476 14.2633 -4.70418
3.57143 -10.4524 -3.22191
4.57647 -9.80931 -3.16947
4.9915 -12.4663 -3.9132
21.5398 -15.3936 -7.79264
-12.1332 2.13808 -3.54142
-25.7382 -36.4611 -12.8457
5.59591 -14.889 -4.56326
-13.9055 16.7261 -6.24905
7.56495 -12.0364 -4.07919
2.69678 -9.97264 -2.9266
13.8563 -11.2115 -5.0634
-8.15805 -2.37364 -2.41068
-35.6005 -99.9317 -30.1322
-22.7413 -93.5755 -27.3641
22.8895 29.5463 -10.6177
-8.2844 -2.18287 -2.42234
-1.96774 -20.2584 -5.73173
-12.5117 1.91782 -3.52539
54.9418 -17.6703 -16.0524
4.77414 -12.289 -3.6452
4.05252 -13.6656 -3.91003
-8.60531 14.7957 -4.69553
-11.9973 15.9987 -5.4892
-5.00414 13.3458 -3.89152
-6.28062 -30.5814 -8.5598
10.4098 -9.48612 -3.82428
-19.37 18.0748 -7.11848
-8.99071 14.9057 -4.66169
34.6199 -17.9566 -10.4936
-23.882 18.3449 -8.00745
-59.937 -91.0851 -29.0375
49.0588 -16.133 -13.6878
11.8448 11.9264 -4.44653
-41.6763 -104.797 -29.9246
4.73075 -12.3128 -3.48029
54.7315 -15.9094 -15.0954
-6.01379 -28.4365 -7.65792
2.58015 -9.40724 -2.5368
4.45928 -9.42497 -2.73312
11.9699 -10.6431 -4.18154
-13.218 16.5488 -5.50412
7.04319 -11.2175 -3.41725
-23.6463 -32.3071 -10.3512
3.42984 -10.3655 -2.81119
-23.7058 -34.7216 -10.8581
-3.29601 -21.6974 -5.69696
3.85305 -11.2432 -3.05187
4.42795 -10.1941 -2.84449
16.934 -12.7311 -5.39655
-6.60385 14.065 -3.92932
-25.1698 -33.5685 -10.6396
4.71893 -12.1613 -3.28799
4.62419 -8.36582 -2.42177
-31.642 -86.5186 -23.0886
41.668 -13.5174 -10.9491
7.13016 -11.6197 -3.38771
51.754 -15.6464 -13.4766
-25.1311 18.9599 -7.77923
-10.6065 15.5812 -4.64396
-22.0912 -32.2277 -9.608
-7.33772 -28.9183 -7.37403
-21.9481 18.4341 -7.04032
4.73976 -11.2295 -2.98245
-6.815 -29.4719 -7.43151
-11.0844 15.8753 -4.69208
-7.26263 14.1472 -3.83024
-25.3523 -72.9964 -18.7073
10.9768 -9.8978 -3.53152
45.9803 -15.2723 -11.5898
15.6998 7.85388 -4.18751
-4.61171 -26.4864 -6.42114
4.3066 -9.84621 -2.53555
54.4972 -14.5846 -13.3876
-22.8294 -34.1017 -9.72596
-8.75568 -32.2708 -7.93511
4.66245 -9.96592 -2.6114
-21.2388 -30.8133 -8.77458
4.36471 -12.4877 -3.10106
5.34023 -9.44918 -2.5427
42.1809 -16.1426 -10.5933
-11.7269 15.9799 -4.61065
-33.4683 -100.314 -24.5589
3.4884 -10.2589 -2.48198
45.7578 -10.8596 -10.9095
26.6088 36.48 -10.4492
-5.63747 -26.6326 -6.31418
11.7942 -10.333 -3.57647
-4.69849 -23.8807 -5.56713
15.145 -11.7671 -4.38676
-24.2312 18.7143 -6.93727
-8.4859 -30.5684 -7.18312
47.1197 -10.304 -10.9461
-26.955 19.57 -7.46489
-30.6185 -20.0641 -8.19672
-4.2877 -20.4624 -4.6729
46.4816 -14.368 -10.9208
5.94124 -10.3093 -2.64606
-11.9481 2.72688 -2.68957
46.2788 -13.5614 -10.6529
48.7926 -13.9211 -11.1612
32.3983 45.6509 -12.305
-4.96739 13.0279 -3.04565
14.4782 -11.649 -4.08258
43.1068 -13.852 -9.9509
-21.0112 18.3121 -6.0433
-19.3463 -47.7067 -11.1781
4.7634 -10.704 -2.52851
13.7652 -11.3486 -3.90168
4.99973 -10.1006 -2.42291
-13.3175 16.5918 -4.54183
-27.2745 19.8114 -7.19509
-27.9841 19.8593 -7.33206
-18.0472 -47.8935 -10.9794
-17.4734 -47.8704 -10.8974
-15.3354 -48.3981 -10.845
-9.824 15.3499 -3.86256
-6.25911 -26.6033 -5.82367
3.55404 -10.7551 -2.40248
4.42869 -10.9558 -2.50643
52.7713 -12.2344 -11.5639
15.5268 7.77927 -3.68997
-13.8096 16.999 -4.63528
5.64036 -9.88194 -2.38044
31.8647 -11.1655 -7.15478
30.6694 44.4096 -11.3186
46.2169 -15.3168 -10.1505
-34.5425 22.6911 -8.66011
-23.6767 -23.1688 -6.8746
15.585 8.15835 -3.66073
-26.251 -20.2735 -6.87569
-20.3488 -52.1858 -11.6036
46.0506 -12.3921 -9.86165
-10.5144 15.4914 -3.80326
-14.2423 16.8388 -4.48844
-30.6551 20.5781 -7.49919
50.9248 -11.1071 -10.6301
-9.64743 -31.0557 -6.61858
4.6018 -10.8135 -2.37882
4.7926 -10.9033 -2.41451
12.4771 -10.3708 -3.29439
-25.658 -23.2416 -6.94994
-11.0018 15.7879 -3.84004
-13.6807 -39.2757 -8.3196
-6.45353 -24.9928 -5.1742
-5.92353 -24.2221 -5.00859
-9.65788 -30.0158 -6.25021
4.53473 -11.0349 -2.34999
-29.5309 -20.1919 -7.04603
40.5355 -13.0023 -8.3994
-23.8503 18.7185 -5.96518
5.43714 -11.3836 -2.41998
-41.4863 26.0221 -9.58324
-28.6858 -20.5183 -6.86888
-6.33428 13.9944 -2.97977
-18.303 -43.012 -9.08305
-29.1682 -19.4171 -6.74617
3.85985 -10.4958 -2.147
52.9471 -12.2669 -10.4373
-11.6742 15.9391 -3.77593
4.45857 -10.4306 -2.15303
-31.543 -19.1586 -6.97914
-17.3457 -28.1785 -6.29196
-11.3467 -32.748 -6.564
43.0208 -14.1909 -8.5615
-31.2377 20.9803 -7.03937
-29.1939 -20.1609 -6.6585
-28.268 -20.6812 -6.56858
-15.2285 -37.7328 -7.66008
-12.3343 -33.5103 -6.62855
4.22663 -10.1672 -2.02335
48.803 -13.1527 -9.38567
6.32569 -10.6645 -2.26289
-24.7422 -31.5898 -7.26678
-17.5177 -39.7264 -7.95056
-14.7468 -36.6079 -7.14125
-13.2801 16.5544 -3.76258
-26.8313 -21.6389 -6.12086
-17.304 -23.0579 -5.15273
-17.4779 -45.6748 -8.68185
-33.9509 21.4234 -7.08021
-47.5115 -92.3341 -18.2714
-23.8588 18.734 -5.27859
-21.8301 -18.9857 -5.04403
-29.8041 20.3948 -6.26828
4.40519 -11.3042 -2.09193
5.2474 -9.46551 -1.87196
14.5282 7.80376 -2.85228
14.6224 8.39269 -2.89593
-27.19 19.7722 -5.76176
14.8952 -11.955 -3.24244
48.4898 -13.7182 -8.57904
48.1084 -12.4591 -8.46033
50.8038 -11.7902 -8.93398
-26.9928 -21.4362 -5.8407
-15.5087 -25.3811 -5.0605
-18.9804 18.0767 -4.40094
-24.6212 -20.2782 -5.43051
-14.6989 -36.5403 -6.65651
15.4453 7.74305 -2.90568
-49.4275 -94.5566 -17.8823
-27.9309 19.7733 -5.71482
7.36878 -12.2672 -2.39583
17.6145 -13.115 -3.61412
-16.6065 -39.5962 -7.09539
44.3606 -13.9873 -7.57999
-26.3754 -14.0065 -4.91289
64.877 -22.6512 -11.1143
50.1858 -13.5191 -8.44838
-9.50341 15.0876 -2.87731
-24.329 -18.2357 -4.87393
-14.8248 -36.7815 -6.32542
-30.1061 -20.7812 -5.75666
-20.4974 18.0091 -4.27221
-22.5911 -14.163 -4.20574
-21.6642 18.4943 -4.41435
-34.6196 20.9609 -6.26911
-10.2908 15.4026 -2.85982
3.97161 -10.883 -1.78011
4.429 -11.6951 -1.92439
-6.97823 14.1541 -2.40997
-27.3708 19.9214 -5.17385
-27.4607 -21.2089 -5.26878
-24.026 -22.4721 -4.97726
-15.92 -37.008 -6.13483
48.407 -12.5838 -7.60354
51.6908 -11.2611 -8.06234
-6.00921 13.3847 -2.19489
-24.1078 -21.4401 -4.79048
10.2924 -5.39443 -1.72322
-28.9456 -20.876 -5.30681
-17.5113 -44.2803 -7.06086
9.95587 -9.55266 -2.04824
10.9605 -9.85387 -2.19147
51.9569 -12.0191 -7.92196
-31.5215 -20.9822 -5.56429
-27.0703 -22.3272 -5.12543
-9.12215 -30.2326 -4.6497
18.5055 -13.3875 -3.34015
-22.6939 18.685 -4.27184
-34.9907 21.5799 -5.99594
-17.6105 -39.4598 -6.22372
-6.99118 14.0032 -2.23806
-11.6344 15.8636 -2.80544
6.82091 -13.0244 -2.09048
7.74918 -12.0292 -2.03192
-12.2346 16.3533 -2.86949
-30.3134 20.4776 -5.14201
-24.7864 -22.9504 -4.75207
7.53078 -12.297 -2.00661
42.775 -14.1161 -6.33467
-26.8972 -21.5515 -4.80245
-25.0439 -22.7227 -4.69909
-28.8843 20.758 -4.92675
-25.3944 -21.4935 -4.62386
-14.8898 -35.8876 -5.36438
52.1462 -11.6652 -7.37106
-14.6383 2.74031 -2.04973
-6.27804 13.8846 -2.08229
-15.4205 -40.2469 -5.85302
8.40642 -10.1712 -1.76508
9.91179 -9.75758 -1.91345
-12.7852 16.3254 -2.79618
14.3315 -11.4302 -2.47555
-19.9949 18.1883 -3.63512
48.3366 -12.4969 -6.62986
51.7653 -11.3382 -7.01719
-7.32543 14.2695 -2.07122
-7.83703 14.5661 -2.1343
-20.3668 17.9234 -3.5482
-28.2431 -21.1327 -4.59898
-13.576 16.6251 -2.77629
-29.8451 19.9202 -4.65785
-33.6763 -14.2186 -4.71144
-28.2901 -15.1481 -4.1175
7.75339 -11.5284 -1.77523
9.52238 -9.78949 -1.78305
11.0994 9.09035 -1.85017
-29.3122 -20.199 -4.54688
-27.6625 20.1946 -4.33228
-30.8912 -19.2754 -4.55496
-22.8087 -46.612 -6.47281
48.1823 -12.4602 -6.23002
-53.877 -102.389 -14.3813
7.52788 -11.482 -1.70828
-7.01793 14.0382 -1.94401
-22.3684 18.7829 -3.57718
-29.2437 20.6103 -4.41292
7.14434 -13.6943 -1.87215
51.7005 -11.0296 -6.47857
15.6227 8.18663 -2.12884
-13.3721 -32.3866 -4.22167
7.83877 -11.6477 -1.68344
-19.2222 8.51949 -2.4887
-10.3168 -31.2103 -3.86384
-33.9331 -13.551 -4.30062
-27.5512 -21.2406 -4.05898
-27.0404 -21.624 -4.04289
48.3536 -12.952 -5.88532
12.1175 -10.4346 -1.84863
-26.3835 20.0057 -3.8098
7.40394 -12.0603 -1.61273
8.13162 -10.01 -1.47016
-16.972 -40.7855 -4.96823
12.5035 -10.4959 -1.85029
9.87213 -4.81583 -1.24329
15.596 8.01614 -1.98439
-9.48773 15.1055 -2.01461
-28.2443 20.6386 -3.91916
-14.258 2.03671 -1.57696
44.5196 -14.6549 -5.25641
-52.2274 -95.4863 -12.011
10.0792 -9.7191 -1.54512
-10.1532 15.2288 -1.99139
7.7703 -14.6228 -1.78441
51.9558 -11.2914 -5.76779
11.117 9.13766 -1.55892
18.4093 -13.6742 -2.45691
48.5957 -12.6032 -5.38191
10.3562 -9.66637 -1.4972
-17.1211 8.4366 -1.96863
9.00537 -9.09616 -1.33728
-26.7428 -21.3996 -3.55732
-21.3023 -42.7282 -4.97071
-21.958 -45.6529 -5.16462
15.5974 7.82384 -1.79082
-27.4922 -21.1969 -3.55248
-11.752 16.0214 -2.01948
-11.7122 15.6926 -1.94842
10.9862 -9.78078 -1.43768
-14.635 -37.1659 -3.90939
-25.2765 -22.7073 -3.27703
7.26961 -13.9195 -1.51131
10.1988 -9.62758 -1.32336
-45.6859 25.4472 -5.04953
18.246 -13.3485 -2.16937
48.5215 -13.0379 -4.81861
-21.4462 -43.3493 -4.5864
-14.4005 -37.7897 -3.83379
-20.9512 18.3264 -2.60389
52.9529 -11.7794 -5.07107
10.463 -9.67708 -1.31612
45.6418 -15.0555 -4.47951
-13.6854 16.7769 -1.96306
-26.7286 -12.1858 -2.67048
-22.6797 -44.2127 -4.56789
17.3521 -12.9874 -1.96813
-23.9968 -43.9673 -4.53537
9.30548 -9.40312 -1.19464
-31.6334 -17.9399 -3.17574
14.0038 -11.559 -1.57788
52.4425 -12.1545 -4.61571
10.1371 -9.73353 -1.1783
11.8295 -10.4168 -1.32187
-29.9049 20.5377 -3.01996
18.4778 -13.474 -1.89089
-12.3912 -32.2428 -2.75941
16.0332 -12.5365 -1.61981
-28.093 -54.8999 -4.88033
-9.09969 -25.4777 -2.13037
-26.3535 20.0387 -2.56202
-29.0394 20.5266 -2.74672
-16.2503 -37.1161 -3.11789
8.30121 -10.1585 -1.04322
-42.9333 23.3665 -3.70107
-19.2871 18.1529 -1.92927
-29.2139 20.6644 -2.59494
17.9837 -13.4371 -1.63924
48.5968 -13.004 -3.66846
-26.3785 -49.9105 -4.05667
15.2324 -12.0518 -1.38729
-24.8259 -15.4019 -2.00437
-11.5377 -30.6059 -2.24957
8.77248 -16.1388 -1.22059
11.6407 -10.3957 -1.06673
-20.9835 18.3737 -1.88625
13.9915 -11.545 -1.21169
19.8077 -14.3658 -1.62842
-16.732 -38.5528 -2.76559
17.6103 -13.3201 -1.45549
-22.3049 -44.0863 -3.09217
-10.8317 -30.0311 -2.05713
50.9351 -13.2465 -3.29376
-22.0204 -44.616 -3.02008
40.3623 -9.79137 -2.55273
49.6736 -11.369 -3.13322
-25.2176 -48.6923 -3.36557
7.17487 -15.5078 -1.014
36.0468 -23.8516 -2.58221
-9.00864 15.0404 -1.03399
-11.6748 -30.4572 -1.84786
18.2663 -13.6509 -1.27797
-8.8486 -11.4698 -0.789977
15.6061 8.00783 -0.956393
15.1512 -11.9935 -1.03265
-11.7193 15.8823 -1.03465
-12.3374 -30.5769 -1.74099
15.4931 8.14817 -0.865993
-12.1625 -31.0899 -1.62737
-12.9246 16.3833 -1.00169
-20.5394 -41.3121 -2.2207
10.3238 -9.738 -0.649176
-16.9406 -38.8579 -1.90323
13.5163 -11.1116 -0.809416
-11.4779 -31.9915 -1.49785
-12.7901 -31.5098 -1.44422
7.97612 -14.7299 -0.737907
-54.7404 19.9812 -2.41216
-10.0693 -30.6977 -1.36562
-43.9841 23.9206 -2.02919
20.2928 -14.5789 -1.01222
-19.4879 -34.414 -1.54304
18.5038 -13.7537 -0.896156
-26.6867 -51.7896 -2.17512
-13.0166 -34.1307 -1.33204
-29.5528 20.3061 -1.31402
49.2928 -12.7005 -1.83783
-82.7354 31.0139 -3.19052
-32.8333 -18.4938 -1.28922
-23.2846 -46.3116 -1.71356
-18.248 -39.9883 -1.46278
22.3682 25.8745 -1.15407
-19.3517 18.1353 -0.867913
9.50847 -16.7828 -0.642806
10.1726 -9.71125 -0.454592
12.2541 -10.7879 -0.529316
20.5752 -14.5481 -0.826707
39.6775 -14.9646 -1.40935
24.8279 30.0589 -1.27115
-24.7413 -12.4091 -0.85929
-20.6167 18.36 -0.845053
-27.9967 19.8293 -1.07355
-17.3042 -39.7771 -1.3263
-10.342 -29.262 -0.944351
-8.43814 -25.3978 -0.773831
-15.0788 -38.4686 -1.23479
-11.9537 -32.393 -0.975787
-29.8024 -18.0689 -0.916573
12.394 -10.5143 -0.434369
17.9546 -13.3542 -0.5887
-35.3874 21.8923 -1.09971
-26.7508 20.3556 -0.835064
-27.6129 19.6215 -0.869494
-27.2405 19.9646 -0.801693
10.3288 -9.72333 -0.327669
-36.5521 12.6337 -0.853731
-17.2135 -27.6829 -0.75223
-23.5798 -39.4866 -1.01644
23.7386 -15.8762 -0.626763
35.2526 -21.3759 -0.929335
-85.9174 37.6757 -2.03306
14.7699 4.08271 -0.318515
-42.7702 15.4199 -0.886873
35.1684 61.4831 -1.34035
25.9422 -12.0772 -0.505174
55.2398 -12.7189 -1.061
-26.8915 -19.3256 -0.591929
-25.1361 -24.6873 -0.544655
-13.9092 -34.1315 -0.597788
-10.4908 -29.7204 -0.442582
13.8328 -11.3751 -0.293904
-23.5083 -11.1194 -0.391241
20.5414 -14.8431 -0.386419
-83.0821 37.2297 -1.27364
-101.504 43.2745 -1.50444
-26.4251 -11.7445 -0.370831
-28.4319 -21.277 -0.480848
-22.6015 -45.5572 -0.663616
-19.4426 -41.3781 -0.605957
-29.511 -20.1539 -0.453569
-26.7741 20.3702 -0.399896
18.754 -14.0048 -0.277187
33.7678 -20.9373 -0.466852
-27.2276 19.9894 -0.37972
-32.9939 -18.4344 -0.412464
-14.2721 -32.7314 -0.365936
-9.07113 -27.3087 -0.276907
-24.1566 -42.5632 -0.428575
-13.0896 16.6047 -0.167284
-24.2206 -12.2111 -0.210318
-13.7027 16.7048 -0.152699
-20.3787 18.2004 -0.14504
-24.2636 -46.359 -0.26494
-19.0152 17.8364 -0.123143
-27.0696 -12.8242 -0.0899389
-9.61025 -12.3542 -0.0487189
15.3636 8.07202 -0.0287954
9.35356 -9.07824 -0.0677754
12.0441 -10.5908 -0.0081991
-84.1122 36.3949 0.0586673
-26.2919 -7.94722 0.0692143
-30.4884 -16.7001 0.0651744
-8.60886 -25.5844 0.101465
18.6775 -13.5698 0.100186
-14.0926 -32.3525 0.174465
20.8147 -14.6652 0.1352
8.25321 -14.1883 0.121064
28.7781 -11.8064 0.188787
-47.0622 16.8048 0.477467
17.8662 -13.2407 0.212149
42.3913 -8.65396 0.401785
-26.5714 -7.49196 0.330376
-31.6262 -19.0886 0.421231
-8.72043 -24.9843 0.297868
-45.4074 24.8859 0.630395
-9.70781 -26.9019 0.355706
-7.89122 -24.2566 0.31981
7.50545 -15.3431 0.219028
8.12358 -12.5158 0.196786
-25.1037 19.7062 0.48399
12.2754 -10.7206 0.244724
-21.709 18.5657 0.466604
11.8221 -10.5558 0.248456
14.1402 -11.6407 0.288251
41.0546 -8.78501 0.692178
-30.0469 -20.1302 0.67218
16.7848 27.3151 0.585606
-27.6814 19.793 0.663858
7.30233 -15.2588 0.328608
7.91835 -12.4621 0.284682
8.76455 -10.2849 0.263686
8.60413 -8.93223 0.295967
23.111 36.2524 0.927068
38.5623 79.3287 1.87674
8.4597 -10.3369 0.30171
10.9498 -9.91774 0.355773
-26.322 -8.44027 0.673881
-21.0413 18.3664 0.75045
-24.6274 19.4194 0.836772
-26.4529 -7.94257 0.735686
9.9315 -9.61356 0.372684
10.394 -9.66049 0.38604
-22.9201 19.318 0.809181
27.5862 -5.58023 0.778505
-84.4561 29.1233 2.52231
-7.2566 -9.19444 0.331536
14.1505 -11.6084 0.544396
16.5829 27.0193 0.962691
-30.4566 21.596 1.118
7.32739 -15.1171 0.527982
8.4398 -13.157 0.490159
-26.0817 -7.35551 0.89676
-11.1014 -16.9976 0.679409
-25.7608 -8.05096 0.941101
17.0011 11.6371 0.735155
-26.5443 -16.4484 1.10389
17.944 31.179 1.26679
-27.1748 -14.8218 1.15882
25.4028 -4.58656 0.927441
-24.699 -17.566 1.13583
-6.85646 -7.47546 0.387297
9.7799 -9.53688 0.506719
13.1249 14.3584 0.740416
35.8516 73.9892 3.07741
35.3201 75.2141 3.09255
36.1665 105.84 4.23908
-10.8344 -8.57549 0.550498
9.42055 -9.36192 0.52424
-23.0492 18.9876 1.20683
23.3727 -3.16673 0.95025
15.4659 25.2564 1.20912
-25.7526 -15.6421 1.24636
10.1712 -9.64432 0.573496
13.2104 15.2152 0.85701
7.66058 -14.5082 0.695374
16.1807 21.0255 1.15379
23.8253 32.914 1.76106
-8.622 -12.5373 0.676801
-8.94951 -13.9973 0.746529
8.49343 -12.2417 0.65538
9.32076 -9.41742 0.597428
26.1248 -4.00153 1.18763
-27.2613 -7.94409 1.30446
7.63302 -12.549 0.674415
-7.78042 -7.65623 0.518653
27.3443 55.1851 2.92016
-25.5332 -15.7803 1.43108
-8.88983 -12.4706 0.737019
10.4341 -9.68095 0.668959
18.8418 23.03 1.38687
20.7028 57.556 2.93576
-27.3392 -12.1096 1.43774
-6.33492 -7.72302 0.496424
17.95 41.7462 2.29962
-27.0138 -10.5787 1.46567
-7.19101 -6.6121 0.498059
-6.30576 -7.14802 0.486756
18.7706 34.0065 1.99981
23.042 32.7096 2.11228
11.0355 12.905 0.90915
15.4597 21.0399 1.38969
10.0979 -9.64457 0.746525
16.0985 20.9479 1.44652
17.0621 26.3542 1.71458
-24.8348 17.4867 1.66009
-6.53871 -7.68411 0.564589
-23.8298 18.285 1.66457
7.23502 -15.2763 0.942969
-6.62163 -8.53362 0.621659
10.4169 13.0122 0.971959
16.8135 28.3318 1.91017
7.61893 -15.3021 0.981131
15.3608 25.0629 1.72315
-7.76952 -7.63652 0.661638
12.0327 12.1175 1.00995
15.9549 21.2219 1.58304
-6.84937 -9.27175 0.723333
7.91013 -12.6055 0.904768
12.2024 -10.5251 0.975001
6.69661 -12.2762 0.865064
-6.82699 -6.31007 0.585206
15.7864 22.3976 1.72139
16.8826 7.49493 1.1915
-6.69347 -5.84765 0.587264
7.66445 -15.9437 1.1755
10.5041 23.7265 1.73955
10.884 13.1206 1.15703
14.6117 19.6496 1.69681
13.5628 22.4897 1.80565
11.8605 12.5298 1.20262
7.3285 -10.9293 0.929253
12.0251 12.3031 1.23672
10.4058 -7.34501 0.903848
12.9519 12.539 1.31542
10.6556 -8.99828 1.01932
-6.032 6.53781 0.661056
10.7785 9.49178 1.07169
12.8159 19.1641 1.72427
12.3819 19.7287 1.74468
-6.53415 -7.24211 0.761714
11.7621 20.303 1.79004
10.2718 -9.67067 1.08782
11.0267 14.8034 1.43841
-6.16796 -4.1324 0.58861
9.96808 19.9726 1.77426
10.6961 -7.31883 1.03504
13.0205 12.0816 1.42747
9.79083 10.8157 1.13287
10.5994 20.5817 1.85431
-6.75143 -8.95539 0.920262
7.39261 -10.322 1.03022
12.8 12.246 1.44311
12.6975 12.4891 1.47053
11.9342 12.4751 1.42103
-4.54437 -10.3747 0.96135
10.8016 13.5154 1.46392
-6.62373 -5.78758 0.762053
-6.46855 -6.3539 0.770624
-4.7093 -10.3319 0.97404
-6.8816 -7.30229 0.869627
9.88222 -7.72267 1.08084
-6.69434 -7.57544 0.890513
-6.61365 -7.24859 0.868493
9.80082 13.0837 1.4415
-6.51834 -7.84995 0.917646
11.1861 9.38655 1.32369
10.9985 14.1663 1.61205
10.8737 9.551 1.3177
8.15221 14.7982 1.54646
-6.09221 -7.62765 0.90042
-6.43924 -8.41289 0.98448
11.6481 11.2352 1.48549
11.6525 9.50778 1.40006
11.3044 11.237 1.4865
6.92285 15.9982 1.63083
-11.0816 2.8395 1.07278
-6.11928 -4.01157 0.688711
-6.47763 -5.99092 0.822832
9.89217 13.9521 1.64197
-5.91346 6.42573 0.85687
8.44414 -7.01034 1.06663
8.32218 13.8772 1.59999
-6.66522 -7.18282 0.992984
9.68578 12.1118 1.55685
7.32088 12.9993 1.50725
7.41261 13.6566 1.57715
9.83477 9.38069 1.39978
6.21869 14.825 1.65976
9.56378 13.0075 1.6758
-5.86448 -4.27906 0.764505
6.3052 14.4886 1.65789
6.56045 14.3716 1.65422
-6.6986 -4.25459 0.852438
9.02184 9.28064 1.3733
9.45219 10.5306 1.53205
7.60174 11.4144 1.48386
6.06813 11.9518 1.45121
-5.93787 -6.98569 1.00798
10.5482 6.62985 1.37225
9.237 8.36092 1.36702
7.60421 12.1558 1.57656
7.12813 12.1151 1.54761
5.60669 12.4495 1.51324
5.11703 12.7182 1.52814
4.99287 14.5225 1.68362
10.1341 7.24656 1.38482
9.02807 9.59728 1.46577
5.61336 12.0104 1.4871
-6.48916 -6.3774 1.01804
7.11114 11.0996 1.47865
4.601 14.0342 1.66398
10.132 -3.31943 1.18508
-5.82442 -5.16531 0.905815
7.70719 -6.47015 1.13898
10.6892 5.86575 1.39238
-7.19007 -0.959602 0.832812
-5.97973 -5.11832 0.910408
5.5584 -5.88464 0.929139
5.29161 12.1373 1.53243
-6.61043 -4.37823 0.922683
4.86622 -7.9331 1.07172
10.6791 5.28356 1.39226
9.12099 8.09581 1.42541
-5.76834 -4.19779 0.835106
-6.20403 -5.04423 0.948998
4.55224 -8.74814 1.16718
5.28901 -6.22924 0.976621
10.4205 4.87323 1.37328
8.74436 8.49173 1.47013
-5.48147 -3.58725 0.812661
5.49532 11.9723 1.60235
9.25624 6.41292 1.37284
8.21858 8.55373 1.47984
-6.19234 -5.48353 1.03453
4.12427 -8.42243 1.16857
8.87491 6.84362 1.40337
-6.18265 -5.10853 1.01967
9.30176 6.15321 1.41805
8.37133 7.30504 1.41164
8.3054 7.68505 1.43883
6.09187 -5.6363 1.06184
-6.70198 -4.27075 1.02411
8.30603 8.2013 1.50797
-7.16662 -1.01469 0.936987
-6.70502 -2.73676 0.948683
9.16673 4.18898 1.31454
8.59221 6.77905 1.43092
5.32988 -6.42665 1.09337
5.25752 -6.62091 1.11528
7.16357 -4.465 1.12002
-6.9369 -1.67031 0.958771
-6.80526 -2.15466 0.956889
-5.79055 -4.24972 0.964258
8.31467 6.80586 1.4509
8.78619 4.53103 1.34245
8.81376 5.27671 1.39757
8.2107 7.30073 1.48964
-6.56817 -3.60133 1.02071
9.04855 4.24793 1.36292
8.43754 5.95572 1.40868
7.82705 5.9584 1.33534
-6.15297 -4.16294 1.02058
-5.72141 -4.34554 0.985346
5.49699 9.2632 1.48241
3.77373 10.4389 1.53696
-7.17566 -1.06381 1.0065
-6.65297 -3.78367 1.06597
5.24836 -5.87799 1.08494
5.52564 -5.70433 1.09828
7.74649 -3.67052 1.19504
3.51598 10.5432 1.55297
8.5716 4.6917 1.37692
7.66034 -3.81983 1.21054
7.86532 -3.45659 1.22106
8.04609 -3.42606 1.23708
9.13143 2.87584 1.37288
5.13494 -5.98533 1.12922
7.60294 -2.94921 1.18343
-6.72575 -3.18926 1.08843
8.18854 -2.87392 1.26136
8.93611 -1.87651 1.33614
5.12712 8.77809 1.49543
3.05517 9.76347 1.518
7.96081 -1.94313 1.20373
7.36248 5.86371 1.397
3.56599 9.86437 1.5461
3.30152 10.1483 1.5775
-7.17946 -1.0157 1.07711
-6.87276 -1.96476 1.0679
7.07903 6.40837 1.43627
-6.08505 -2.20652 0.974047
-7.04768 -1.33811 1.0851
8.09064 4.91002 1.43646
5.81924 7.49843 1.4349
5.39656 7.78105 1.43603
5.16195 8.1803 1.45729
6.99741 -3.33847 1.16871
7.5025 -3.23462 1.24725
7.89324 -2.84767 1.27474
-7.13448 -0.714037 1.0968
-6.89651 -1.89857 1.10666
7.02445 -3.19945 1.18983
4.03016 -6.21631 1.14029
-6.85097 -2.0159 1.12234
-7.15552 -1.06389 1.13804
7.4889 4.85793 1.40463
-7.00659 -1.4044 1.13928
-7.07944 -1.26607 1.1562
-6.89536 -1.96091 1.16855
7.18666 4.84235 1.40942
-6.90086 -1.88996 1.17809
7.12642 4.94644 1.43574
6.71564 4.92622 1.3848
5.28078 6.33259 1.36863
4.75163 7.29236 1.44874
3.89882 8.09154 1.48841
-7.0567 -1.33639 1.20134
3.04972 -6.30314 1.17337
7.26009 4.50226 1.434
6.6164 5.32121 1.42727
4.13205 -5.7209 1.18451
4.17597 -5.3242 1.14046
-7.08175 -1.21897 1.22134
-6.39837 -2.54508 1.17154
7.54369 2.89715 1.3657
7.14191 3.95354 1.38609
-6.21862 -2.66853 1.15462
6.8774 4.16123 1.37494
5.89695 -3.65173 1.18976
-7.20478 -1.01203 1.26044
-6.17597 -2.21499 1.13096
5.75077 -3.78913 1.18299
5.53307 -3.92509 1.18491
3.65492 7.27676 1.42799
-6.61661 -1.68792 1.20189
4.70421 -4.68973 1.16439
-6.91541 -0.891126 1.24427
4.95483 -4.67314 1.20077
4.38826 6.58191 1.40687
6.68127 3.52448 1.35928
6.722 3.73649 1.37667
-6.27653 -1.46152 1.16158
3.8555 -5.68732 1.24409
5.14102 5.68288 1.39828
-5.98359 -2.12183 1.16654
3.64357 -5.50336 1.22157
3.43532 6.86523 1.43189
-1.56078 -5.32747 1.06298
6.5362 2.77113 1.34626
-1.99133 -5.32943 1.10151
6.396 2.83492 1.34213
-2.62072 -5.05809 1.12323
-3.50252 5.31795 1.37723
4.50748 3.9254 1.35946
4.29256 -2.97564 1.21218
4.75816 -2.2466 1.26677
4.22958 3.31523 1.32654
3.83982 -3.03339 1.26202
-3.75264 6.64557 1.93986
4.04621 2.5924 1.3378
-1.3603 -3.894 1.16259
-2.21974 -3.42633 1.16644
3.8856 2.37999 1.3154
-2.85616 3.52032 1.35842
-2.38963 -2.81073 1.15155
-2.29191 -2.83329 1.15705
1.92089 -2.92312 1.22253
1.94268 -2.89716 1.25234
2.06544 -2.6139 1.23386
-2.04496 2.81047 1.32218
2.84655 -0.563315 1.27246
2.8215 -0.340815 1.25221
-2.03474 -1.5775 1.18667
-2.02612 -1.41617 1.21302
-1.80957 -1.74671 1.25371
-1.95045 -1.10646 1.18285
-1.94327 -1.04732 1.20986
-1.90688 -0.862542 1.21183
-1.89414 -0.694771 1.20375
-1.89331 -0.688122 1.23076
-1.87326 -0.461072 1.20578
-1.84085 -0.339333 1.20402
-1.82515 -0.393803 1.21024
2.28246 -18.6202 -9.47015
-7.08807 -8.36748 0.438768
8.24772 -9.03546 -10.7402
8.47702 -8.8357 -10.7487
8.43905 -8.50103 -10.1311
7.12543 -12.2085 -11.6425
8.79137 -9.24831 -10.0317
8.09106 -9.19425 -9.39073
5.96941 -13.0081 -10.8986
9.76045 -9.13396 -10.0675
6.25399 -14.2795 -11.7222
8.56518 -8.95588 -9.30215
8.28671 -9.45991 -9.38911
7.53231 -9.5316 -9.03574
6.02635 -14.3695 -11.3553
7.98869 -9.61456 -9.0046
8.12513 -9.41299 -8.94226
7.34906 -10.8807 -9.33326
7.03522 -11.3917 -9.47624
10.4726 -9.56553 -9.94579
6.75185 -11.5059 -9.1177
8.32586 -8.9285 -8.11547
7.64052 -9.61645 -8.14705
8.8339 -8.99246 -8.36496
12.3494 -10.5843 -10.6231
8.02955 -9.83575 -8.32611
6.69278 -13.1361 -9.61177
8.24247 -9.52334 -8.19986
5.02043 -16.0008 -10.7782
-0.473545 13.526 -8.65392
8.02746 -9.58694 -8.00362
7.62726 -11.2715 -8.64957
8.71265 -8.89674 -7.91936
11.3752 -10.0527 -9.61388
9.34344 -9.154 -8.18997
12.3657 -10.5361 -10.1654
8.41495 -8.88647 -7.51527
4.0073 -16.571 -10.4448
4.27065 -15.3516 -9.7766
0.0912692 13.8166 -8.39314
8.18094 -9.74525 -7.61069
3.93808 -15.4547 -9.50555
12.0679 -10.3229 -9.49621
7.14882 -11.5088 -8.02937
8.06598 -9.13799 -7.2075
5.62411 -14.2816 -9.05628
6.71625 -13.1103 -8.60621
8.70842 -8.93882 -7.25954
10.1365 -9.49203 -8.08346
2.85173 -11.9564 -7.03644
5.70412 -14.4111 -8.75942
10.0591 -9.53685 -7.82181
6.89221 -11.5003 -7.53456
3.20816 -19.6122 -11.1415
9.27707 -9.32915 -7.36204
12.8554 -10.7772 -9.38322
7.10838 -11.4377 -7.48771
4.79435 -14.8763 -8.62636
6.47007 -13.0834 -8.01446
0.852219 18.1079 -9.87185
15.0774 7.97053 -9.27469
4.30646 -14.5024 -8.15946
15.6569 -12.3817 -10.7443
15.4646 7.68774 -9.20723
14.4384 7.9584 -8.76811
4.85195 -15.0322 -8.38309
12.7337 -10.6881 -8.73504
1.73683 -19.239 -9.94372
12.0353 -10.3786 -8.1285
0.148589 10.592 -5.32201
1.9969 -19.0662 -9.7325
14.8625 -11.7909 -9.58114
-0.0099399 13.8342 -6.94415
-6.82543 14.1746 -7.87808
11.1623 -10.1073 -7.55323
7.90986 -9.90834 -6.30254
8.95402 -8.50077 -6.06229
18.397 5.72626 -9.40552
-7.92117 15.0044 -8.19394
12.3286 -10.3482 -7.77743
11.0642 -10.0972 -7.17995
15.7589 -12.0754 -9.5619
17.4237 16.5176 -11.423
7.92315 -11.6917 -6.7133
15.5276 7.67476 -8.13494
14.783 -11.6982 -8.79774
-11.0107 15.7606 -8.80246
16.9295 -12.8207 -9.68793
10.0743 -2.52521 -4.76747
-8.79244 -1.5979 -4.0666
19.8006 19.1185 -12.4398
4.1058 -9.51225 -4.68969
-9.44862 15.4267 -8.11817
-5.2342 4.35428 -3.06399
2.52326 -20.6777 -9.36642
7.27696 -11.9578 -6.28607
9.92605 -9.55851 -6.06616
16.616 7.58237 -8.06574
10.568 -9.32199 -6.16804
-6.18656 14.0383 -6.69513
1.45822 -17.8204 -7.73553
-10.3011 15.6667 -8.0673
9.90211 -3.48201 -4.49174
-9.03911 -1.68717 -3.95034
7.45626 -11.7163 -5.85601
16.9143 -12.7787 -8.86117
15.141 8.00688 -7.19224
19.8352 20.6519 -11.988
10.4474 -9.84362 -5.9526
19.8539 -14.2059 -10.235
0.951919 -20.3603 -8.49594
-4.27929 13.0687 -5.66254
-9.58063 -1.07102 -3.99746
14.5485 8.03615 -6.79413
21.9538 23.8961 -13.2518
-12.5252 2.34786 -5.19202
15.6583 7.44175 -7.01923
-4.89011 13.3852 -5.72707
3.85027 -9.2888 -3.98961
13.1356 -10.8786 -6.67062
14.9174 -11.7739 -7.4149
20.4758 22.9361 -11.9488
-8.38093 -1.03481 -3.21024
19.6593 6.06402 -7.98474
1.48403 18.8297 -7.32877
-8.08836 14.5676 -6.41932
12.0954 -10.6577 -6.18983
20.5097 23.7976 -12.1247
0.647169 14.9393 -5.72874
-1.58499 12.0964 -4.69044
2.73366 -12.2223 -4.80085
-8.48378 -1.21113 -3.2596
3.28419 23.1712 -8.88321
0.645806 -20.6322 -7.80251
16.3299 -12.5102 -7.74602
9.81908 -3.582 -3.93915
-13.3588 16.4639 -7.89806
-7.59411 -3.37307 -3.05043
1.06595 -9.96243 -3.68899
7.50365 -11.9772 -5.15479
14.6798 8.19939 -6.07853
-7.99499 -2.74448 -3.042
0.750729 14.8467 -5.30309
-3.69381 12.4756 -4.59904
6.13254 -11.7181 -4.6407
17.0651 -12.8924 -7.56361
19.9756 6.17116 -7.3627
2.11091 20.8228 -7.35167
23.6213 28.5748 -12.9127
-9.02675 -1.30719 -3.11806
-13.5545 16.7289 -7.38672
3.07811 -13.7054 -4.82559
-8.19326 14.7959 -5.77625
20.1039 -14.236 -8.43118
-4.69012 13.4609 -4.84369
14.8892 -11.9926 -6.40504
17.6895 7.92523 -6.42616
1.21631 -19.3535 -6.43784
1.69782 19.1771 -6.36551
1.4341 -10.0588 -3.3581
45.1204 -23.0612 -16.6156
-2.82311 -20.9564 -6.83281
6.5814 -10.7017 -4.00983
19.0631 -13.4576 -7.46313
2.04028 20.1511 -6.45161
-12.1983 16.2825 -6.41181
1.26421 -19.2826 -6.03473
-3.98733 13.6291 -4.40941
-10.0522 15.229 -5.52787
-2.14114 -21.9935 -6.73328
3.26583 -10.044 -3.19872
0.689204 -20.1069 -6.06571
19.14 11.0646 -6.54933
20.9522 -14.8699 -7.61279
18.3699 5.81299 -5.66046
16.1968 11.8697 -5.81565
-7.28357 14.0964 -4.61702
4.55142 -11.2592 -3.51704
3.91447 -11.3811 -3.41256
-8.75987 -1.27753 -2.50103
4.60542 -11.8487 -3.55505
-12.1341 16.2176 -5.63219
-8.55103 -42.6068 -11.9496
-8.53625 14.591 -4.59704
-12.7068 1.90525 -3.5236
-15.293 17.5692 -6.32262
29.4757 -19.4007 -9.54975
-30.4637 -107.797 -30.0867
-2.95977 -21.1913 -5.75844
4.08773 -9.85528 -2.84317
50.5865 -16.4254 -14.2333
-9.00052 14.9599 -4.64556
34.2241 -16.2633 -10.105
54.8767 -16.0217 -15.1561
11.2576 -10.0377 -3.98437
-5.92731 13.72 -3.90216
-13.1285 16.459 -5.52323
-23.897 -32.5152 -10.5324
-5.92293 -28.0812 -7.49235
5.38746 -10.3849 -3.0164
7.0875 -11.3298 -3.43658
-6.61321 14.0334 -3.94152
-9.68535 15.0841 -4.57901
19.4164 -13.8314 -5.86711
-7.27848 -28.8763 -7.42089
52.0627 -13.192 -13.3217
-27.4176 -78.974 -20.3777
-6.54926 -28.3079 -7.11145
11.7369 -10.3445 -3.83915
24.3646 32.3338 -9.81431
-7.32569 14.2159 -3.87674
-10.7227 15.5847 -4.57828
20.99 5.77506 -5.26915
15.1709 8.01541 -4.08056
-23.2076 -34.8934 -10.0047
4.39859 -10.0348 -2.58218
15.789 7.82206 -4.16049
4.09179 -9.70757 -2.46513
-4.92514 -24.5911 -5.82127
6.11801 -10.736 -2.85327
51.4049 -12.4391 -12.2926
-11.6915 15.9251 -4.54679
-22.2636 -60.3766 -14.9618
-33.2586 -100.015 -24.3259
15.4388 7.90865 -3.93252
50.051 -10.8267 -11.6015
-8.97153 14.9434 -3.90057
-7.06585 -25.2675 -5.83317
-22.9293 -56.3511 -13.2216
4.1265 -10.2602 -2.39355
49.1653 -12.6121 -11.0779
15.7189 7.79999 -3.76567
-9.73688 15.199 -3.86587
-17.8929 -28.1301 -7.1625
-17.4346 -48.1853 -11.1129
-13.0582 -40.8193 -9.24253
5.30493 -10.7168 -2.56839
12.78 -10.5129 -3.62594
10.096 -9.5424 -2.92279
51.8139 -12.1314 -11.3865
-13.433 16.6431 -4.49941
-27.8785 -20.576 -7.33897
47.866 -16.0145 -10.6753
15.4333 8.1571 -3.64875
-23.7467 -56.4414 -12.7486
-30.797 20.8263 -7.59952
50.6311 -14.1061 -10.6538
-6.19267 -25.3496 -5.29569
4.41162 -12.806 -2.70966
51.1252 -11.0299 -10.6395
8.06853 -9.18253 -2.40084
12.6742 -10.4903 -3.2931
49.2409 -12.6755 -10.1326
-24.0482 18.1473 -5.97861
-30.1026 -19.0463 -7.03648
-23.9594 -22.841 -6.54528
-8.68291 -27.1725 -5.67606
6.75977 -11.3073 -2.61237
7.94608 -8.31242 -2.30953
53.0424 -12.4032 -10.6406
-11.6668 15.9189 -3.81418
-23.8795 18.714 -5.89418
-16.0029 -37.709 -7.92159
16.8524 12.7506 -4.0508
-6.29622 13.8591 -2.92166
-28.6059 -20.6898 -6.75114
-27.2813 -21.3621 -6.65305
-31.0186 20.6693 -7.01681
-29.2186 -19.2735 -6.60819
18.8712 5.9342 -3.6996
