ply
format ascii 1.0 
element vertex 1874
comment /media/mkaihara/Seagate Backup Plus Drive/model_iterations/model_49.ply
property float32 x 
property float32 y 
property float32 z 
end_header 
-16.4947 -42.8612 -3.69156
-21.1455 -48.3714 -4.13301
-15.1256 -37.3408 -3.19393
-13.1604 -36.9252 -3.11501
9.19922 -8.93987 -1.00791
11.2857 -9.78333 -1.171
14.8705 -11.6314 -1.49471
-29.7304 22.6719 -2.91002
-29.1181 -13.5917 -2.4968
11.8587 -10.0465 -1.20475
-22.847 -50.8829 -4.27278
12.7786 -10.6067 -1.25821
-40.1907 -76.2492 -6.23887
9.94678 -9.12903 -0.978532
10.9061 -9.73497 -1.01897
-33.037 -20.5092 -2.69048
11.953 -10.0459 -1.08116
14.7171 -11.5876 -1.3019
-15.3584 -38.8083 -2.84092
-14.9618 -39.5809 -2.90123
18.5886 -13.4339 -1.52258
-23.1618 20.2795 -2.04359
-24.46 -56.4247 -4.06742
12.8746 -10.5908 -1.11452
-14.4758 -40.1605 -2.77484
15.2812 -11.538 -1.24427
-31.8649 -64.5162 -4.51958
-14.7705 -45.7826 -2.98987
-32.6144 23.0399 -2.44439
-32.32 -63.9143 -4.36002
-16.8057 -40.9372 -2.69875
31.017 -20.5642 -2.26531
42.1945 -11.0033 -2.64712
36.613 -8.82737 -2.28176
-14.973 -40.1996 -2.5923
-26.8065 21.7559 -1.95778
-28.8477 -14.2024 -1.85844
-15.6674 -40.816 -2.43902
16.9079 -12.6162 -1.18179
-27.0275 -16.2642 -1.69841
42.7878 -9.53103 -2.25425
-9.37689 -12.529 -0.794589
-15.2594 -40.6099 -2.16126
5.71436 -12.4716 -0.681585
-14.1087 17.8855 -1.11116
-14.8975 -46.825 -2.41371
14.9112 7.82288 -0.811356
-16.165 -41.4348 -2.1142
-14.3589 -46.6998 -2.30575
18.7377 -13.2946 -1.10106
-16.9784 -49.2386 -2.42997
36.9074 -9.06471 -1.78063
-28.7487 -14.7006 -1.44511
-24.0512 -55.1105 -2.66699
-16.3823 -40.3082 -1.93723
9.65719 -9.11299 -0.591989
12.6056 -10.3464 -0.731915
44.4468 -10.17 -2.02746
-13.8901 -42.2512 -1.8934
-32.5409 23.0037 -1.65997
-53.1392 28.8598 -2.41259
-33.578 23.108 -1.49597
-18.6266 -48.7104 -1.95762
-34.4145 -21.6714 -1.45405
9.74425 -9.06838 -0.489376
6.60695 -10.8339 -0.440296
-12.937 -38.5666 -1.34673
7.46614 -13.1051 -0.515076
18.631 -13.1959 -0.771029
-26.291 -57.5817 -2.08449
-13.2353 -37.5487 -1.29016
21.2196 24.4736 -1.04044
-22.9838 20.4046 -0.968239
-20.5847 -52.709 -1.75491
21.0591 -14.361 -0.774717
-27.5126 -14.1582 -0.938192
-12.8703 -41.1899 -1.28316
-23.9441 20.3454 -0.902756
-23.4041 -53.862 -1.67063
-17.3519 -46.9626 -1.44433
22.5847 -10.1636 -0.747367
-34.2784 -20.8859 -1.11051
-9.76859 -12.8163 -0.460375
-22.6191 -53.342 -1.63552
18.0474 -13.445 -0.572732
30.7625 51.3368 -1.55124
-29.8834 22.8007 -0.96671
-31.0363 22.7007 -0.951315
-27.1326 -13.037 -0.737938
9.56353 -8.99968 -0.317808
-20.7181 -33.3706 -0.915981
-39.9976 13.8742 -0.92603
21.2591 -14.2246 -0.542922
18.4579 -13.3072 -0.426754
12.8175 -10.53 -0.276268
-7.17499 15.5311 -0.299669
-32.9829 10.4307 -0.572142
-28.1842 -13.4212 -0.494443
-36.8723 -20.9983 -0.64485
-17.9391 -43.9764 -0.734727
-7.81656 16.4386 -0.247449
-32.3685 -24.1802 -0.560385
-33.7178 -22.9857 -0.522484
-34.2683 -69.241 -0.957181
17.3136 -12.9175 -0.261908
18.2445 -13.1359 -0.2849
29.018 -17.8933 -0.45464
-21.1208 -54.0948 -0.704315
-30.0637 22.9209 -0.403605
-37.3837 -20.8975 -0.473177
-27.3889 -58.4425 -0.687018
-18.4537 -42.326 -0.494179
-52.8217 28.948 -0.501757
-33.279 -58.7056 -0.62167
-19.7923 -51.9081 -0.52751
37.6155 -9.08752 -0.355412
-14.2164 18.0444 -0.161653
-34.6483 -77.1587 -0.578506
-17.7508 -43.0541 -0.316979
9.57132 -9.00633 -0.0408606
14.8095 7.79621 -0.0285111
-29.2988 -13.0702 -0.0582806
-11.6477 -16.9586 0.0249822
-12.8346 -19.318 0.0440972
-18.5148 -42.5004 0.191565
9.43699 -8.98478 0.0594529
-32.5746 23.0531 0.206916
-21.5042 -54.2885 0.283079
-30.0899 -13.9652 0.198965
16.8386 -12.2861 0.116681
-13.081 -20.0565 0.156192
14.7082 -11.4573 0.146838
-52.7597 18.903 0.495436
7.08337 -12.1708 0.11825
15.9968 -11.8539 0.169154
-36.2807 -21.9545 0.444672
38.3056 -7.87313 0.407477
-35.1309 -22.0156 0.472087
-12.4776 -34.4629 0.427884
-12.9524 -34.8306 0.450412
-11.1298 -32.0488 0.412937
-9.57448 -29.6239 0.376895
26.0765 52.8006 0.766901
9.58341 -9.01402 0.17015
-12.7625 -19.7765 0.320423
-10.8115 -32.8192 0.473463
8.56204 -8.5057 0.183012
6.28699 -12.8621 0.208509
7.14479 -11.0098 0.200379
9.3391 -9.0536 0.187916
8.02295 -9.1034 0.1941
9.71892 -8.99907 0.218239
37.7807 -8.0945 0.634252
-23.8153 20.4229 0.561626
-33.0748 -22.2527 0.685779
-34.348 -25.2009 0.74595
12.9065 -10.6027 0.273773
13.2172 -10.6606 0.318315
-9.8963 -12.5475 0.301602
6.82194 -11.1804 0.255418
7.97913 -9.37757 0.242151
26.6353 54.8027 1.22113
6.9702 -10.956 0.261087
9.17128 -8.67772 0.268294
11.5176 -9.89966 0.332892
17.2363 -7.6988 0.380146
7.20418 -10.9304 0.296322
-9.43477 -12.1799 0.389587
-12.7709 -19.6048 0.5589
7.63783 -9.29894 0.274149
7.8216 -9.3538 0.283118
-25.5802 21.4998 0.867594
-28.8668 -9.25701 0.760481
9.61125 -8.94273 0.337784
17.4785 -12.7684 0.545867
18.3136 -13.1869 0.561422
-22.9243 20.0707 0.793478
-27.6654 21.8644 0.920139
-28.8803 -8.66791 0.789152
-33.0572 -17.6261 1.01724
-13.3312 -20.1307 0.641685
14.7452 -11.457 0.498368
22.7219 -3.30601 0.646321
-12.1764 -18.9865 0.652482
24.9582 -4.7281 0.739548
16.3603 25.3895 0.905321
-27.9625 -20.5995 1.02755
7.21723 -11.3053 0.402764
6.95657 -10.6829 0.388314
14.7402 24.0121 0.865103
-7.61373 -8.79778 0.355671
13.0155 -10.6501 0.513661
-7.31055 -9.50153 0.367083
-28.5114 -8.04746 0.985652
-11.8737 -17.3568 0.704161
7.86052 -9.33676 0.403904
16.1345 11.0234 0.69991
10.8442 -9.44261 0.522457
11.8771 -10.035 0.566674
22.8391 45.9908 1.92869
-7.44153 -8.12436 0.411692
9.63855 -8.94741 0.491065
22.7905 -3.19982 0.883705
26.7389 55.274 2.37773
-7.43853 -9.87316 0.483423
10.4163 -9.5002 0.55313
12.7102 -10.4975 0.66616
21.5442 -2.64048 0.885098
-29.0874 -17.6466 1.39096
8.72686 -8.68765 0.509002
-6.91675 -8.45731 0.469535
9.42428 -8.91513 0.542435
12.6663 14.5403 0.851732
-28.8491 -8.46667 1.32102
14.7119 19.1624 1.08588
15.0154 25.8535 1.33235
21.6327 42.5392 2.11087
6.16657 -13.7393 0.671546
10.8281 -9.49963 0.651571
18.4616 -1.63842 0.848086
19.4282 36.992 1.95994
14.9564 26.3522 1.42091
-11.1803 2.7731 0.554558
-7.23591 -9.53775 0.577259
9.15469 -8.97289 0.607212
11.3806 -8.7314 0.671848
20.0835 -2.3015 0.973972
11.6223 11.8447 0.824186
16.0601 38.6232 2.05656
7.74828 -9.44349 0.60134
10.1694 -9.26205 0.681271
14.5635 24.6956 1.4358
20.0811 38.9412 2.22419
20.9742 -2.61282 1.07495
-7.39909 -8.50056 0.584591
9.37183 -8.92307 0.673929
16.6876 24.4713 1.55619
16.4901 29.8947 1.78215
12.9873 -10.705 0.894402
10.5472 12.3297 0.867891
14.2032 19.2797 1.28653
11.0588 -9.58913 0.791602
14.9899 19.5305 1.35792
-26.2266 20.1043 1.80557
-6.96294 -8.16896 0.593734
10.2429 12.3837 0.900102
-7.25575 -9.36666 0.663523
9.9804 12.4329 0.924752
-27.6804 19.4879 1.92196
6.09657 -12.8755 0.815696
11.172 12.0772 0.945709
-6.87856 -6.78857 0.560411
11.2617 12.0089 0.969501
-6.80383 -8.40737 0.647231
6.24088 -12.5451 0.818784
14.6239 19.4574 1.46374
14.1023 23.0571 1.61247
13.3819 30.9266 2.02255
-6.13282 6.53193 0.550005
-8.1632 -7.73491 0.680141
-7.11264 -8.15946 0.664697
5.71283 -12.4242 0.826968
-7.47757 -6.88446 0.632235
6.99385 -11.1432 0.81359
6.97614 -10.5432 0.789144
11.3227 -9.77384 0.923921
12.1105 -10.1309 0.97861
16.2015 7.17531 1.12913
14.8704 19.2637 1.53981
-7.23422 -6.30464 0.622302
10.2501 -9.36168 0.896019
-7.3755 -6.25706 0.634369
11.4645 12.0974 1.13572
9.52577 21.4446 1.59789
-7.26737 -9.64666 0.806874
11.6243 12.6077 1.17651
-6.95327 -4.45596 0.567956
-6.74933 -8.19728 0.724067
-6.69783 -4.43246 0.553894
9.26135 -8.85449 0.892128
9.98736 -7.83579 0.894345
12.6965 16.0021 1.47708
-6.66754 -6.65997 0.654724
9.80032 -8.27595 0.938094
11.4502 17.1208 1.54853
11.3813 18.1451 1.60013
9.58018 18.2341 1.55335
8.99934 19.4489 1.61187
7.32288 21.8255 1.73074
10.7555 18.5648 1.63464
10.005 -7.59093 0.96038
-7.02568 -7.18666 0.77004
-17.1856 -6.23336 1.42931
9.46369 -7.67227 0.955158
9.31898 18.6129 1.64297
-6.37927 -4.25953 0.608036
-6.82725 -8.2169 0.84685
4.83204 -5.73008 0.596016
9.00206 19.8051 1.7256
7.75001 18.949 1.64617
5.02547 -5.79204 0.617905
12.7695 11.5226 1.39381
11.7701 11.823 1.36617
6.72317 -9.37923 0.93814
12.2266 11.6945 1.39085
6.66498 19.5658 1.69201
-6.35544 -4.38727 0.629293
-7.15844 -9.47414 0.97458
11.5389 12.0889 1.38283
10.4666 9.1565 1.18425
-5.03628 -11.4903 1.05979
6.12345 -6.04358 0.751085
9.20975 -7.17472 1.00422
-6.79339 -6.69106 0.810029
10.4244 12.3539 1.41119
8.79011 -7.32445 0.994718
10.822 12.1994 1.42731
-7.30703 -7.76164 0.934486
8.18419 -7.28603 0.972994
10.2007 12.4683 1.44833
-7.06916 -7.73913 0.929311
-6.93568 -8.3375 0.973267
10.5922 12.3128 1.47496
10.4947 13.5376 1.55201
-7.1144 -8.32526 0.997507
11.2138 10.8317 1.43417
-6.31362 -4.23058 0.698749
-6.85889 -8.59049 1.00572
-6.32748 -4.39372 0.709995
11.0801 8.55086 1.3135
10.6374 9.32527 1.3191
6.48446 15.4038 1.57207
10.5046 11.301 1.46011
-11.2259 2.87663 1.09482
6.15514 -5.963 0.817108
8.0002 -6.63225 0.99824
10.7375 9.19484 1.37246
9.52382 12.5314 1.52417
9.70887 12.4596 1.55636
7.66394 12.2569 1.43609
7.90901 13.2216 1.53371
11.2219 8.05853 1.40815
7.1372 12.7005 1.47043
9.05837 11.352 1.47788
6.99494 13.5422 1.56004
5.86599 13.9387 1.55266
9.19579 10.4837 1.44145
9.02977 12.3018 1.58567
11.3858 7.65644 1.43147
9.25047 10.0041 1.41877
4.97145 -5.81746 0.821617
-6.84522 -4.65559 0.87317
5.57534 13.8904 1.58887
-7.05822 -4.5061 0.892967
8.92616 10.6955 1.4959
-6.76529 -6.77491 1.0241
5.90778 -5.8312 0.896745
9.6903 8.53179 1.3918
8.96066 9.35915 1.39375
9.2564 10.3187 1.5031
4.78125 13.8571 1.58228
4.2344 -8.05319 0.985684
6.46573 10.8172 1.38695
-6.80087 -3.92457 0.86422
6.3472 11.9012 1.49671
-6.89465 -3.86273 0.875449
9.71091 7.20542 1.35237
6.6698 11.3832 1.46954
9.80585 7.03069 1.35564
5.43533 11.5871 1.44734
5.44062 12.0977 1.49843
4.70434 12.2427 1.48419
9.83545 6.68495 1.35547
-6.89152 -4.56339 0.946556
7.4049 -6.22856 1.10306
-7.32963 -0.785341 0.845181
-6.27499 -5.39062 0.952703
5.24851 -5.56738 0.882981
8.87751 7.89233 1.38404
4.4178 -7.18276 0.97697
10.4151 5.15617 1.36112
8.96132 7.79591 1.39639
5.1999 -5.61101 0.903896
8.60495 7.9208 1.38791
8.90486 9.05922 1.48638
-7.04755 -5.65083 1.06881
10.1428 4.74939 1.33452
-6.9184 -3.85161 0.954034
9.14342 6.1466 1.33639
5.21444 11.43 1.52319
-6.89285 -3.06539 0.916563
-6.87728 -3.25141 0.919892
4.88069 -5.95229 0.939625
5.97367 -6.12884 1.04215
9.37631 5.62408 1.35175
8.46591 7.22771 1.37646
-6.95027 -4.31043 1.00743
-6.88179 -4.53496 1.01574
8.26257 8.58939 1.47882
5.03558 11.3248 1.53921
-6.55067 -5.61809 1.07397
3.70864 -7.57422 1.05107
8.50699 7.7463 1.43981
6.07785 -5.6174 1.03775
9.17022 6.06336 1.39332
-6.13531 -5.41371 1.03246
8.55286 6.61658 1.37917
8.09205 7.51319 1.40481
-7.09982 -1.78261 0.93627
-7.01277 -2.30576 0.942773
-6.44602 -5.31915 1.06627
8.83223 5.66246 1.34514
8.15899 8.04948 1.47738
-7.26196 -1.25296 0.944943
-6.89784 -4.11889 1.03866
7.43502 6.22396 1.25598
8.08209 7.04426 1.39037
7.97298 8.12951 1.47571
-6.9098 -2.82597 0.971901
-6.9111 -2.96586 0.972285
4.55654 10.0907 1.45528
8.99964 4.11182 1.30251
-7.24601 -1.60576 0.975348
6.83931 -4.25902 1.07092
4.92857 -5.94409 1.02385
-7.33109 -1.11683 0.992626
-7.01308 -2.19897 0.983162
-7.05018 -2.26821 0.989437
-5.9952 -4.39839 0.993714
5.18834 -6.56478 1.11528
6.91012 -4.17593 1.08709
8.07654 7.17301 1.46354
-7.14967 -1.71781 0.988553
-7.08115 -1.95528 0.988043
8.79611 4.85622 1.36481
8.33465 5.87508 1.3866
-6.92072 -3.61885 1.0642
8.86897 4.16249 1.34395
3.34987 10.5286 1.51286
-7.31061 -1.19958 1.01413
-6.0104 -4.44163 1.02786
-5.99092 -4.54047 1.02911
7.14798 -3.93419 1.12155
8.07486 6.48828 1.43278
5.36016 9.05981 1.45789
-6.38224 -4.32143 1.05666
4.93338 -5.52638 1.02922
7.18564 -3.82993 1.13337
7.56007 -3.68657 1.16393
3.62367 10.0531 1.48827
3.43822 10.3457 1.52021
-7.36687 -1.08177 1.03951
-7.07201 -2.00331 1.02431
4.97271 -5.2881 1.01486
7.24741 -3.73798 1.14575
7.36386 -3.67268 1.16725
7.87344 -3.35694 1.21693
-7.15285 -1.87421 1.05162
-7.00702 -2.94538 1.10151
-6.00825 -4.37363 1.06884
7.9082 -2.78335 1.22677
8.23659 4.62297 1.38402
4.99815 8.56241 1.45333
8.37392 4.50944 1.40583
7.83379 -2.34177 1.20541
7.15082 5.6925 1.36889
2.96641 9.46898 1.48393
-7.09185 -2.01891 1.10514
7.487 -3.11102 1.22239
8.23315 4.55013 1.42608
5.79221 7.44929 1.43309
5.2974 7.64249 1.4172
5.13333 7.95332 1.43808
5.0868 8.06226 1.44302
7.3371 -3.17125 1.22097
7.6832 -2.75751 1.24322
-6.75391 -1.68221 1.04843
7.8358 -2.25802 1.25065
7.24093 5.43067 1.39003
-7.10133 -1.9518 1.1429
-6.91838 -2.78525 1.15921
6.82064 5.53242 1.37775
-7.35266 -1.09533 1.16116
-7.14203 -1.82356 1.15448
-7.04447 -2.06689 1.15034
-7.11872 -1.87188 1.15515
-6.89361 -2.93362 1.17616
4.81757 7.47005 1.41389
3.44522 -6.03014 1.10908
-7.27324 -1.29896 1.18363
3.52683 -5.70572 1.0807
3.56373 -5.6112 1.07011
7.08551 4.77616 1.39262
4.67102 7.39305 1.42351
-7.0691 -2.02291 1.19837
-7.09108 -1.94637 1.2067
6.98086 4.83742 1.40482
3.82794 7.95257 1.46153
6.05603 -3.32083 1.15066
6.64836 4.88411 1.37569
4.67306 7.18258 1.42965
3.8353 -5.29907 1.09954
7.12105 4.4344 1.41272
7.48882 2.86362 1.35516
6.33532 5.29615 1.39975
-7.27679 -1.25532 1.25754
6.76781 4.09185 1.35842
-6.44951 -2.77136 1.19782
5.51136 -3.63093 1.13385
5.69308 -3.52001 1.14932
2.76412 7.87786 1.44375
-7.37022 -1.0392 1.29047
5.33524 -3.78445 1.14035
-6.30958 -2.25916 1.16219
-6.27014 -2.41624 1.17664
4.2805 -4.664 1.10713
4.49375 -4.47695 1.11281
4.5916 -4.44895 1.12175
-6.79937 -1.73213 1.23608
4.34423 6.51776 1.39756
-7.15746 -0.928008 1.29018
-6.14299 -2.25731 1.16581
6.65386 3.70001 1.365
6.11398 4.3719 1.36356
3.60751 -5.32575 1.16992
5.16138 5.70045 1.40682
2.52456 7.22488 1.43803
6.49819 3.0584 1.35814
-1.70757 -5.78612 1.14187
6.43221 -1.38721 1.24861
6.28556 2.78344 1.3237
6.22995 2.38598 1.33119
-4.45105 3.93862 1.39728
4.33382 3.54162 1.33895
4.21871 3.2983 1.32596
4.66588 -1.67798 1.24522
4.81998 -1.3813 1.25449
-2.14281 4.80071 1.31313
3.72577 -2.952 1.22216
3.67196 -2.54875 1.19343
3.40501 -2.96035 1.22542
4.00822 2.57205 1.33115
-2.59562 -3.53563 1.25134
-2.32716 -3.57211 1.21675
3.75732 2.05923 1.30289
3.73383 1.98147 1.30228
-2.84267 3.48562 1.38735
-2.29727 -2.4201 1.18767
1.95346 -2.7785 1.21196
-2.124 2.76774 1.32503
-2.02901 2.75587 1.33122
2.24921 -1.86846 1.2248
2.37887 -1.49745 1.222
-2.0162 1.87719 1.29624
-2.065 -1.44329 1.22861
1.44807 -2.06823 1.24477
-1.99287 -1.08793 1.2146
-1.92526 -0.707733 1.22009
-1.927 -0.703518 1.24568
-1.95604 -0.344374 1.22897
-1.8932 -0.56473 1.22998
-1.8928 -0.530934 1.23506
8.22728 -8.70708 -7.47187
12.1316 -10.2923 -8.80425
-8.75431 15.6265 -6.94966
20.5789 25.0604 -11.65
-8.80123 -2.52053 -2.57971
-34.4034 -22.9816 -7.64309
-34.0066 -22.2394 -5.99559
-33.7353 -22.926 -6.05743
-31.1333 -19.9668 -2.78157
9.29045 -8.84894 -0.391991
-7.65187 16.4937 -0.448687
-29.4175 -11.3836 0.726548
-6.91731 -8.26732 0.460404
16.7332 24.0282 1.59083
11.4088 16.045 1.62847
-6.69387 -6.66687 0.88337
4.23439 12.2871 1.49789
8.74014 9.10417 1.47633
7.98432 -8.77696 -10.3948
8.84606 -8.55309 -10.5138
6.96689 -11.9535 -11.5297
6.88217 -11.3656 -10.9103
8.16472 -8.27707 -9.54686
7.03156 -12.0447 -11.3409
7.07642 -10.9885 -10.4709
8.01434 -8.39037 -9.21769
6.73745 -11.3008 -10.3033
6.45455 -11.7134 -10.2271
7.7693 -8.86409 -8.98573
6.21478 -14.3363 -11.8243
8.31203 -8.71492 -9.11586
6.30902 -11.9257 -10.1894
6.1559 -12.1038 -10.1258
7.50334 -9.46042 -9.01543
7.92167 -9.06987 -8.94036
10.487 -9.46739 -10.5075
6.12834 -14.1314 -11.3848
6.10856 -13.6831 -11.0171
6.13994 -12.5937 -10.3048
9.21148 -8.84009 -9.36558
9.29954 -9.08724 -9.48309
5.87331 -12.5223 -10.0474
9.37547 -9.00372 -9.27667
6.87262 -11.1434 -9.29143
5.62357 -12.9874 -10.0167
9.70798 -9.09605 -9.42795
7.62094 -9.35863 -8.48548
10.014 -9.20198 -9.55423
10.9365 -9.51 -10.1694
11.462 -9.71644 -10.0911
8.39829 -8.62186 -7.96856
7.44299 -9.31387 -7.87749
8.1813 -8.73312 -7.90963
7.6406 -9.3672 -7.90845
7.84984 -9.4174 -7.85752
8.33441 -8.54949 -7.6325
0.357554 15.8742 -10.1309
7.54015 -9.33943 -7.63849
10.9303 -9.62429 -9.25956
7.2387 -10.7206 -8.18689
8.16878 -8.51149 -7.43985
4.61836 -15.4215 -10.1242
8.72746 -8.7144 -7.63063
7.93444 -9.04722 -7.42259
4.0529 -18.0344 -11.3858
8.21128 -8.6417 -7.28759
4.08891 -17.3153 -10.8561
0.143544 14.8783 -9.05322
6.66603 -11.2817 -7.97789
7.75507 -9.28283 -7.33919
10.1442 -9.32948 -8.36252
6.83228 -11.2702 -7.91184
8.07413 -9.21989 -7.35647
11.2894 -9.71436 -8.90442
5.40924 -13.8774 -8.8334
7.74782 -9.28144 -7.16989
9.36706 -9.04894 -7.7173
6.91431 -11.1344 -7.757
7.9967 -9.1431 -7.12729
9.77014 -9.20381 -7.82235
14.883 7.43707 -9.66334
8.68249 -8.84648 -7.16237
6.94449 -10.9826 -7.46768
2.64314 -11.2245 -6.63185
7.87294 -9.08661 -6.88576
9.62206 -9.15621 -7.54488
10.8121 -9.51211 -8.12363
3.27944 -20.589 -11.7245
6.81185 -10.9993 -7.2529
10.1239 -9.30748 -7.70131
12.3646 -10.3749 -9.0513
9.25611 -9.02275 -7.22288
4.62294 -14.3135 -8.38544
8.01777 -9.2323 -6.79105
14.8057 7.56963 -9.12973
9.71427 -9.12278 -7.31877
0.834842 17.4762 -9.55457
2.74054 -19.8388 -10.9204
11.1503 -9.66237 -8.01077
4.241 -14.4462 -8.14958
14.7188 7.69745 -8.94745
15.1138 10.4353 -9.8619
14.0522 7.75253 -8.57592
10.97 -9.63486 -7.76397
13.2908 -10.8232 -9.11754
3.04262 -19.3164 -10.2799
11.376 -9.84237 -7.654
2.16834 -20.3666 -10.3378
10.279 -9.35832 -6.98997
14.2971 -11.3082 -9.15206
13.834 -11.1894 -8.90712
11.0274 -9.67221 -7.30765
7.51966 -9.35151 -5.94247
3.56562 -8.47409 -4.53084
-8.69792 -1.90974 -4.37815
2.22178 -20.1354 -9.93593
4.53487 -9.30488 -5.06235
0.401846 13.6624 -6.69109
7.61865 -9.2832 -5.8601
-8.47739 16.1756 -8.8438
-9.19784 -2.43154 -4.584
15.0255 -11.6031 -9.12274
19.4176 5.55582 -9.65905
-10.3096 -2.55251 -5.02351
1.90947 -20.5415 -9.80975
17.2575 16.218 -11.2173
7.59406 -11.2268 -6.39532
20.0723 5.4179 -9.79128
14.054 -11.1267 -8.33557
2.93336 -17.3519 -8.18257
19.3963 5.73896 -9.34505
17.8832 -13.0326 -10.2211
9.86941 -2.4929 -4.70356
20.3278 5.15235 -9.67577
17.3842 16.3481 -10.9973
1.8092 -20.2014 -9.28245
9.685 -9.05628 -6.07158
-9.20748 -1.67125 -4.26767
9.45613 -3.4698 -4.58777
6.72272 -11.3328 -5.99326
9.91677 -2.61939 -4.65258
19.2891 5.88189 -9.07916
17.7764 17.633 -11.2569
9.37207 -3.0873 -4.44177
15.4617 -11.8976 -8.75482
7.04725 -11.5784 -6.06249
7.16003 -10.9298 -5.82395
9.56256 -3.40595 -4.5238
-9.99032 16.3725 -8.53794
17.6923 -12.912 -9.73267
19.5765 5.63949 -9.03015
16.1378 7.31993 -7.84747
17.8855 18.066 -11.2439
16.4596 -12.2412 -9.04048
-11.2318 17.0781 -8.98331
-6.55312 14.9728 -7.16503
-5.2315 4.90656 -3.12458
20.1769 5.47842 -9.08989
9.56147 -3.40621 -4.38064
18.2832 18.5316 -11.1899
15.8537 -12.2001 -8.60783
14.8929 7.44647 -7.10678
3.8413 -9.30849 -4.27834
-11.1572 16.9675 -8.59592
6.95249 -10.919 -5.45815
-13.5728 3.32631 -5.88749
0.743275 -22.3511 -9.4244
15.8361 -11.9903 -8.30667
-5.15969 5.68124 -3.2104
0.998108 -22.2117 -9.32056
1.23243 -20.7728 -8.71769
14.1995 7.61574 -6.73995
18.619 19.4041 -11.2371
3.78494 -8.95984 -4.05609
14.805 7.74746 -6.95599
17.9839 19.2078 -10.9206
-9.50929 -1.0914 -3.95108
4.00864 -8.50512 -3.85231
14.0664 7.76722 -6.59687
6.85193 -10.9995 -5.29798
-13.6132 2.54298 -5.66505
-7.96011 15.4188 -7.05042
19.332 21.0071 -11.5669
15.1079 7.25945 -6.75395
-5.27391 14.3988 -6.14719
13.9785 -11.0513 -6.97925
1.53341 19.2914 -7.51705
-8.74317 15.7889 -7.0125
19.035 5.80508 -7.71108
-1.75425 13.2756 -5.1863
5.30019 -9.40183 -4.16218
-2.38479 13.4901 -5.2612
19.6706 22.756 -11.5348
4.66314 -8.52014 -3.68861
19.4634 5.5837 -7.70545
0.87469 -26.429 -10.0498
14.9345 -11.5085 -7.09537
20.0246 5.4251 -7.76519
9.44678 -3.44183 -3.75916
0.532303 -22.5968 -8.42381
3.25256 -10.8075 -4.21635
20.2768 23.5912 -11.5534
0.90935 -8.71815 -3.25074
14.0528 -11.129 -6.60978
20.4344 5.19731 -7.75289
17.9484 17.7357 -9.22202
-13.0295 2.28264 -4.80907
20.9376 25.0039 -11.8294
2.28991 -13.2728 -4.85215
13.0563 -10.5584 -6.04207
0.795243 15.4611 -5.54002
-8.1983 -2.7977 -3.0984
0.409699 -21.7873 -7.79002
-4.2176 13.8371 -5.14453
0.637864 -21.8822 -7.77979
15.8897 -12.0009 -7.05745
-15.733 18.1879 -8.47443
5.93399 -11.3485 -4.50271
-11.0259 16.6379 -6.97049
0.0941527 -18.471 -6.49329
14.2904 -11.3253 -6.37559
20.3896 5.36984 -7.35989
0.656997 -22.9908 -7.94345
-5.01579 14.5569 -5.27455
3.64132 -8.45293 -3.16819
4.87995 -9.03927 -3.52008
-14.5069 18.0098 -7.91496
2.27664 -10.8928 -3.81353
-8.8892 16.1238 -6.27531
3.03428 -13.7265 -4.79254
-14.9822 18.3881 -8.04017
20.2073 5.49412 -7.03893
22.1597 27.4138 -11.7825
36.231 -20.4524 -13.903
-5.30808 14.076 -4.99548
1.91829 20.8123 -6.93608
1.26761 -10.2483 -3.41437
32.5867 -20.4853 -12.6577
-5.256 14.4691 -4.99917
-12.5909 17.2362 -6.92367
18.6116 -13.2624 -7.42123
3.56081 -8.67483 -3.00652
6.22638 -10.1234 -3.80876
2.31444 -11.0111 -3.5806
-4.54127 -34.1246 -10.9425
-1.13405 -23.7841 -7.5799
15.0599 10.3721 -5.77156
-13.2137 17.5825 -6.9513
-17.9896 19.403 -8.317
6.97169 -11.1104 -4.05504
1.38418 -21.8648 -6.77749
-2.56584 -27.3419 -8.4301
7.22378 33.3725 -10.4214
0.770456 15.0533 -4.57893
-11.1357 16.801 -6.07449
-2.69106 -26.4334 -8.00224
-14.3462 17.9366 -6.85256
-5.28101 -34.6397 -10.4337
0.83673 -24.9786 -7.4732
-5.39401 14.8328 -4.69407
2.08572 20.7718 -6.15181
-21.2702 19.8325 -8.57957
18.2547 5.80909 -5.6391
-4.29865 14.4338 -4.42744
-7.92839 15.3801 -5.07585
4.2595 -9.15112 -2.96669
4.64318 -11.6337 -3.66246
-12.6096 2.22135 -3.6798
-32.8294 -46.504 -16.3808
-15.1962 18.2805 -6.83312
6.97003 -11.1011 -3.77351
2.56515 -9.55064 -2.80979
12.9577 -10.4883 -4.744
-8.44777 -2.45855 -2.49477
21.1835 27.3208 -9.79605
-8.57494 -2.26003 -2.50581
-2.54237 -25.9519 -7.31851
-13.0157 1.9945 -3.66688
4.395 -11.3475 -3.37735
-9.309 16.0082 -5.08329
-13.0567 17.413 -5.97738
-5.39312 14.3912 -4.19983
-8.46904 -41.1354 -11.4917
-21.456 20.0222 -7.88904
-9.72904 16.132 -5.04796
-26.6877 20.5009 -8.95256
11.4691 11.5436 -4.29439
4.33422 -11.3141 -3.20954
47.3442 -13.763 -13.0608
-8.15578 -38.4925 -10.343
4.09326 -8.66537 -2.52338
11.1903 -9.95322 -3.91768
-14.4449 18.0859 -6.01814
6.54459 -10.4366 -3.18839
3.18096 -9.65462 -2.62783
-29.9811 -43.9109 -13.7304
-4.34049 -28.474 -7.45297
3.54565 -10.3853 -2.82952
4.07237 -9.39667 -2.6322
15.6447 -11.7637 -4.99415
-7.15057 15.2325 -4.25852
-31.4193 -41.9018 -13.2815
4.31864 -11.1616 -3.02886
4.25826 -7.71027 -2.24167
6.54655 -10.6785 -3.12361
45.0113 -13.6088 -11.7236
-28.2282 21.297 -8.74202
-11.5236 16.9296 -5.0481
-27.5035 -40.1222 -11.961
-9.84513 -38.7537 -9.86376
-24.4488 20.5349 -7.84594
4.35469 -10.3428 -2.75712
-12.0563 17.2686 -5.10598
-7.8405 15.2755 -4.13786
10.2902 -9.28178 -3.31805
40.4451 -13.4349 -10.198
15.1535 7.5785 -4.03394
-6.28279 -35.9866 -8.70287
3.96826 -9.09334 -2.35088
47.2112 -12.6357 -11.599
-12.0848 -44.4993 -10.9243
4.2066 -9.0008 -2.37009
3.86727 -11.0918 -2.76825
4.91288 -8.7012 -2.35067
-12.769 17.4007 -5.02247
11.0255 -9.66212 -3.35055
-6.16786 -31.2816 -7.27563
-27.1073 20.9363 -7.76387
41.6853 -9.11636 -9.68308
-30.4323 22.0953 -8.43158
-35.3531 -23.1678 -9.47112
40.878 -12.6367 -9.6064
5.46005 -9.48368 -2.44319
-12.3979 2.82892 -2.79022
40.7531 -11.9427 -9.38248
42.7431 -12.1958 -9.77875
-5.37202 14.093 -3.29702
13.4189 -10.798 -3.79108
38.1942 -12.2743 -8.81919
-23.3485 20.3494 -6.71795
-29.2384 -72.0863 -16.8808
4.31401 -9.7097 -2.30399
4.54335 -9.1888 -2.21406
-14.5604 18.1405 -4.96725
-30.8609 22.4168 -8.1446
-31.7344 22.5207 -8.31823
-27.8485 -73.8874 -16.9265
-10.6755 16.6809 -4.19891
-8.40189 -35.6683 -7.79303
3.19376 -9.69563 -2.17672
3.97106 -9.84127 -2.26263
45.9715 -10.6585 -10.0733
14.9854 7.50604 -3.55358
-15.1331 18.6287 -5.08114
5.16858 -9.06287 -2.1919
26.8088 38.7893 -9.85487
15.0267 7.86431 -3.52161
-30.0861 -23.2356 -7.88612
-32.5644 -83.498 -18.5561
-11.4306 16.8413 -4.13578
-15.5952 18.4385 -4.91601
-35.0688 23.5408 -8.58265
44.5942 -9.72697 -9.30742
-13.1731 -42.3884 -9.02225
4.14005 -9.7441 -2.15395
11.6236 -9.66238 -3.07525
-11.9761 17.1862 -4.18116
-19.7581 -56.7071 -12.0023
-12.9062 -40.0934 -8.33953
4.07399 -9.93146 -2.1253
-34.0345 -23.2725 -8.12817
-26.6632 20.9263 -6.67083
-33.0705 -23.6558 -7.92621
-6.87389 15.1885 -3.23545
-26.3566 -61.9306 -13.0742
-33.4825 -22.2903 -7.75154
3.43904 -9.371 -1.92749
46.0489 -10.6692 -9.07639
-12.7198 17.3664 -4.1148
3.99296 -9.35384 -1.94085
-36.3538 -22.0824 -8.05203
-21.2021 -34.4424 -7.69228
-15.4893 -44.6932 -8.95069
38.03 -12.5452 -7.57001
-35.8182 24.0566 -8.07484
-33.6127 -23.2136 -7.67416
-32.5679 -23.828 -7.57532
-21.1682 -52.443 -10.642
-16.7848 -45.5929 -9.01269
3.8229 -9.21323 -1.84241
42.7329 -11.5173 -8.21824
5.76427 -9.72398 -2.07166
-24.3478 -55.2097 -11.0479
-20.3193 -50.435 -9.83521
-14.5223 18.1024 -4.11483
-31.0239 -25.0215 -7.08489
-20.2528 -26.9875 -6.03411
-39.2071 24.7402 -8.17977
-26.671 20.9419 -5.90211
-33.955 23.2352 -7.14373
3.91387 -10.061 -1.87188
4.77566 -8.61946 -1.71247
14.0387 7.53921 -2.74869
14.1144 8.09953 -2.78744
-30.7134 22.3344 -6.51025
42.4107 -11.9989 -7.50343
42.202 -10.93 -7.42088
-31.1813 -24.7638 -6.755
-20.9975 19.9974 -4.86911
-20.2534 -50.3425 -9.16931
14.8978 7.46685 -2.79512
-31.5798 22.3566 -6.46322
-23.3876 -55.7608 -9.9921
43.7483 -11.7855 -7.364
-10.3184 16.3809 -3.12382
-20.5334 -50.9406 -8.76023
-34.7977 -24.0211 -6.66322
-22.6998 19.9437 -4.73149
-24.0912 20.5658 -4.90926
-39.9117 24.1653 -7.23013
-11.1845 16.7395 -3.10767
3.47589 -9.53934 -1.57017
3.87462 -10.246 -1.69604
-7.58755 15.3892 -2.62037
-30.9393 22.5185 -5.84961
-31.6799 -24.4686 -6.08717
-27.875 -26.0739 -5.78258
42.3942 -11.0212 -6.65788
45.0642 -9.81792 -7.02629
-6.5134 14.5072 -2.379
9.84144 -5.15863 -1.6492
-33.4022 -24.0915 -6.13331
-26.2097 -66.272 -10.5703
10.2099 -9.17984 -2.04608
45.2089 -10.4586 -6.89089
-36.5447 -24.3273 -6.46138
-31.427 -25.9223 -5.95957
-12.5966 -41.7384 -6.41531
16.9626 -12.2724 -3.06667
-25.2941 20.8254 -4.76148
-24.5277 -54.9577 -8.67282
-7.58587 15.1935 -2.42796
-12.6664 17.2699 -3.05335
6.04659 -11.5519 -1.86308
-13.3623 17.86 -3.13307
-34.5467 23.3371 -5.86141
6.77144 -11.0608 -1.81258
37.7486 -12.4578 -5.59063
-31.0705 -24.8968 -5.55694
-32.8549 23.6112 -5.60495
-20.4542 -49.2986 -7.37232
45.3617 -10.148 -6.40935
-6.83713 15.1203 -2.26737
-22.4459 -58.5811 -8.52273
7.76163 -9.39296 -1.63519
-13.9534 17.8162 -3.05053
13.2452 -10.5641 -2.29233
-22.1405 20.1395 -4.02466
42.318 -10.9414 -5.80262
45.0827 -9.875 -6.10838
-22.523 19.8204 -3.92323
-32.6 -24.394 -5.31849
-14.8409 18.1733 -3.03369
-33.8769 22.611 -5.28794
-38.2356 -16.1446 -5.35913
7.02766 -10.4516 -1.6159
10.8029 8.84475 -1.79309
-33.7146 -23.2339 -5.24003
-31.2989 22.849 -4.90211
-35.484 -22.1423 -5.24276
42.1774 -10.9078 -5.45165
6.80656 -10.3838 -1.55137
-7.61978 15.2408 -2.10957
-24.9169 20.9223 -3.98412
-33.2412 23.4274 -5.0166
6.3082 -12.0983 -1.6621
45.0338 -9.60791 -5.63984
15.0431 7.88123 -2.04207
-17.8574 -43.2502 -5.64259
7.09796 -10.5491 -1.53088
-20.4862 9.07926 -2.65235
-14.2286 -43.0414 -5.33066
-31.7649 -24.4902 -4.69022
-31.2515 -24.9932 -4.68295
42.2638 -11.3213 -5.14221
11.2513 -9.68937 -1.72022
-29.7497 22.5576 -4.29556
6.65343 -10.8409 -1.45614
7.49833 -9.23181 -1.36043
11.6049 -9.74209 -1.72092
9.4583 -4.6142 -1.19176
15.0209 7.71885 -1.90355
-10.3056 16.4063 -2.18644
-32.0354 23.4085 -4.44505
39.0648 -12.8597 -4.61186
9.37041 -9.03624 -1.44016
-11.0204 16.5283 -2.15945
6.80945 -12.8199 -1.57234
45.177 -9.81858 -5.01167
10.8018 8.87656 -1.50712
16.8186 -12.4934 -2.24851
42.4618 -11.0128 -4.70019
9.63328 -8.99199 -1.39612
8.38929 -8.47453 -1.24921
-30.8183 -24.6618 -4.11027
-29.9073 -59.9884 -6.993
15.0173 7.53143 -1.71668
-31.7069 -24.448 -4.10819
-12.8037 17.454 -2.19796
-12.7244 17.0476 -2.11447
10.2235 -9.10219 -1.34094
-20.6868 -52.537 -5.53586
6.33117 -12.1245 -1.32379
16.6868 -12.2083 -1.98735
42.351 -11.3803 -4.20335
-30.4252 -61.5011 -6.52303
-20.6451 -54.1794 -5.50662
-23.2168 20.3075 -2.88372
45.8888 -10.2085 -4.39068
9.73096 -9.00043 -1.22703
39.9055 -13.1639 -3.91544
-14.9579 18.336 -2.14303
-29.6335 -13.5108 -2.96893
-32.0167 -62.4142 -6.46609
15.8978 -11.8993 -1.80636
8.64739 -8.7385 -1.11325
12.918 -10.6632 -1.45858
45.473 -10.5399 -3.99847
9.41555 -9.04111 -1.09728
10.9705 -9.66087 -1.22869
-33.987 23.3406 -3.43131
16.8877 -12.3151 -1.73109
-16.8159 -43.7581 -3.75496
14.7174 -11.5081 -1.48974
-11.6753 -32.6857 -2.73971
-29.6803 22.5677 -2.88379
-32.9293 23.2757 -3.11339
-22.5396 -51.4868 -4.33927
-50.8097 27.6529 -4.38102
-21.2988 20.0455 -2.12785
-33.1556 23.4521 -2.94362
16.4229 -12.2711 -1.49965
42.3799 -11.341 -3.19602
-38.8459 -73.5002 -5.99975
14.0064 -11.0819 -1.27815
-15.4562 -41.0012 -3.02443
10.7845 -9.63132 -0.990638
-23.2397 20.3485 -2.08648
12.8965 -10.6416 -1.11923
18.0048 -13.0587 -1.48273
16.0838 -12.1655 -1.33179
-14.5718 -40.4018 -2.77839
44.162 -11.4856 -2.85206
-31.5265 -63.8778 -4.34707
36.0079 -8.73557 -2.27382
43.3172 -9.91462 -2.72791
6.06677 -13.1141 -0.863608
31.0684 -20.5579 -2.22904
-9.78975 16.3426 -1.12003
-15.4648 -40.3413 -2.46018
16.6552 -12.4472 -1.16739
-9.67442 -12.5413 -0.868077
15.0095 7.70044 -0.912266
13.9326 -11.0291 -0.951509
-12.7273 17.2474 -1.1198
-16.3649 -40.5617 -2.32297
14.9038 7.83689 -0.825447
-16.1871 -41.3763 -2.18007
-14.0866 17.8548 -1.08782
9.57954 -9.03606 -0.604002
-23.7637 -54.511 -2.69084
12.4758 -10.2561 -0.74872
-15.8822 -44.2733 -2.08831
-17.0933 -42.1145 -1.94591
6.87321 -12.6915 -0.640325
-13.8093 -42.0954 -1.88717
-52.1986 28.3876 -2.40767
18.3922 -13.2135 -0.919019
16.848 -12.5231 -0.817506
-40.8872 -79.3583 -3.36783
-18.0772 -47.4046 -1.86853
-33.4589 22.9894 -1.48518
42.8619 -11.0439 -1.59362
-34.0654 -67.762 -2.5374
-25.6172 -56.1401 -2.07765
20.2816 23.4569 -1.02988
-21.3417 19.9992 -0.953255
8.14211 -14.3703 -0.554706
9.43531 -9.00747 -0.422847
11.3199 -9.96551 -0.49022
18.6482 -13.1857 -0.750541
35.0027 -13.2019 -1.24132
22.1096 26.7637 -1.1134
-27.3259 -13.7064 -0.958377
-22.7939 20.2981 -0.930482
-31.5332 22.3335 -1.20631
-24.7231 -56.8393 -1.91969
-13.7167 -38.8044 -1.26773
-21.2965 -54.3248 -1.76669
-16.4848 -44.6774 -1.36432
-33.9219 -20.5676 -1.05674
11.4692 -9.72979 -0.402904
16.3814 -12.1843 -0.538151
-40.7974 25.2388 -1.26561
-30.1274 22.9242 -0.936951
-30.6477 22.4611 -0.898656
9.58193 -9.0203 -0.304855
-41.1496 14.2224 -0.962674
-31.169 -52.1931 -1.36918
21.3407 -14.2728 -0.564261
30.6486 -18.5844 -0.808836
14.2579 3.94033 -0.301794
27.7721 48.5312 -1.02828
23.6195 -10.9962 -0.458768
47.4565 -10.9278 -0.905632
-30.5476 -21.9526 -0.68605
-29.4751 -28.9504 -0.655182
-18.8327 -46.2108 -0.830946
12.7462 -10.4817 -0.271495
18.5781 -13.4244 -0.35023
-29.2081 -12.9823 -0.419757
-32.7229 -24.489 -0.568763
-32.9681 -66.461 -1.00153
-27.4367 -58.3942 -0.884024
-33.8223 -23.0988 -0.534839
-30.1452 22.9342 -0.446285
17.0454 -12.7292 -0.252555
29.4557 -18.264 -0.407717
-30.6074 22.4703 -0.423109
-18.951 -43.4631 -0.507271
-11.9467 -35.9585 -0.381562
-33.0698 -58.2684 -0.617223
-14.2555 18.0828 -0.176932
-26.6571 -13.4397 -0.241148
-14.9428 18.2152 -0.161328
-22.4574 20.0565 -0.155239
-20.9045 19.6078 -0.130658
-10.5466 -13.5586 -0.0603522
14.7712 7.7597 -0.0201993
11.1276 -9.78489 -0.00777755
-34.3958 -18.8393 0.0597381
-11.279 -33.5212 0.115211
17.0041 -12.3541 0.0912911
-18.6771 -42.8791 0.207972
18.8386 -13.2732 0.122484
7.19345 -12.3654 0.104409
26.1016 -10.7089 0.173671
-55.0111 19.6428 0.556567
16.2926 -12.0745 0.193688
37.6456 -7.68587 0.362776
-29.0235 -8.18393 0.3526
-36.1675 -21.8299 0.465842
-11.2733 -32.2995 0.367032
-12.6411 -35.0291 0.443471
-10.2346 -31.4591 0.397032
6.34847 -12.9764 0.184421
7.22723 -11.1341 0.174548
-28.0502 22.0186 0.545729
11.3335 -9.89807 0.22626
-24.0127 20.5352 0.52125
10.9193 -9.74966 0.229785
12.9998 -10.7019 0.265338
36.5851 -7.82977 0.622681
-34.4479 -23.0795 0.754176
-31.0848 22.2258 0.750034
6.16015 -12.8707 0.276881
7.03501 -11.0712 0.252724
8.03719 -9.43113 0.241992
27.9308 57.4325 1.38885
7.73937 -9.45645 0.276284
10.1451 -9.18887 0.330254
-28.7602 -9.22221 0.727398
-23.2124 20.2609 0.833379
-27.4564 21.6494 0.938146
-28.889 -8.67434 0.79472
9.20248 -8.90784 0.346001
9.63831 -8.95811 0.358704
-25.4737 21.4695 0.904915
25.4514 -5.14886 0.723113
13.0095 -10.6725 0.501313
14.9098 24.2892 0.879238
6.20672 -12.8042 0.447762
7.47258 -11.6486 0.434308
-28.4183 -8.01482 0.968672
-12.5894 -19.2758 0.758534
-28.1029 -8.7835 1.01788
16.16 11.0608 0.707764
-29.7641 -18.4437 1.22385
15.8789 27.5832 1.1358
-30.3837 -16.5734 1.28247
23.598 -4.26121 0.866488
-27.7753 -19.7542 1.26293
-7.29494 -7.95395 0.407264
9.06336 -8.83815 0.470587
12.4707 13.6417 0.712644
26.3818 54.4238 2.29051
25.2281 53.7133 2.23458
-11.5518 -9.14368 0.580879
8.73394 -8.67958 0.48711
-25.5634 21.0582 1.34428
21.8878 -2.9664 0.894966
-28.7454 -17.46 1.37775
9.42696 -8.93862 0.532664
12.4981 14.3943 0.820152
6.59238 -12.4846 0.599519
14.9214 19.3882 1.07558
20.9095 28.8817 1.56163
-9.48734 -13.7946 0.735886
-9.96986 -15.5924 0.821556
7.61045 -10.9688 0.588197
8.63453 -8.7241 0.554704
24.2494 -3.71481 1.10778
-29.8156 -8.68869 1.41742
6.75361 -11.1028 0.597927
-8.27295 -8.14153 0.546229
21.5432 43.4659 2.32098
-28.5081 -17.6191 1.58411
-9.76075 -13.6913 0.800294
9.67341 -8.97526 0.621534
15.6529 43.4988 2.23785
-30.2045 -13.3784 1.57666
-6.76273 -8.24472 0.52469
14.6655 34.1051 1.89436
-29.698 -11.6297 1.60047
-7.593 -6.98199 0.521374
-6.70042 -7.59561 0.512356
16.2242 29.3901 1.74319
10.5677 12.357 0.878721
14.2724 19.4224 1.29415
9.3566 -8.93659 0.693257
14.862 19.3376 1.34669
15.3429 23.697 1.55451
-27.4255 19.3104 1.83821
-6.97337 -8.19516 0.596708
-26.354 20.2215 1.84656
6.1088 -12.8984 0.798477
-7.10607 -9.1578 0.661016
9.97408 12.4583 0.938602
14.972 25.226 1.71383
6.4777 -13.01 0.836375
13.8882 22.6583 1.56981
-8.25987 -8.11909 0.697819
11.5517 11.6314 0.977603
14.7117 19.5668 1.47087
-7.39723 -10.0137 0.774259
7.01932 -11.1859 0.804784
11.2759 -9.7261 0.902773
5.87427 -10.7686 0.761165
-7.19637 -6.65164 0.61233
14.5173 20.5939 1.59432
16.1621 7.17415 1.14818
-7.03852 -6.14958 0.613266
6.47919 -13.4798 0.996682
9.42928 21.2992 1.57142
10.4304 12.5719 1.11679
13.5779 18.2577 1.58705
12.4281 20.6057 1.66515
11.3586 11.9987 1.15976
6.60319 -9.84767 0.839633
11.5066 11.7725 1.19137
9.80926 -6.92438 0.854376
12.3709 11.9761 1.26463
9.93087 -8.38651 0.952253
-6.15458 6.67036 0.677424
10.437 9.19015 1.04469
11.9407 17.8533 1.61614
11.4936 18.3116 1.62911
-6.94732 -7.70066 0.804212
10.8722 18.7653 1.66409
9.51892 -8.96209 1.0104
-6.41789 -4.30042 0.60925
9.20147 18.4351 1.64658
10.0835 -6.90006 0.978352
12.4639 11.5641 1.3745
9.76146 18.9529 1.71676
-7.26612 -9.63785 0.983143
6.72015 -9.38355 0.939186
12.251 11.7198 1.38927
12.1555 11.9545 1.41582
11.4304 11.9474 1.36894
-5.05174 -11.5299 1.05895
10.3212 12.9132 1.40668
-6.96282 -6.08437 0.796415
-6.81924 -6.69805 0.807373
-5.21286 -11.433 1.06861
-7.3029 -7.74928 0.916964
9.28614 -7.25722 1.01829
-7.12314 -8.06058 0.941369
-7.0194 -7.69309 0.915874
9.39635 12.5423 1.38951
-6.95463 -8.37512 0.97257
10.817 9.07624 1.28697
10.4717 13.4871 1.54282
10.5259 9.24451 1.28249
7.72819 14.0286 1.47331
-6.50089 -8.1392 0.954421
-6.90548 -9.02169 1.04863
11.2027 10.8047 1.43618
11.2514 9.18004 1.35895
10.8725 10.8071 1.43712
6.49857 15.0176 1.53779
-11.4279 2.92766 1.10617
-6.36314 -4.17208 0.712797
-6.80805 -6.29603 0.859902
9.44037 13.3138 1.57456
-6.02623 6.54809 0.876137
7.96142 -6.61005 1.00852
7.93989 13.2391 1.53358
-7.07098 -7.62005 1.04725
9.31287 11.6447 1.50408
7.01502 12.4556 1.45093
7.07249 13.0297 1.51154
9.53541 9.09465 1.36381
5.87403 14.0033 1.57412
9.14789 12.4419 1.61019
-6.10863 -4.45778 0.792609
5.97231 13.7235 1.5767
6.23292 13.653 1.57806
-6.97147 -4.42839 0.883347
8.76954 9.02026 1.34132
9.13993 10.1822 1.4882
7.33514 11.014 1.43828
5.83426 11.4916 1.40134
-6.30108 -7.41257 1.06338
10.2659 6.45192 1.34165
8.99217 8.13873 1.33706
7.31973 11.7004 1.52411
6.85436 11.6499 1.49456
5.36713 11.9184 1.45448
4.87974 12.1299 1.46298
4.71759 13.72 1.59636
9.86588 7.05419 1.35436
8.76063 9.31252 1.42883
5.39151 11.5364 1.43418
-6.84289 -6.72485 1.06785
6.87348 10.7286 1.43548
4.3315 13.2139 1.57188
9.75481 -3.19655 1.14461
-6.10537 -5.41509 0.944798
7.2897 -6.12036 1.0805
10.4128 5.71329 1.36233
-7.37957 -0.985556 0.853068
-6.25831 -5.35691 0.948201
5.24475 -5.55317 0.880044
5.07763 11.6468 1.47615
-6.8837 -4.55963 0.956776
4.45149 -7.25856 0.98473
10.405 5.14735 1.36235
8.884 7.88504 1.39456
-6.00309 -4.36896 0.865256
-6.48672 -5.27418 0.987624
4.0907 -7.86345 1.05414
4.96365 -5.84673 0.920169
10.164 4.75257 1.34514
8.519 8.27227 1.43841
5.2847 11.5133 1.54661
9.04312 6.26469 1.34706
8.01212 8.3384 1.44872
-6.4908 -5.74763 1.07926
3.70479 -7.56948 1.05552
8.67453 6.68846 1.37753
-6.4689 -5.34529 1.06204
9.08846 6.01158 1.39132
8.18269 7.13999 1.38568
8.11381 7.50726 1.41155
5.77444 -5.34312 1.01007
-6.97289 -4.44372 1.06134
8.10212 7.99959 1.47695
-7.35601 -1.04218 0.959885
-6.92355 -2.82656 0.976605
8.97339 4.10007 1.29212
8.4015 6.62817 1.40494
4.9959 -6.02504 1.02884
4.91405 -6.18951 1.04654
6.86872 -4.28177 1.07743
-7.13295 -1.71815 0.98356
-7.00964 -2.22 0.983005
-6.02681 -4.42338 0.99943
8.1348 6.65827 1.42525
8.60828 4.43879 1.3206
8.62991 5.16619 1.37393
8.0285 7.13829 1.4624
-6.8091 -3.73386 1.05443
8.85967 4.15874 1.33979
8.2643 5.83299 1.38534
-6.3991 -4.32981 1.05723
-5.95893 -4.52618 1.02194
5.36371 9.03874 1.45191
3.64759 10.0913 1.49039
-7.36627 -1.09274 1.03125
-6.90472 -3.92734 1.10237
4.94643 -5.54081 1.02652
5.22603 -5.39599 1.04261
7.46348 -3.53697 1.15506
3.39198 10.173 1.50286
8.40119 4.59802 1.35489
7.37499 -3.67813 1.16915
7.58712 -3.33495 1.18161
7.76207 -3.30578 1.19717
8.9371 2.81407 1.34872
4.83124 -5.63247 1.06667
7.35375 -2.85308 1.14842
-6.95864 -3.30021 1.12257
7.91854 -2.77975 1.22364
8.66534 -1.82021 1.29978
5.014 8.58475 1.4677
2.95828 9.45619 1.47431
7.73278 -1.88807 1.17318
7.23096 5.75873 1.37743
3.46153 9.5764 1.50548
3.19256 9.81511 1.52995
-7.36852 -1.04312 1.10343
-7.07374 -2.02284 1.09646
6.94961 6.29115 1.41544
-6.26318 -2.27169 0.999835
-7.2387 -1.37502 1.11224
7.94039 4.81839 1.41512
5.71409 7.36303 1.4143
5.29792 7.639 1.41503
5.06249 8.02281 1.43444
6.7593 -3.22558 1.13269
7.24636 -3.12474 1.20854
7.63643 -2.75561 1.23719
-7.3147 -0.732751 1.12263
-7.09634 -1.95421 1.13604
6.78893 -3.09278 1.15375
3.74852 -5.7846 1.06592
-7.0522 -2.07573 1.15251
-7.3443 -1.09262 1.1659
7.36269 4.77565 1.38619
-7.19705 -1.44319 1.16786
-7.26987 -1.30079 1.18498
-7.09652 -2.01874 1.19982
7.07133 4.76428 1.39199
-7.10015 -1.94516 1.20933
7.01105 4.86612 1.4177
6.61693 4.85344 1.36956
5.21033 6.24805 1.35544
4.67787 7.17947 1.4313
3.82718 7.9437 1.4659
-7.24764 -1.3732 1.23142
2.79057 -5.77316 1.08098
7.14333 4.42949 1.41609
6.51552 5.23994 1.41069
3.8725 -5.3637 1.11543
3.9355 -5.01953 1.0798
-7.27065 -1.25213 1.25154
-6.59788 -2.62505 1.20478
7.41702 2.84802 1.34766
7.03103 3.89179 1.3696
-6.41405 -2.75288 1.18754
6.77562 4.0993 1.35961
5.68263 -3.51975 1.15056
-7.39425 -1.03935 1.2913
-6.35652 -2.28029 1.16102
5.53533 -3.64794 1.14274
5.31881 -3.77393 1.14318
3.60045 7.16957 1.4115
-6.79848 -1.7349 1.23223
4.47939 -4.46682 1.11332
-7.09054 -0.914421 1.27358
4.72482 -4.45741 1.14954
4.33231 6.49854 1.39387
6.58671 3.47425 1.34495
6.62638 3.68297 1.36203
-6.44054 -1.50035 1.18942
3.60761 -5.32455 1.17002
5.08037 5.61591 1.38678
-6.15495 -2.18319 1.19691
3.41174 -5.15651 1.14992
3.39095 6.77794 1.41815
-1.69832 -5.78363 1.14493
6.44496 2.73204 1.33225
-2.14381 -5.72893 1.17587
6.30922 2.7961 1.3287
-2.78813 -5.37761 1.18696
-3.52118 5.34687 1.38696
4.47207 3.8947 1.35362
4.15068 -2.87845 1.17699
4.62878 -2.18635 1.23703
4.2005 3.29258 1.32223
3.70681 -2.92979 1.22376
4.01892 2.57503 1.33364
-1.44445 -4.12094 1.22254
-2.32263 -3.5819 1.21309
3.86051 2.36474 1.31179
-2.86032 3.52488 1.36081
-2.48234 -2.91836 1.18998
-2.37978 -2.93955 1.19493
1.84067 -2.8084 1.18078
1.8637 -2.78674 1.21081
1.9898 -2.52372 1.19725
-2.04289 2.8059 1.31976
2.80289 -0.555488 1.25894
2.7823 -0.336715 1.2407
-2.0908 -1.62021 1.21347
-2.07849 -1.45216 1.23852
-1.86372 -1.79717 1.28402
-1.99599 -1.13207 1.20492
-1.98747 -1.07097 1.23175
-1.94722 -0.880831 1.23194
-1.93152 -0.708763 1.2222
-1.93038 -0.701851 1.24941
-1.90667 -0.46991 1.22219
-1.87203 -0.345871 1.21938
-1.85691 -0.401364 1.22612
2.37728 -19.6798 -10.0027
-7.59703 -8.96925 0.464744
8.02726 -8.80957 -10.4791
8.27295 -8.63883 -10.5147
8.22442 -8.2992 -9.89647
6.96613 -11.9707 -11.4227
8.52697 -8.98475 -9.75338
7.85924 -8.94725 -9.14554
5.85672 -12.812 -10.7406
9.44018 -8.84621 -9.758
6.15478 -14.11 -11.5885
8.29747 -8.6896 -9.03331
8.02776 -9.18025 -9.11953
7.30049 -9.25641 -8.78316
5.91736 -14.1687 -11.2029
7.72786 -9.31734 -8.73474
7.86508 -9.12768 -8.67926
7.13677 -10.5922 -9.09337
6.82811 -11.0856 -9.22984
10.0687 -9.2069 -9.58215
6.54716 -11.1881 -8.87434
8.04256 -8.63796 -7.85926
7.36927 -9.29169 -7.88096
8.52655 -8.69196 -8.0933
7.73023 -9.48491 -8.03857
6.49562 -12.7905 -9.3673
7.94312 -9.1921 -7.92345
5.00619 -16.0494 -10.8131
-0.474771 13.9296 -8.9122
7.73698 -9.2555 -7.73561
7.34493 -10.8778 -8.35702
8.38824 -8.57672 -7.64306
10.8929 -9.63618 -9.22469
9.00087 -8.83001 -7.90785
11.7865 -10.0508 -9.70767
8.08287 -8.54654 -7.23708
4.04331 -16.8491 -10.6197
4.25297 -15.3902 -9.80389
7.85462 -9.37089 -7.32767
3.95483 -15.6362 -9.61764
11.4995 -9.84472 -9.06641
6.87289 -11.0908 -7.74747
7.78 -8.82838 -6.97079
5.49418 -14.0137 -8.89331
6.49671 -12.7221 -8.35986
8.37216 -8.60482 -6.99645
9.70204 -9.09443 -7.75398
2.79362 -11.807 -6.95467
5.48826 -13.9215 -8.4727
9.60926 -9.11908 -7.48874
6.62577 -11.0834 -7.27073
3.34789 -20.694 -11.7486
8.89075 -8.9511 -7.07237
12.2122 -10.2458 -8.93047
6.83187 -11.0191 -7.2228
4.68938 -14.6304 -8.49073
6.23052 -12.6391 -7.75176
0.895257 18.5917 -10.1323
14.6507 7.74169 -9.00309
4.20949 -14.2611 -8.03071
14.7549 -11.6757 -10.1426
15.0057 7.45679 -8.92526
14.0407 7.73612 -8.51762
4.77095 -14.8643 -8.29487
12.1015 -10.1656 -8.31712
1.81384 -20.4823 -10.5788
11.4327 -9.86643 -7.73673
2.08157 -20.2115 -10.3105
13.9891 -11.1039 -9.03385
0.00325028 14.2765 -7.16588
-7.27458 15.1202 -8.40929
10.6091 -9.61403 -7.19407
7.52379 -9.43697 -6.01315
-8.47873 16.0729 -8.78301
11.6601 -9.79262 -7.36999
10.5092 -9.5983 -6.83438
14.8122 -11.3559 -9.00245
16.7495 15.8669 -10.9606
7.49475 -11.0774 -6.37226
15.0427 7.43266 -7.87241
13.9505 -11.0467 -8.31676
-11.902 17.0433 -9.52493
15.8687 -12.024 -9.09569
9.78549 -2.45352 -4.63414
-9.10402 -1.6551 -4.20791
18.7872 18.1293 -11.7799
3.91682 -9.10735 -4.49971
-10.1709 16.6148 -8.74894
-5.33837 4.43924 -3.12227
6.868 -11.3069 -5.95572
9.43956 -9.09788 -5.78227
16.0508 7.32218 -7.78295
-6.60671 15.0043 -7.16109
1.50177 -18.7557 -8.13804
-11.1261 16.9285 -8.72267
9.59097 -3.37359 -4.35473
7.02729 -11.061 -5.53979
15.8519 -11.9829 -8.31819
14.6789 7.75964 -6.96415
18.8231 19.584 -11.3518
1.01984 -22.5976 -9.41748
-4.51785 13.8179 -5.99039
-9.9255 -1.11016 -4.1392
14.1163 7.7947 -6.58383
20.5397 22.3427 -12.37
-13.0499 2.44559 -5.40873
15.1449 7.19579 -6.78108
-5.20092 14.2518 -6.10222
3.64095 -8.81481 -3.79616
12.4135 -10.2876 -6.31591
13.9656 -11.0271 -6.95413
19.3826 21.6931 -11.284
18.8488 5.81233 -7.64826
1.54112 19.2867 -7.50162
-8.68972 15.6576 -6.90429
11.4168 -10.0663 -5.85468
19.3228 22.4026 -11.3953
0.682188 15.3928 -5.90044
-1.65895 12.7273 -4.93806
2.71502 -12.25 -4.81409
-8.76409 -1.25173 -3.36508
0.702524 -23.6213 -8.91732
15.2108 -11.6568 -7.22745
9.49962 -3.46631 -3.81458
-14.5015 17.8777 -8.58039
-7.88834 -3.50417 -3.16586
1.09598 -10.4583 -3.86749
7.03828 -11.2526 -4.85376
14.2254 7.943 -5.88192
-8.28958 -2.84612 -3.15169
0.78921 15.3047 -5.46434
-3.93588 13.3098 -4.91103
5.74436 -11.0002 -4.3673
15.864 -11.9891 -7.043
19.1237 5.90641 -7.04135
2.11893 20.6977 -7.29589
21.7463 26.2896 -11.8561
-14.796 18.2646 -8.06934
2.97435 -13.3518 -4.70826
-8.84119 15.9713 -6.23952
18.5179 -13.1159 -7.77775
-5.01411 14.4057 -5.18764
1.35934 -22.2245 -7.37862
1.76262 19.6643 -6.52179
1.44844 -10.3202 -3.44425
39.2944 -20.0865 -14.483
6.17447 -10.0562 -3.7774
17.6003 -12.4275 -6.90096
2.12264 20.7311 -6.63194
-13.2754 17.7235 -6.98303
1.44986 -22.699 -7.08706
-4.28037 14.6513 -4.74417
-10.8858 16.4944 -5.99069
-2.74063 -27.8944 -8.51552
3.0659 -9.47481 -3.02663
0.793587 -24.2417 -7.29428
19.1633 -13.6021 -6.97339
17.6369 5.57964 -5.42781
-7.83947 15.1765 -4.97391
4.23146 -10.5003 -3.29029
3.62384 -10.5776 -3.18242
4.24535 -10.9557 -3.29838
-13.2266 17.6794 -6.14301
-9.22666 15.7732 -4.97239
-13.2236 1.98226 -3.66643
-16.8121 19.316 -6.95451
26.3784 -17.3654 -8.55765
-3.89676 -27.7861 -7.52555
3.78477 -9.14997 -2.64943
-9.73699 16.1866 -5.0291
47.4651 -13.8589 -13.1121
10.5459 -9.40587 -3.74069
-6.40273 14.8251 -4.21965
-14.3247 17.9602 -6.02962
-7.94883 -37.6099 -10.0133
4.96096 -9.57692 -2.79188
6.56369 -10.5046 -3.19574
-7.15847 15.1935 -4.27039
-10.4861 16.3329 -4.96043
-9.8154 -38.897 -9.97677
-8.96188 -38.6887 -9.69802
10.9556 -9.65775 -3.59135
-7.91247 15.3572 -4.19021
-11.6494 16.9327 -4.9764
14.6422 7.73448 -3.93044
4.04747 -9.25439 -2.39074
15.2466 7.55088 -4.0097
3.74768 -8.91088 -2.27256
-6.4877 -32.325 -7.63483
5.62865 -9.88851 -2.63735
44.9275 -10.8723 -10.7439
-12.725 17.3335 -4.95068
14.8993 7.63048 -3.78727
43.9588 -9.50942 -10.1886
-9.72321 16.1966 -4.22936
3.71572 -9.2561 -2.17012
43.1175 -11.0612 -9.71558
15.1586 7.52018 -3.62367
-10.5659 16.4937 -4.19658
-21.8129 -34.2919 -8.73145
4.82291 -9.75508 -2.34785
45.2248 -10.5892 -9.93798
-14.6909 18.2017 -4.92216
-32.1053 -23.6966 -8.45811
41.8455 -14.0013 -9.33528
14.8842 7.86513 -3.51096
-35.2549 23.8411 -8.7034
-8.30631 -33.9752 -7.08327
3.95466 -11.5141 -2.44742
44.7481 -9.65469 -9.31107
11.7942 -9.76273 -3.07063
43.1399 -11.1055 -8.87705
-26.8248 20.2426 -6.67101
6.14755 -10.2896 -2.38654
46.1225 -10.7856 -9.25143
-12.709 17.3408 -4.15566
-26.6968 20.9219 -6.59159
16.0953 12.1747 -3.8574
-6.83193 15.0396 -3.17192
-33.0007 -23.8697 -7.79588
-31.5123 -24.6763 -7.69194
-35.4809 23.643 -8.02948
-33.5109 -22.1059 -7.58663
18.0601 5.678 -3.53362
-34.038 -20.5375 -7.42431
-14.9324 -43.0515 -8.48924
3.7726 -9.82643 -1.98205
-24.2942 -60.4833 -12.1226
-16.6607 -44.8843 -8.75753
3.97724 -9.64002 -1.88114
13.0882 -10.2271 -2.99563
45.5979 -10.1468 -8.39096
-14.6504 18.1704 -4.17128
-26.8456 21.0553 -6.02404
15.1225 8.00512 -2.98029
-30.1832 -26.3025 -6.9783
43.0001 -11.0143 -7.62113
-7.88059 15.1815 -2.89823
-9.68021 17.8279 -3.42776
44.8649 -10.5613 -7.79407
-30.5697 22.267 -6.3677
-30.1717 -23.2124 -6.36276
-20.6945 19.7874 -4.76415
-32.1711 22.72 -6.571
15.953 -11.903 -3.26189
-10.2685 16.3026 -3.0658
-43.1159 25.3708 -7.93731
-31.5386 -23.693 -6.31525
-33.3715 -23.0186 -6.3853
3.43494 -9.50008 -1.57997
-23.644 20.1978 -4.80289
16.9502 -11.9828 -3.21558
-11.1035 16.6182 -3.037
46.2626 -10.8422 -7.21213
-22.6935 -52.5907 -8.6552
-29.3337 21.9996 -5.48296
-38.18 23.8062 -6.67884
-31.5585 -24.4969 -5.96039
44.8638 -9.61405 -6.83192
-33.6451 -24.3325 -6.06718
-49.6435 27.718 -8.17586
-35.4398 -23.6388 -6.13219
6.74324 -12.9406 -2.11904
-36.123 -20.9949 -5.9133
-6.89296 15.1975 -2.31814
-13.0396 17.6026 -3.04841
-32.001 23.0394 -5.51203
-24.4296 -54.4058 -8.22409
-16.0153 -46.8185 -6.80543
36.8508 -12.2551 -5.32618
-23.061 20.2651 -4.08527
-32.1863 -24.1039 -5.25002
-30.5515 -25.0635 -5.22479
-33.8124 -23.2867 -5.25917
7.45341 -9.44061 -1.55543
43.0547 -11.021 -5.70278
-33.3444 22.6902 -5.12812
-29.7215 -15.8597 -4.29443
6.04452 -7.82808 -1.2634
45.0118 -10.5796 -5.8622
-30.9334 22.7343 -4.79069
14.5348 -11.3238 -2.26379
-29.8665 22.4946 -4.52342
-32.4442 22.9351 -4.78408
-10.2966 16.3766 -2.23537
-31.4381 -22.6107 -4.55621
13.0154 -10.5267 -1.95967
35.9487 -11.879 -4.38097
6.35098 -10.3569 -1.39654
11.2113 -9.71537 -1.67155
16.4829 -12.2723 -2.31581
-11.0064 16.5037 -2.1968
6.77164 -12.6171 -1.56931
11.6202 -9.70401 -1.67668
42.8932 -10.9991 -4.8616
-38.8433 24.2193 -4.91318
45.0741 -10.5325 -4.98395
14.948 -11.4783 -2.00517
-12.889 17.4132 -2.2255
14.8073 7.83733 -1.67434
14.0332 -11.0704 -1.7856
-13.9355 17.823 -2.19461
6.41317 -12.2901 -1.33461
9.4163 -8.93175 -1.25452
17.0563 -12.4717 -2.06228
-28.832 -13.7774 -3.01047
