ply
format ascii 1.0 
element vertex 1875
comment /media/mkaihara/Seagate Backup Plus Drive/model_iterations/model_72.ply
property float32 x 
property float32 y 
property float32 z 
end_header 
-7.11156 -1.95464 1.14493
-6.92736 -2.7889 1.16108
6.79383 5.5106 1.37224
-7.3649 -1.09717 1.16352
-7.15253 -1.82627 1.15657
-7.05436 -2.06982 1.15234
-7.12909 -1.87463 1.15722
-6.90243 -2.93741 1.17802
4.78866 7.42503 1.40518
3.4464 -6.03219 1.10942
-7.28487 -1.30105 1.18594
3.52829 -5.70807 1.08111
3.56524 -5.61356 1.07052
7.06082 4.75945 1.38768
4.64302 7.34852 1.41475
-7.07914 -2.02581 1.20047
-7.10128 -1.9492 1.20883
6.95635 4.82036 1.3998
3.80002 7.89424 1.45052
6.05222 -3.31875 1.1499
6.62483 4.86676 1.37073
4.64598 7.14077 1.42113
3.83659 -5.30084 1.09986
7.09759 4.41972 1.40797
7.46946 2.85617 1.3516
6.31123 5.27593 1.39431
-7.28848 -1.25736 1.26
6.74695 4.07917 1.35415
-6.45676 -2.77452 1.19954
5.50926 -3.62955 1.13338
5.69043 -3.51838 1.14874
2.74063 7.81018 1.43092
-7.3826 -1.04096 1.29308
5.33364 -3.78333 1.13996
-6.31662 -2.26172 1.16387
-6.27691 -2.41888 1.1783
4.28132 -4.66489 1.10729
4.49417 -4.47736 1.11287
4.59179 -4.44914 1.12174
-6.80864 -1.73452 1.23818
4.32123 6.48305 1.38991
-7.16904 -0.92952 1.29272
-6.14937 -2.25969 1.16742
6.63482 3.68936 1.361
6.0944 4.35781 1.35908
3.60918 -5.32819 1.1704
5.13937 5.67602 1.40064
2.50473 7.16733 1.42612
6.48188 3.05067 1.35463
-1.70645 -5.78286 1.14146
6.42594 -1.38589 1.24734
6.27085 2.77687 1.32051
6.21662 2.38082 1.32825
-4.46649 3.95253 1.40298
4.32227 3.53205 1.33516
4.20822 3.28997 1.32245
4.66509 -1.67772 1.2449
4.81848 -1.38089 1.25399
-2.15483 4.82913 1.322
3.72788 -2.95367 1.22272
3.67399 -2.55016 1.19395
3.40767 -2.96264 1.22622
4.00042 2.56693 1.32833
-2.59378 -3.53336 1.25093
-2.32512 -3.56929 1.21619
3.75148 2.05593 1.30062
3.72825 1.9784 1.30009
-2.85149 3.49704 1.39277
-2.29524 -2.4182 1.18722
1.95736 -2.78381 1.21401
-2.12864 2.77464 1.32919
-2.0333 2.76264 1.33535
2.25243 -1.87103 1.22621
2.38165 -1.49914 1.22309
-2.01863 1.88005 1.29898
-2.06331 -1.4423 1.22835
1.45131 -2.0724 1.24693
-1.99136 -1.08726 1.21448
-1.92401 -0.70737 1.22016
-1.92577 -0.703169 1.24577
-1.95516 -0.34424 1.22931
-1.89206 -0.564465 1.23014
-1.89169 -0.530688 1.23524
8.20937 -8.68825 -7.45586
12.0889 -10.2561 -8.77368
-8.8454 15.7915 -7.02438
20.3447 24.7738 -11.5147
-8.81949 -2.52576 -2.58506
-34.8283 -23.2654 -7.73697
-34.4161 -22.5073 -6.06738
-34.1468 -23.2056 -6.13089
-31.4674 -20.1812 -2.81116
9.2639 -8.82364 -0.390908
-7.80408 16.8217 -0.457483
-29.6676 -11.4804 0.733015
-6.93128 -8.28406 0.461469
16.4879 23.6758 1.5677
11.2896 15.8773 1.61149
-6.70399 -6.67699 0.884899
4.18243 12.1358 1.47919
8.6869 9.04864 1.4673
7.96878 -8.76009 -10.375
8.82757 -8.53541 -10.4922
6.95343 -11.9315 -11.5087
6.8692 -11.345 -10.8909
8.14876 -8.26103 -9.52848
7.01884 -12.024 -11.3216
7.06281 -10.9681 -10.4517
7.99852 -8.37394 -9.19977
6.72453 -11.2799 -10.2846
6.44236 -11.6923 -10.209
7.75406 -8.84692 -8.96847
6.20246 -14.31 -11.8029
8.2945 -8.6967 -9.09697
6.29712 -11.9043 -10.1714
6.14492 -12.0835 -10.109
7.48768 -9.44094 -8.9971
7.90608 -9.05228 -8.92315
10.4569 -9.4404 -10.4779
6.11812 -14.11 -11.3679
6.10002 -13.6661 -11.0035
6.12867 -12.572 -10.2874
9.18925 -8.8189 -9.34333
9.27698 -9.06538 -9.46048
5.86251 -12.5007 -10.0304
9.35284 -8.98217 -9.25465
6.85762 -11.1197 -9.27202
5.61344 -12.9657 -10.0002
9.68232 -9.07214 -9.40342
7.60545 -9.33988 -8.46865
9.98689 -9.17724 -9.5288
10.9057 -9.48342 -10.1412
11.4265 -9.68654 -10.0603
8.38055 -8.6038 -7.952
7.42742 -9.2946 -7.8614
8.16332 -8.71404 -7.89253
7.62431 -9.34746 -7.89199
7.83308 -9.39756 -7.84114
8.31643 -8.53116 -7.61627
0.360837 15.8792 -10.1336
7.524 -9.31964 -7.62251
10.8976 -9.59571 -9.23232
7.22137 -10.6954 -8.16796
8.15136 -8.49344 -7.42421
4.61172 -15.4031 -10.1123
8.70952 -8.69672 -7.6152
7.91769 -9.02831 -7.40723
4.04729 -18.0161 -11.3745
8.19391 -8.62357 -7.27241
4.08554 -17.3071 -10.851
0.146663 14.8852 -9.05695
6.65065 -11.2563 -7.96027
7.73905 -9.26389 -7.32436
10.1138 -9.30159 -8.33784
6.81681 -11.2454 -7.89468
8.05631 -9.19974 -7.34056
11.2533 -9.68342 -8.87636
5.39833 -13.8515 -8.81724
7.73121 -9.26176 -7.15486
9.34374 -9.02656 -7.69839
6.89825 -11.1091 -7.73971
7.97933 -9.12344 -7.11211
9.74366 -9.17899 -7.80147
14.8138 7.40222 -9.61706
8.6615 -8.82517 -7.14531
6.92887 -10.9585 -7.45154
2.63895 -11.2086 -6.62275
7.8558 -9.067 -6.87107
9.59588 -9.1314 -7.52466
10.7804 -9.48444 -8.1002
3.27926 -20.5999 -11.7307
6.79742 -10.9766 -7.23819
10.0952 -9.28122 -7.67981
12.3184 -10.3362 -9.01798
9.23275 -9.00011 -7.20493
4.61291 -14.2851 -8.36919
7.99894 -9.21074 -6.7754
14.7359 7.53368 -9.08538
9.6879 -9.09813 -7.29919
0.83766 17.4654 -9.54793
2.7415 -19.8587 -10.9312
11.1157 -9.63253 -7.98627
4.22965 -14.4103 -8.12988
14.6495 7.66091 -8.904
15.0317 10.3781 -9.80662
13.9868 7.71617 -8.53468
10.9358 -9.6049 -7.7401
13.2376 -10.7799 -9.08152
3.04377 -19.3347 -10.2895
11.339 -9.81056 -7.62953
2.1683 -20.3834 -10.3462
10.2473 -9.32957 -6.96877
14.238 -11.2617 -9.11481
13.7745 -11.1413 -8.86936
10.9911 -9.64037 -7.2839
7.50236 -9.33015 -5.92909
3.56178 -8.46514 -4.52612
-8.71704 -1.91395 -4.38796
2.22366 -20.1688 -9.95219
4.53014 -9.2957 -5.05737
0.404506 13.6555 -6.68709
7.60129 -9.26219 -5.84701
-8.54966 16.3173 -8.92245
-9.21927 -2.43722 -4.59484
14.9557 -11.5493 -9.08097
19.313 5.5258 -9.60614
-10.3373 -2.55937 -5.03714
1.90911 -20.5574 -9.81731
17.1285 16.0959 -11.1313
7.57347 -11.1968 -6.37854
19.9611 5.38783 -9.73624
13.9966 -11.0814 -8.30202
2.92598 -17.3161 -8.16613
19.2904 5.70755 -9.29317
17.785 -12.9612 -10.1657
9.84923 -2.48777 -4.69358
20.2147 5.12362 -9.62116
17.2526 16.2234 -10.9118
1.81005 -20.231 -9.29589
9.65933 -9.0324 -6.05572
-9.22938 -1.67523 -4.27799
9.43798 -3.46309 -4.57868
6.70389 -11.3015 -5.97706
9.89638 -2.61396 -4.64267
19.1834 5.84958 -9.02854
17.6316 17.4884 -11.1629
9.35437 -3.08142 -4.43306
15.385 -11.8386 -8.71199
7.02685 -11.5453 -6.04555
7.14172 -10.9023 -5.80955
9.54391 -3.39926 -4.51468
-10.0789 16.5206 -8.61627
17.5944 -12.8407 -9.67957
19.4688 5.60841 -8.97969
16.0553 7.28234 -7.80629
17.7373 17.9153 -11.1485
16.3764 -12.1795 -8.99539
-11.3489 17.2583 -9.0795
-6.61002 15.1072 -7.23059
-5.25193 4.92615 -3.13762
20.0636 5.44759 -9.03806
9.54286 -3.39954 -4.37183
18.1267 18.372 -11.0918
15.7753 -12.14 -8.56585
14.82 7.40983 -7.07094
3.83536 -9.29441 -4.27202
-11.2704 17.1419 -8.68554
6.93432 -10.8908 -5.44435
-13.6364 3.34192 -5.9154
0.743137 -22.4078 -9.44804
15.7628 -11.9351 -8.26881
-5.18273 5.70719 -3.2257
0.998792 -22.2717 -9.34545
1.23136 -20.7857 -8.72318
14.1312 7.57889 -6.70646
18.4524 19.2293 -11.1342
3.77987 -8.9481 -4.05088
14.7318 7.70893 -6.92052
17.8262 19.0382 -10.8225
-9.53342 -1.09417 -3.96125
4.00509 -8.49787 -3.84901
13.9982 7.72931 -6.56379
6.83379 -10.9708 -5.28442
-13.6741 2.5544 -5.6907
-8.03833 15.5734 -7.12241
19.1443 20.802 -11.4521
15.0332 7.22335 -6.71954
-5.31773 14.5241 -6.20179
13.9168 -11.0025 -6.94887
1.52955 19.2019 -7.48066
-8.83348 15.9545 -7.08739
18.9313 5.77337 -7.66831
-1.76019 13.3416 -5.21255
5.29028 -9.38448 -4.15464
-2.3956 13.5665 -5.29155
19.4646 22.5164 -11.4115
4.65714 -8.50934 -3.68398
19.3557 5.55276 -7.66211
0.877771 -26.5981 -10.1133
14.8635 -11.4539 -7.06211
19.9121 5.39455 -7.72086
9.42883 -3.43525 -3.75176
0.533898 -22.7467 -8.47879
3.24409 -10.7802 -4.20604
20.0574 23.3347 -11.4258
0.909875 -8.72451 -3.25295
13.9916 -11.0807 -6.58142
20.3181 5.16768 -7.70811
17.7917 17.5801 -9.13957
-13.0851 2.2924 -4.82981
20.6984 24.7169 -11.6916
2.28397 -13.2424 -4.84141
13.0037 -10.5159 -6.01806
0.796033 15.419 -5.5239
-8.2138 -2.803 -3.10431
0.410043 -21.9033 -7.83083
-4.25548 13.9682 -5.19444
0.638452 -21.9677 -7.80977
15.8086 -11.9397 -7.02193
-15.923 18.4084 -8.57837
5.92133 -11.325 -4.49358
-11.1522 16.83 -7.05225
0.0932125 -18.5532 -6.52166
14.2275 -11.2756 -6.34798
20.2731 5.3391 -7.3172
0.657916 -23.0945 -7.97882
-5.06719 14.7115 -5.33189
3.63691 -8.44279 -3.16444
4.87244 -9.02559 -3.51483
-14.6831 18.2294 -8.01271
2.27355 -10.8799 -3.80915
-8.99165 16.3118 -6.34981
3.02181 -13.6728 -4.77441
-15.164 18.6124 -8.13936
20.0916 5.46261 -6.99799
21.8704 27.0548 -11.6259
35.8181 -20.2195 -13.7458
-5.36508 14.2314 -5.05199
1.90948 20.6809 -6.89062
1.26705 -10.2465 -3.41378
-5.3113 14.6262 -5.0547
-12.7419 17.4441 -7.00836
18.4956 -13.1798 -7.37559
3.55832 -8.66914 -3.00452
6.21235 -10.1009 -3.80045
2.3125 -11.004 -3.57832
-4.6059 -34.5917 -11.0909
-1.14543 -23.9857 -7.64323
14.9676 10.3083 -5.73506
-13.374 17.7968 -7.03716
-18.2248 19.6572 -8.42704
6.95081 -11.0774 -4.04327
1.38647 -21.9319 -6.79805
-2.5955 -27.6373 -8.52008
7.12705 32.9093 -10.274
0.771069 15.0087 -4.56438
-11.2733 17.0097 -6.15113
-2.72558 -26.7562 -8.09869
-14.5257 18.1619 -6.93969
-5.35086 -35.0812 -10.5655
0.840134 -25.1484 -7.52332
-5.45813 15.0136 -4.75262
2.07465 20.6294 -6.10802
-21.5533 20.0968 -8.69481
18.1563 5.77773 -5.60809
-4.34454 14.5946 -4.47796
-8.02422 15.5681 -5.13913
4.2522 -9.13562 -2.96177
4.63069 -11.6032 -3.65312
-12.6617 2.23053 -3.6951
-33.5417 -47.5119 -16.7342
-15.3883 18.5123 -6.92075
6.9471 -11.0647 -3.76144
2.5621 -9.54 -2.80673
12.9067 -10.4471 -4.72561
-8.4644 -2.4634 -2.49967
20.9101 26.9669 -9.6672
-8.59234 -2.26462 -2.51089
-2.57961 -26.3174 -7.42016
-13.0701 2.00284 -3.68228
4.38197 -11.3144 -3.3678
-9.42648 16.2116 -5.14906
-13.2218 17.6339 -6.05424
-5.46013 14.5738 -4.25442
-8.63782 -41.9438 -11.7158
-21.7487 20.2956 -7.99757
-9.85203 16.3372 -5.11329
-27.0654 20.7912 -9.08001
11.3951 11.4687 -4.26548
4.32097 -11.2801 -3.20017
46.7241 -13.5827 -12.8906
-8.34053 -39.3573 -10.5734
4.08577 -8.64948 -2.51885
11.1512 -9.91852 -3.90422
-14.634 18.3232 -6.09804
6.52851 -10.4113 -3.1808
3.17539 -9.63815 -2.62346
-30.6174 -44.8422 -14.0201
-4.41944 -28.985 -7.58505
3.53705 -10.3606 -2.82299
4.06442 -9.37848 -2.62723
15.5642 -11.7031 -4.96881
-7.24813 15.4422 -4.31844
-32.0511 -42.7441 -13.5472
4.30601 -11.1295 -3.02041
4.2523 -7.6993 -2.23851
6.52707 -10.6468 -3.11458
44.4406 -13.4362 -11.5758
-28.6451 21.6116 -8.87178
-11.6738 17.1511 -5.11513
-28.0081 -40.8574 -12.179
-10.0619 -39.6019 -10.0779
-24.7945 20.8254 -7.95759
4.34463 -10.3193 -2.75103
-12.2135 17.4946 -5.17374
-7.94298 15.4767 -4.19349
10.2587 -9.2535 -3.30807
39.9867 -13.2826 -10.0831
15.0735 7.53839 -4.01196
-6.41363 -36.7264 -8.88015
3.96216 -9.07957 -2.34739
46.5978 -12.4715 -11.449
-12.3956 -45.6385 -11.202
4.19645 -8.97891 -2.36449
3.8514 -11.0465 -2.75731
4.90373 -8.68498 -2.34637
-12.9372 17.6305 -5.08969
10.9883 -9.62961 -3.33944
-6.27371 -31.812 -7.39773
-27.5001 21.2398 -7.87692
41.2112 -9.01257 -9.57345
-30.9003 22.4353 -8.56177
-35.7997 -23.4604 -9.59018
40.4138 -12.4932 -9.49798
5.4479 -9.46266 -2.43789
-12.4505 2.84093 -2.80208
40.2871 -11.806 -9.27582
42.2405 -12.0524 -9.6644
-5.44947 14.2989 -3.34643
13.3595 -10.7502 -3.77457
37.7885 -12.144 -8.72613
-23.6786 20.6372 -6.8135
-30.4844 -75.1556 -17.5967
4.30369 -9.68659 -2.29865
4.53355 -9.16898 -2.2094
-14.7573 18.3862 -5.03528
-31.3458 22.769 -8.273
-32.2388 22.8787 -8.45086
-29.1316 -77.2893 -17.7028
-10.822 16.9104 -4.25758
-8.57959 -36.4182 -7.95541
3.18582 -9.67174 -2.17152
3.96026 -9.81457 -2.25667
45.3907 -10.5238 -9.94662
14.9064 7.46637 -3.53421
-15.3405 18.8843 -5.15159
5.15793 -9.04422 -2.18748
26.2878 38.0342 -9.66068
14.9453 7.82157 -3.50186
-30.4375 -23.507 -7.97771
-34.2897 -87.9196 -19.5354
-11.587 17.0723 -4.19332
-15.8069 18.6891 -4.9835
-35.6574 23.9358 -8.72704
44.0501 -9.6082 -9.1944
-13.5267 -43.5246 -9.26234
4.12976 -9.71998 -2.14877
11.5808 -9.62681 -3.06411
-12.1401 17.4221 -4.23932
-20.4489 -58.6875 -12.4193
-13.2044 -41.0174 -8.53034
4.0637 -9.90654 -2.12012
-34.4556 -23.5604 -8.22819
-27.0533 21.2326 -6.76883
-33.4764 -23.9462 -8.02298
-6.97654 15.4169 -3.28517
-27.2943 -64.1321 -13.537
-33.8833 -22.5571 -7.84383
3.43096 -9.34902 -1.92309
45.4713 -10.5354 -8.96313
-12.8946 17.6055 -4.17216
3.98371 -9.33217 -1.93647
-36.8056 -22.3567 -8.15159
-21.5523 -35.0111 -7.81846
-15.9118 -45.9111 -9.19303
37.6219 -12.4106 -7.48935
-36.4323 24.469 -8.21354
-34.0249 -23.4983 -7.76777
-32.9674 -24.1203 -7.66773
-21.8131 -54.0393 -10.9642
-17.234 -46.8118 -9.25219
3.81634 -9.1976 -1.83935
42.2273 -11.381 -8.12158
5.74968 -9.6994 -2.06654
-25.1274 -56.9769 -11.3998
-20.8957 -51.864 -10.1124
-14.7248 18.3549 -4.17283
-31.4059 -25.3296 -7.17164
-20.4949 -27.3101 -6.10571
-39.909 25.1831 -8.32635
-27.064 21.2504 -5.98933
-34.5164 23.6193 -7.26203
3.9034 -10.0343 -1.86704
4.76698 -8.60375 -1.70939
13.9655 7.49982 -2.73378
14.0377 8.05541 -2.77168
-31.1969 22.6859 -6.61293
41.9094 -11.857 -7.41532
41.7112 -10.8028 -7.33513
-31.5631 -25.0671 -6.83724
-21.296 20.2817 -4.93869
-20.8538 -51.834 -9.43956
14.8187 7.42709 -2.77971
-32.0793 22.7102 -6.56561
-24.1362 -57.5444 -10.3103
43.2143 -11.6416 -7.2747
-10.4662 16.6159 -3.1693
-21.1523 -52.4752 -9.02282
-35.2396 -24.3261 -6.74736
-23.0203 20.2253 -4.79852
-24.4408 20.8641 -4.9807
-40.6203 24.5942 -7.35848
-11.3435 16.9778 -3.15249
3.46711 -9.51529 -1.56632
3.8626 -10.2143 -1.69096
-7.70972 15.6376 -2.66352
-31.4317 22.8768 -5.94279
-32.0677 -24.7682 -6.16126
-28.2132 -26.3902 -5.85231
41.8973 -10.892 -6.58037
44.5098 -9.69708 -6.94034
-6.61863 14.7425 -2.41845
9.82092 -5.14789 -1.64569
-33.8177 -24.3912 -6.20918
10.1775 -9.15065 -2.03968
44.6479 -10.3287 -6.8059
-37.022 -24.645 -6.54532
-31.8238 -26.2495 -6.03439
-12.9278 -42.834 -6.58263
16.8673 -12.2034 -3.04975
-25.6658 21.1314 -4.83158
-25.2926 -56.6707 -8.94204
-7.70582 15.4343 -2.46719
-12.8448 17.5133 -3.09684
6.02291 -11.5068 -1.856
-13.5543 18.1167 -3.17854
-35.1236 23.7267 -5.95927
6.74737 -11.0215 -1.80631
37.3421 -12.3236 -5.53094
-31.451 -25.2017 -5.62459
-33.4032 24.0052 -5.69849
-21.0363 -50.7009 -7.58104
44.7972 -10.0216 -6.3301
-6.9531 15.3776 -2.30676
-23.2605 -60.7064 -8.83068
7.7412 -9.36826 -1.63097
-14.1505 18.068 -3.094
13.187 -10.5176 -2.28244
-22.4584 20.4286 -4.08258
41.8191 -10.8123 -5.7347
44.5253 -9.75284 -6.03334
-22.8404 20.0997 -3.97861
-33.0026 -24.6953 -5.3838
-15.051 18.4306 -3.07694
-34.4278 22.9787 -5.37385
-38.6826 -16.3333 -5.42139
7.00518 -10.4181 -1.61087
10.744 8.79637 -1.7827
-34.1272 -23.5182 -5.30378
-31.8053 23.2185 -4.98137
-35.9205 -22.4148 -5.30688
41.6861 -10.7807 -5.38862
6.7849 -10.3507 -1.54656
-7.74365 15.489 -2.14455
-25.2861 21.2322 -4.04315
-33.7946 23.8173 -5.10003
6.28161 -12.0474 -1.65532
44.4784 -9.48935 -5.57075
14.9596 7.83746 -2.03028
-18.2962 -44.3124 -5.78049
7.07488 -10.5148 -1.52603
-20.6544 9.15374 -2.67394
-14.6134 -44.2048 -5.47398
-32.1536 -24.7899 -4.74727
-31.6351 -25.3 -4.74008
41.7666 -11.188 -5.08221
11.211 -9.6547 -1.71418
-30.2234 22.9167 -4.36387
6.63104 -10.8044 -1.45137
7.47958 -9.20876 -1.35709
11.562 -9.70601 -1.71467
9.43985 -4.60519 -1.18936
14.9384 7.6764 -1.89265
-10.4603 16.6527 -2.21965
-32.5654 23.7957 -4.51846
38.6271 -12.7156 -4.56069
9.34303 -9.00982 -1.43603
-11.1817 16.7702 -2.19136
6.77701 -12.759 -1.56509
44.6184 -9.69714 -4.95016
10.7416 8.82698 -1.49816
16.7226 -12.422 -2.23594
41.9599 -10.8826 -4.64511
9.60457 -8.96517 -1.39203
8.36864 -8.45366 -1.24618
-31.1917 -24.9606 -4.15976
-30.9168 -62.0131 -7.22838
14.9355 7.49032 -1.70691
-32.0924 -24.7453 -4.15783
-12.9899 17.7079 -2.23012
-12.9048 17.2894 -2.14462
10.1913 -9.07358 -1.3368
-21.3482 -54.2164 -5.71223
6.30203 -12.0687 -1.31788
16.593 -12.1397 -1.97642
41.8494 -11.2455 -4.15404
-31.4815 -63.636 -6.74893
-21.3432 -56.0107 -5.69217
-23.5532 20.6016 -2.92536
45.3086 -10.0794 -4.33564
9.70173 -8.97337 -1.22342
39.4477 -13.0128 -3.87102
-15.1738 18.6006 -2.17402
-29.9009 -13.6328 -2.99542
-33.1319 -64.5881 -6.69081
15.8127 -11.8356 -1.79691
8.62451 -8.71537 -1.11036
12.8624 -10.6172 -1.45244
44.8981 -10.4065 -3.94839
9.38787 -9.01452 -1.09412
10.932 -9.62702 -1.22448
-34.5543 23.7301 -3.48824
16.7922 -12.2455 -1.72155
-17.259 -44.911 -3.85358
14.6442 -11.4508 -1.48251
-11.8979 -33.3087 -2.79168
-30.1546 22.9282 -2.92955
-33.4762 23.6621 -3.16473
-23.2086 -53.0146 -4.46777
-51.8802 28.2354 -4.47272
-21.6072 20.3357 -2.15845
-33.7062 23.8414 -2.9921
16.3305 -12.2021 -1.49144
41.8749 -11.2057 -3.15838
-40.4504 -76.5359 -6.24732
13.9401 -11.0294 -1.27226
-15.8379 -42.0136 -3.09893
10.747 -9.59777 -0.987275
-23.5777 20.6444 -2.11654
12.8408 -10.5956 -1.11453
17.8942 -12.9785 -1.47388
15.9946 -12.098 -1.32461
-14.934 -41.4059 -2.8473
43.6146 -11.3431 -2.81717
-32.6716 -66.1979 -4.50489
35.6508 -8.6489 -2.25158
42.7989 -9.79594 -2.69569
6.032 -13.0389 -0.85882
30.7177 -20.3258 -2.20444
-9.94536 16.6023 -1.13786
-15.8347 -41.306 -2.51894
16.5599 -12.376 -1.16092
-9.71555 -12.5947 -0.871651
14.9259 7.65753 -0.906868
13.8675 -10.9775 -0.947204
-12.9122 17.4979 -1.13592
-16.7502 -41.5167 -2.37765
14.8203 7.79296 -0.82051
-16.5828 -42.3878 -2.23339
-14.2911 18.1139 -1.10341
9.55102 -9.00915 -0.602254
-24.5267 -56.2614 -2.77737
12.4243 -10.2137 -0.745735
-16.3231 -45.502 -2.14636
-17.5135 -43.1498 -1.99384
6.83726 -12.625 -0.637094
-14.1862 -43.244 -1.93876
-53.323 28.9989 -2.45868
18.2747 -13.1291 -0.913373
16.7498 -12.4501 -0.812934
-42.7467 -82.9675 -3.52139
-18.6054 -48.7896 -1.92332
-34.0079 23.3666 -1.50893
42.3517 -10.9125 -1.57507
-35.3782 -70.3735 -2.63557
-26.4491 -57.9632 -2.14542
20.0104 23.143 -1.01544
-21.6505 20.2885 -0.966588
8.09009 -14.2784 -0.551309
9.4075 -8.98091 -0.421644
11.2775 -9.92822 -0.488467
18.5285 -13.1011 -0.745941
34.6438 -13.0665 -1.22897
21.7741 26.3574 -1.09578
-27.5546 -13.8212 -0.966152
-23.126 20.5937 -0.943542
-32.036 22.6895 -1.22492
-25.5531 -58.7473 -1.98448
-14.039 -39.7158 -1.2977
-22.001 -56.1214 -1.82547
-16.9415 -45.915 -1.40239
-34.3087 -20.8022 -1.06858
11.4266 -9.69363 -0.401482
16.2898 -12.1161 -0.535308
-41.5531 25.7061 -1.28827
-30.615 23.295 -0.951465
-31.1363 22.819 -0.912321
9.55337 -8.9934 -0.303987
-41.7369 14.4253 -0.975685
-31.9937 -53.5737 -1.40572
21.1847 -14.1684 -0.560385
30.3227 -18.3868 -0.800653
14.1966 3.92334 -0.300326
26.984 47.1535 -0.997924
23.4542 -10.9192 -0.455768
46.8249 -10.7822 -0.894014
-30.8849 -22.195 -0.693484
-29.8697 -29.338 -0.663945
-19.3422 -47.461 -0.853843
12.6922 -10.4372 -0.270439
18.4571 -13.337 -0.34815
-29.4625 -13.0954 -0.423144
-33.1239 -24.7891 -0.575621
-34.2175 -68.9799 -1.04017
-28.3502 -60.3383 -0.914039
-34.23 -23.3773 -0.54114
-30.6349 23.3066 -0.452806
16.9446 -12.6538 -0.251229
29.1556 -18.0779 -0.40394
-31.0927 22.8264 -0.429081
-19.4144 -44.5259 -0.5201
-12.2081 -36.7449 -0.390276
-34.0818 -60.0513 -0.63667
-14.4642 18.3475 -0.17904
-26.8733 -13.5487 -0.24287
-15.1605 18.4804 -0.163179
-22.7769 20.3419 -0.156801
-21.2016 19.8863 -0.131894
-10.597 -13.6233 -0.0605748
14.6884 7.71618 -0.019875
11.0869 -9.74901 -0.00780756
-34.7775 -19.0484 0.0606061
-11.5092 -34.2055 0.117115
16.9051 -12.2821 0.0906138
-19.127 -43.912 0.212415
18.717 -13.1876 0.121519
7.15927 -12.3066 0.103881
25.9037 -10.6277 0.172143
-56.0533 20.0149 0.568193
16.2012 -12.0068 0.192472
37.2565 -7.60638 0.358753
-29.2592 -8.25046 0.355814
-36.6078 -22.0958 0.471663
-11.4877 -32.9135 0.373539
-12.9001 -35.7467 0.452025
-10.428 -32.0534 0.404054
6.31311 -12.9041 0.183385
7.19992 -11.0919 0.17387
-28.4837 22.3588 0.555025
11.2912 -9.8611 0.225361
-24.3637 20.8352 0.529667
10.8799 -9.71445 0.228908
12.9424 -10.6546 0.264089
36.2154 -7.75058 0.616125
-34.8652 -23.3591 0.763402
-31.5754 22.5766 0.762796
6.12613 -12.7995 0.27536
7.00881 -11.0299 0.251773
8.01435 -9.40431 0.24129
26.9245 55.3629 1.33961
7.71763 -9.42986 0.275498
10.1125 -9.15932 0.329161
-28.9944 -9.29737 0.733651
-23.5465 20.5524 0.846223
-27.8761 21.9802 0.953402
-29.1237 -8.74485 0.801518
9.176 -8.88218 0.344986
9.60943 -8.93125 0.357605
-25.8596 21.7947 0.919521
25.2796 -5.11411 0.718105
12.9522 -10.6254 0.499035
14.6793 23.9136 0.866003
6.17345 -12.7355 0.445391
7.44167 -11.6004 0.432509
-28.644 -8.07855 0.976721
-12.687 -19.4253 0.764302
-28.3244 -8.85277 1.02624
16.0447 10.9818 0.702871
-30.0577 -18.6257 1.23605
15.5988 27.0963 1.11611
-30.6749 -16.7323 1.29494
23.4519 -4.23483 0.861021
-28.046 -19.9468 1.2753
-7.30982 -7.97022 0.408241
9.03777 -8.81316 0.469243
12.3649 13.5259 0.706809
25.4727 52.5479 2.21208
24.3486 51.8406 2.15719
-11.5917 -9.17536 0.583048
8.71056 -8.65632 0.485795
-25.9435 21.3712 1.36523
21.763 -2.94947 0.88979
-29.016 -17.6244 1.39085
9.39914 -8.91222 0.531075
12.3856 14.2647 0.812974
6.56007 -12.4234 0.596615
14.7441 19.1576 1.06302
20.555 28.3919 1.53542
-9.53214 -13.8598 0.739361
-10.0266 -15.6812 0.826178
7.58273 -10.9288 0.58606
8.61163 -8.70095 0.553225
24.0949 -3.69113 1.10062
-30.0638 -8.76103 1.42957
6.72847 -11.0614 0.595723
-8.29242 -8.16073 0.547667
20.9389 42.2465 2.25618
-28.7759 -17.7846 1.5991
-9.80653 -13.7555 0.804051
9.64415 -8.94809 0.619636
15.1285 42.0409 2.16313
-30.4752 -13.4984 1.59103
-6.77613 -8.26111 0.525864
14.304 33.2642 1.84789
-29.9542 -11.7301 1.61457
-7.60728 -6.99516 0.522532
-6.71208 -7.60886 0.5134
15.9131 28.8265 1.70998
10.4834 12.2584 0.871865
14.1 19.1877 1.27869
9.32921 -8.9104 0.691215
14.6855 19.1078 1.33086
15.1138 23.3431 1.53147
-27.8043 19.5771 1.86462
-6.98747 -8.21178 0.598053
-26.7302 20.51 1.87396
6.0757 -12.8284 0.79423
-7.123 -9.17968 0.662702
9.8924 12.3562 0.931054
14.7276 24.8142 1.68601
6.44279 -12.9399 0.831941
13.6839 22.3248 1.54686
-8.27921 -8.13815 0.699607
11.4667 11.5459 0.970544
14.534 19.3303 1.45324
-7.41775 -10.0415 0.776492
6.99296 -11.1439 0.801795
11.2344 -9.69031 0.899424
5.85379 -10.731 0.758563
-7.20851 -6.66291 0.61355
14.3309 20.3293 1.57397
16.0701 7.13328 1.1417
-7.04932 -6.15906 0.614409
6.44291 -13.4044 0.991199
9.27421 20.9487 1.54563
10.3454 12.4694 1.10779
13.4225 18.0486 1.56897
12.2582 20.324 1.64248
11.2719 11.9071 1.151
6.58447 -9.81972 0.837284
11.4207 11.6846 1.18257
9.78544 -6.90757 0.852289
12.2778 11.886 1.2552
9.90226 -8.36234 0.949495
-6.19251 6.71152 0.682176
10.3745 9.13505 1.03852
11.8013 17.6448 1.59733
11.353 18.0875 1.60924
-6.96025 -7.71505 0.805867
10.7315 18.5223 1.64259
9.49062 -8.93542 1.00739
-6.42489 -4.30514 0.610167
9.07504 18.1816 1.62395
10.0579 -6.88255 0.975856
12.3731 11.4799 1.36454
9.62654 18.6908 1.69302
-7.28496 -9.6629 0.985786
6.70319 -9.35986 0.936844
12.1605 11.6332 1.37905
12.0639 11.8644 1.40521
11.3436 11.8566 1.3586
-5.06853 -11.5683 1.06244
10.234 12.8041 1.39484
-6.97323 -6.09351 0.797818
-6.82996 -6.70864 0.808834
-5.22963 -11.4698 1.07203
-7.31732 -7.76464 0.918936
9.26408 -7.23997 1.01586
-7.1375 -8.07689 0.943416
-7.03259 -7.70761 0.917756
9.31711 12.4364 1.37781
-6.96901 -8.39251 0.974718
10.7529 9.02237 1.27937
10.3793 13.3679 1.5292
10.4625 9.18871 1.27479
7.64676 13.8806 1.45774
-6.5131 -8.15455 0.956355
-6.92124 -9.04234 1.05113
11.1253 10.7299 1.42627
11.1842 9.12513 1.35085
10.797 10.732 1.42715
6.4163 14.8272 1.51821
-11.4729 2.93918 1.11104
-6.36986 -4.17653 0.713817
-6.81811 -6.30539 0.86138
9.35522 13.1936 1.56034
-6.0624 6.58749 0.88205
7.94715 -6.5982 1.00671
7.86327 13.1112 1.51872
-7.08424 -7.6344 1.04938
9.24044 11.5541 1.49236
6.94871 12.3377 1.43714
7.00159 12.899 1.49629
9.47822 9.04003 1.35563
5.80237 13.8322 1.55473
9.07084 12.337 1.59657
-6.11462 -4.46218 0.793651
5.902 13.5617 1.55796
6.16169 13.4968 1.55987
-6.98059 -4.43422 0.884775
8.71672 8.96584 1.33323
9.0781 10.1132 1.47811
7.27666 10.9261 1.42674
5.77963 11.3838 1.38809
-6.31113 -7.42446 1.06524
10.2191 6.42245 1.33553
8.94319 8.09433 1.32976
7.25684 11.5997 1.51092
6.79399 11.5471 1.48129
5.31182 11.7953 1.43931
4.82562 11.9949 1.44652
4.6533 13.5326 1.57431
9.81816 7.02002 1.3478
8.70601 9.25438 1.41989
5.33827 11.4222 1.41984
-6.85375 -6.73558 1.06974
6.8189 10.6433 1.42399
4.27388 13.0375 1.55063
9.73502 -3.19008 1.14227
-6.11191 -5.42094 0.946053
7.27933 -6.11166 1.07896
10.3686 5.68899 1.35653
-7.39211 -0.987246 0.8549
-6.26544 -5.36306 0.949525
5.24226 -5.55054 0.879624
5.02503 11.5259 1.46064
-6.89255 -4.56553 0.958281
4.44816 -7.25314 0.984011
10.3633 5.12666 1.35687
8.83692 7.84318 1.38714
-6.00872 -4.37311 0.866343
-6.49459 -5.28064 0.989074
4.08661 -7.85557 1.05312
4.96159 -5.84431 0.919784
10.1252 4.73441 1.34
8.47154 8.22611 1.43035
5.23191 11.3981 1.53094
9.00349 6.23718 1.34113
7.96657 8.29091 1.44042
-6.49914 -5.75508 1.08088
3.70253 -7.56487 1.0549
8.63458 6.6576 1.37115
-6.47675 -5.35183 1.06358
9.04978 5.98594 1.38536
8.14279 7.1051 1.37888
8.07229 7.46876 1.40427
5.77053 -5.3395 1.00938
-6.98206 -4.44961 1.06302
8.05804 7.95599 1.46885
-7.36835 -1.04394 0.96189
-6.93248 -2.83024 0.978204
8.94329 4.08627 1.28776
8.36311 6.59782 1.39848
4.99347 -6.02211 1.02834
4.91156 -6.18637 1.046
6.86184 -4.27749 1.07633
-7.14355 -1.72073 0.985399
-7.01929 -2.22308 0.984718
-6.03258 -4.42766 1.00067
8.09746 6.62764 1.41866
8.57857 4.42342 1.31601
8.59713 5.14651 1.36867
7.98922 7.10329 1.45517
-6.81747 -3.7385 1.05604
8.82988 4.14471 1.33525
8.23025 5.80889 1.37959
-6.40609 -4.33459 1.05868
-5.9645 -4.53047 1.02318
5.32491 8.97317 1.44122
3.61021 9.98734 1.47472
-7.37856 -1.09458 1.03338
-6.91343 -3.93235 1.10408
4.94477 -5.53896 1.02617
5.22376 -5.39365 1.04214
7.45448 -3.53272 1.15365
3.35521 10.0621 1.48611
8.3718 4.58189 1.35011
7.36632 -3.67381 1.16775
7.5776 -3.33078 1.1801
7.75182 -3.30142 1.19556
8.91158 2.806 1.34483
4.82978 -5.63077 1.06633
7.34516 -2.84976 1.14705
-6.96759 -3.3045 1.12435
7.90753 -2.7759 1.22191
8.65042 -1.81709 1.29751
4.97893 8.5245 1.45721
2.92728 9.35627 1.45832
7.72207 -1.88548 1.17153
7.2016 5.73527 1.37176
3.42715 9.4808 1.49009
3.15859 9.70997 1.51315
-7.38091 -1.04489 1.1057
-7.0838 -2.02575 1.0984
6.919 6.26334 1.40911
-6.27001 -2.2742 1.00129
-7.25013 -1.37721 1.11441
7.91206 4.80114 1.41001
5.68273 7.32249 1.40639
5.26666 7.59376 1.4065
5.03004 7.97121 1.42504
6.75303 -3.2226 1.13161
7.23821 -3.12124 1.20715
7.62661 -2.75208 1.23556
-7.32732 -0.73403 1.125
-7.10655 -1.95705 1.13807
6.78254 -3.08988 1.15264
3.74954 -5.78616 1.06617
-7.06212 -2.07868 1.15452
-7.3565 -1.09445 1.16826
7.33694 4.75888 1.38126
-7.2082 -1.44545 1.17008
-7.28148 -1.30288 1.18729
-7.10667 -2.02165 1.20193
7.04675 4.74765 1.38706
-7.11038 -1.94799 1.21147
6.98632 4.84888 1.41261
6.59363 4.83628 1.36465
5.18602 6.21874 1.34895
4.65079 7.1377 1.42278
3.79929 7.88547 1.45486
-7.25906 -1.37539 1.23378
2.79311 -5.77836 1.08189
7.11974 4.4148 1.41133
6.49107 5.22019 1.40529
3.87366 -5.36529 1.11572
3.9369 -5.02131 1.08013
-7.28233 -1.25416 1.25398
-6.60567 -2.62819 1.20658
7.39799 2.84067 1.34413
7.00994 3.88006 1.36541
-6.42118 -2.75598 1.18924
6.75471 4.08658 1.35533
5.68001 -3.51813 1.14999
-7.40665 -1.0411 1.29391
-6.3637 -2.2829 1.16272
5.53315 -3.64652 1.14225
5.31726 -3.77284 1.1428
3.57688 7.12228 1.4019
-6.80776 -1.7373 1.23432
4.47984 -4.46728 1.11338
-7.10186 -0.915892 1.27606
4.72465 -4.45726 1.14945
4.30943 6.464 1.38625
6.56872 3.46469 1.34119
6.6075 3.67241 1.35806
-6.44869 -1.50228 1.19135
3.60929 -5.327 1.17051
5.05898 5.59213 1.38076
-6.16146 -2.18553 1.19858
3.41399 -5.15987 1.1506
3.36974 6.73516 1.40888
-1.69719 -5.78032 1.14451
6.42985 2.72558 1.32904
-2.14278 -5.72653 1.17561
6.2944 2.78947 1.32549
-2.78734 -5.37632 1.18693
-3.54017 5.37631 1.39554
4.45897 3.88316 1.34944
4.15194 -2.87932 1.17725
4.62853 -2.18625 1.23686
4.19006 3.28428 1.31872
3.70895 -2.93147 1.22433
4.01109 2.5699 1.33081
-1.44252 -4.11621 1.22151
-2.32059 -3.57906 1.21252
3.85363 2.36041 1.30921
-2.86924 3.5365 1.36616
-2.48033 -2.91623 1.18955
-2.37778 -2.93734 1.19446
1.84463 -2.81417 1.18293
1.8676 -2.7923 1.21295
1.99361 -2.52835 1.19917
-2.04732 2.81295 1.32393
2.80403 -0.555737 1.25915
2.78315 -0.336854 1.24077
-2.089 -1.61903 1.21315
-2.07681 -1.45118 1.23827
-1.8618 -1.79563 1.28349
-1.99445 -1.13135 1.20478
-1.98598 -1.07032 1.23163
-1.94585 -0.88034 1.23192
-1.93028 -0.708404 1.22228
-1.92916 -0.701508 1.24951
-1.90562 -0.469698 1.22242
-1.87106 -0.345711 1.21967
-1.85588 -0.401175 1.22636
2.37757 -19.6967 -10.0112
-7.61549 -8.99109 0.465996
8.01116 -8.79209 -10.4585
8.25744 -8.62287 -10.4954
8.20913 -8.28396 -9.87836
6.95223 -11.9479 -11.4012
8.50874 -8.96576 -9.73293
7.84411 -8.93026 -9.1283
5.8462 -12.7905 -10.7229
9.41778 -8.8254 -9.73522
6.14346 -14.0862 -11.5692
8.28019 -8.67168 -9.01483
8.01103 -9.16136 -9.10094
7.28612 -9.23843 -8.7663
5.9056 -14.1427 -11.1827
7.71171 -9.2981 -8.71691
7.849 -9.10925 -8.6619
7.12272 -10.5719 -9.07618
6.81406 -11.0635 -9.21171
10.0412 -9.18184 -9.55633
6.53367 -11.1658 -8.85692
8.0263 -8.62066 -7.84364
7.35397 -9.27261 -7.86498
8.50827 -8.67349 -8.07622
7.71296 -9.46394 -8.02103
6.4809 -12.7628 -9.34735
7.92596 -9.17244 -7.90668
4.99942 -16.0316 -10.8014
-0.472226 13.9411 -8.91919
7.72071 -9.23626 -7.7197
7.32772 -10.8528 -8.33813
8.36986 -8.55804 -7.62656
10.8603 -9.60752 -9.19753
8.9806 -8.81032 -7.89033
11.7462 -10.0166 -9.675
8.06508 -8.5278 -7.22137
4.03989 -16.8405 -10.6144
4.24712 -15.373 -9.79317
7.83701 -9.35007 -7.31159
3.95139 -15.6272 -9.61222
11.4613 -9.81215 -9.03676
6.85702 -11.0658 -7.73029
7.76524 -8.81187 -6.95782
5.48278 -13.9868 -8.87655
6.48199 -12.6945 -8.34204
8.35423 -8.58654 -6.98169
9.67618 -9.07031 -7.73362
2.78864 -11.7882 -6.94392
5.47234 -13.8828 -8.44976
9.58315 -9.09439 -7.46869
6.61116 -11.0595 -7.25537
3.34985 -20.7182 -11.7621
8.8696 -8.92995 -7.05581
12.1688 -10.2095 -8.89919
6.81684 -10.9954 -7.20756
4.67878 -14.6001 -8.47357
6.21542 -12.6097 -7.73404
0.897177 18.5608 -10.1144
14.5824 7.70526 -8.95976
4.20012 -14.2322 -8.01487
14.689 -11.6238 -10.0979
14.9349 7.42132 -8.88185
13.9759 7.70013 -8.477
4.76169 -14.8385 -8.28077
12.0601 -10.131 -8.28909
1.81412 -20.5063 -10.5911
11.3951 -9.83413 -7.71169
2.08161 -20.2295 -10.3196
13.9287 -11.056 -8.99537
0.0062314 14.2789 -7.16657
-7.33453 15.2488 -8.48212
10.5765 -9.58461 -7.17231
7.50579 -9.41451 -5.99906
-8.55307 16.2174 -8.86325
11.6191 -9.75824 -7.34444
10.4773 -9.56937 -6.81402
14.7456 -11.305 -8.96257
16.6287 15.7515 -10.8794
7.4733 -11.046 -6.35457
14.9695 7.39627 -7.83296
13.8941 -11.0023 -8.28367
-12.0239 17.2198 -9.62496
15.7929 -11.9668 -9.05288
9.76573 -2.44852 -4.62442
-9.1254 -1.659 -4.21795
18.6262 17.973 -11.6766
3.91063 -9.09316 -4.49287
-10.2707 16.7804 -8.83745
-5.35747 4.45548 -3.13422
6.84828 -11.2749 -5.9392
9.41486 -9.0742 -5.76737
15.9694 7.28485 -7.74241
-6.66595 15.143 -7.22863
1.49966 -18.749 -8.1353
-11.2417 17.1064 -8.81568
9.57222 -3.36696 -4.34594
7.00768 -11.0305 -5.52482
15.7779 -11.9273 -8.27996
14.6068 7.72125 -6.92882
18.654 19.4069 -11.2474
1.02059 -22.6599 -9.44314
-4.54884 13.9196 -6.03537
-9.95202 -1.11313 -4.1504
14.0474 7.75646 -6.55064
20.3243 22.1074 -12.2377
-13.1062 2.45617 -5.43236
15.0698 7.15995 -6.74647
-5.24474 14.3774 -6.15716
3.63515 -8.80084 -3.79029
13.9048 -10.9792 -6.92428
19.1939 21.4807 -11.1717
18.7468 5.78081 -7.60612
1.53773 19.2032 -7.4677
-8.77994 15.8226 -6.97839
11.3789 -10.033 -5.83555
19.1254 22.1724 -11.2763
0.683703 15.3595 -5.88672
-1.66394 12.7865 -4.96144
2.71247 -12.2413 -4.81077
-8.78381 -1.25455 -3.37276
0.703434 -23.7242 -8.95564
15.1368 -11.6001 -7.19278
9.48137 -3.45961 -3.807
-14.6616 18.0764 -8.67686
-7.90222 -3.51034 -3.17147
1.09648 -10.4668 -3.87047
7.01843 -11.2213 -4.84053
14.1538 7.90281 -5.85131
-8.30549 -2.85159 -3.15779
0.790099 15.2648 -5.4491
-3.9718 13.438 -4.95957
5.7297 -10.9726 -4.3566
15.784 -11.9287 -7.00798
19.0178 5.87363 -7.00165
2.10272 20.5103 -7.2276
21.4732 25.9582 -11.7045
-14.9747 18.4862 -8.16846
2.96589 -13.3167 -4.69628
-8.94261 16.1567 -6.31326
18.4057 -13.0365 -7.73125
-5.06277 14.551 -5.24115
1.36246 -22.3085 -7.4061
1.75578 19.5523 -6.4831
1.44797 -10.3195 -3.44397
38.8151 -19.8417 -14.3077
6.16113 -10.0348 -3.76949
17.5004 -12.357 -6.86231
2.11294 20.6043 -6.58981
-13.4366 17.9398 -7.06937
1.45515 -22.8143 -7.12253
-4.32291 14.8042 -4.79482
-11.018 16.6958 -6.06501
-2.77856 -28.2621 -8.62636
3.06087 -9.45969 -3.02193
0.796353 -24.3929 -7.33918
19.0391 -13.5139 -6.92878
17.545 5.55051 -5.39892
-7.93284 15.3594 -5.03504
4.22198 -10.4773 -3.28327
3.6147 -10.5515 -3.17481
4.23361 -10.9259 -3.28968
-13.3959 17.9065 -6.223
-9.34327 15.9738 -5.03681
-13.2795 1.99065 -3.68201
-17.0357 19.5735 -7.04816
26.1461 -17.2126 -8.48314
-3.96787 -28.2856 -7.65906
3.77881 -9.13578 -2.64541
-9.85924 16.3911 -5.09375
46.8462 -13.6782 -12.942
10.5118 -9.37549 -3.72877
-6.48694 15.0227 -4.27717
-14.5082 18.1909 -6.10801
-8.11397 -38.3834 -10.2175
4.95016 -9.5562 -2.78597
6.54633 -10.4771 -3.18754
-7.25582 15.402 -4.33028
-10.6189 16.5408 -5.02459
-10.0434 -39.7959 -10.2054
-9.18688 -39.6558 -9.93832
10.9174 -9.62411 -3.57903
-8.01617 15.5601 -4.24669
-11.8014 17.1544 -5.0425
14.5646 7.69338 -3.90889
4.04071 -9.23916 -2.38688
15.1665 7.5111 -3.98796
3.74154 -8.89638 -2.26893
-6.60268 -32.8913 -7.76725
5.61568 -9.86591 -2.63145
44.3789 -10.7395 -10.6133
-12.8922 17.5619 -5.0168
14.8204 7.58997 -3.76654
43.4342 -9.39589 -10.0675
-9.8535 16.4146 -4.28725
3.70731 -9.23517 -2.16535
42.6056 -10.9298 -9.60085
15.0779 7.48009 -3.60376
-10.7085 16.7169 -4.25427
-22.1649 -34.8451 -8.87137
4.81122 -9.73151 -2.34232
44.6664 -10.4584 -9.81587
-14.89 18.4488 -4.9897
-32.4939 -23.9834 -8.55992
41.3553 -13.8374 -9.22665
14.8038 7.82253 -3.49133
-35.8515 24.2446 -8.85106
-8.49461 -34.7433 -7.24188
3.941 -11.4749 -2.43935
44.202 -9.53679 -9.19798
11.7496 -9.72577 -3.05919
42.627 -10.9735 -8.77211
-27.2071 20.5312 -6.76645
6.12924 -10.259 -2.37961
45.5399 -10.6493 -9.13519
-12.8831 17.5787 -4.21339
-27.0876 21.2282 -6.68845
15.9798 12.0872 -3.82887
-6.93534 15.2687 -3.22131
-33.4072 -24.1637 -7.89138
-31.9004 -24.9802 -7.78615
-36.0797 24.042 -8.16525
-33.9111 -22.3699 -7.67673
17.9618 5.64705 -3.51393
-34.4355 -20.7773 -7.51053
-15.3249 -44.1821 -8.71071
3.76255 -9.80033 -1.97694
-25.1712 -62.6653 -12.558
-17.0996 -46.0656 -8.98661
3.96837 -9.61869 -1.87708
13.0346 -10.1853 -2.98357
45.0318 -10.0208 -8.28733
-14.8543 18.4234 -4.22995
-27.2427 21.3668 -6.11344
15.0391 7.96092 -2.96328
-30.5634 -26.6338 -7.0657
42.487 -10.8828 -7.53073
-7.99673 15.4061 -2.94193
-9.83761 18.1186 -3.48454
44.3115 -10.4309 -7.69849
-31.0479 22.6153 -6.46749
-30.5215 -23.4816 -6.43609
-20.9871 20.0672 -4.83186
-32.6887 23.0856 -6.67688
15.8697 -11.8409 -3.24516
-10.4145 16.5348 -3.11011
-43.9234 25.8458 -8.08594
-31.9172 -23.9774 -6.3906
-33.7762 -23.2977 -6.4623
3.42702 -9.47828 -1.57644
-23.9813 20.4859 -4.87162
16.8543 -11.9149 -3.19769
-11.2602 16.853 -3.08045
45.6733 -10.7041 -7.12082
-23.3918 -54.2085 -8.92023
-29.7893 22.3413 -5.56822
-38.843 24.2195 -6.79479
-31.9441 -24.7962 -6.0328
44.3165 -9.49673 -6.74907
-34.0669 -24.6376 -6.14282
-50.6803 28.2968 -8.34647
-35.89 -23.9391 -6.20966
6.7098 -12.8765 -2.10885
-7.01155 15.4597 -2.35897
-13.2257 17.854 -3.09238
-32.5227 23.4149 -5.6019
-25.1968 -56.114 -8.48125
-16.492 -48.2111 -7.00677
36.4662 -12.1272 -5.27109
-23.3928 20.5566 -4.14414
-32.5794 -24.3983 -5.31375
-30.9254 -25.3703 -5.28836
-34.2272 -23.5724 -5.32331
7.4336 -9.41552 -1.55138
42.5397 -10.8892 -5.63507
-33.8869 23.0592 -5.21146
-30.0028 -16.0097 -4.33474
6.03464 -7.81525 -1.26133
44.4526 -10.4481 -5.78987
-31.431 23.0999 -4.8677
14.4641 -11.2687 -2.253
-30.3398 22.851 -4.59504
-32.9737 23.3093 -4.86206
-10.4508 16.622 -2.26927
-31.8 -22.871 -4.60831
12.96 -10.4819 -1.9515
35.5818 -11.7578 -4.33671
6.33115 -10.3245 -1.3923
11.1711 -9.68047 -1.66567
16.3906 -12.2035 -2.3031
-11.1666 16.744 -2.22911
6.73997 -12.5582 -1.5622
11.5768 -9.66776 -1.67054
42.3806 -10.8676 -4.80398
-39.53 24.6473 -4.99978
44.5123 -10.4012 -4.92231
14.8733 -11.4209 -1.99536
-13.0752 17.6648 -2.25785
14.7256 7.79403 -1.66468
13.9671 -11.0183 -1.77738
-14.1354 18.0786 -2.22621
6.38322 -12.2327 -1.32857
9.3891 -8.90594 -1.25096
16.9578 -12.3996 -2.05062
-29.0867 -13.8991 -3.03676
-15.1227 18.5185 -2.22907
-38.1959 -74.4123 -7.78564
-34.2864 -21.4546 -3.58122
16.0853 -12.0532 -1.80911
38.2392 -12.7235 -3.60743
11.0901 -9.85815 -1.22642
42.7794 -10.9338 -3.68315
-16.5252 -43.0029 -3.70037
-41.3483 -80.851 -7.07402
17.5523 -12.7903 -1.71557
-30.5467 23.1185 -2.9301
7.43534 -9.15904 -0.913291
-33.2637 23.5462 -3.02727
-16.9041 -41.8178 -3.37105
-37.8885 -71.2967 -5.74217
-36.8117 -73.728 -5.64551
12.5418 -10.4374 -1.09849
17.0113 -12.3901 -1.42297
-39.9916 24.8959 -3.07984
43.0296 -11.0165 -2.91605
-28.8805 -13.5804 -1.91113
-41.7095 -80.5809 -5.49548
14.4677 -11.2789 -1.1056
30.9259 -20.3725 -2.02435
30.9049 -19.4781 -1.99735
15.2952 7.55396 -0.88486
14.7359 7.81383 -0.857332
-13.0008 17.7414 -1.11612
-25.3121 -55.8564 -3.15116
-43.7522 -82.4584 -4.55927
9.63914 -9.07818 -0.662402
13.4162 -10.6692 -0.842119
15.9044 10.1177 -0.890234
16.1937 11.3503 -0.920417
6.80868 -12.4877 -0.676579
-20.1312 -5.94009 -0.901043
-30.5617 -54.4639 -2.75601
10.1959 -13.765 -0.700386
17.9848 -12.9696 -0.906464
42.2619 -10.7953 -1.73616
-9.42495 -12.4657 -0.602855
43.7654 -10.2483 -1.76785
21.9578 26.3978 -1.17059
-33.1544 22.664 -1.3915
-36.8689 -20.6746 -1.376
-18.6269 -46.4224 -1.60775
16.4262 -12.2548 -0.668898
14.3508 3.88717 -0.438364
-26.6423 -61.221 -2.00286
-23.0756 20.5555 -0.882477
-12.5801 -38.1462 -1.0806
42.6756 -9.06553 -1.22027
-42.711 26.5663 -1.3593
-55.3615 19.907 -1.40879
43.3469 -10.0655 -0.957451
-31.444 23.7635 -0.787264
-30.7303 9.77438 -0.673849
30.6721 53.7016 -1.1355
-30.6834 22.6451 -0.72988
12.938 -10.6011 -0.289945
-35.0154 -21.791 -0.639273
-31.472 -63.2937 -1.0531
17.4256 -12.5669 -0.312333
-12.8587 -38.8747 -0.529056
-14.4198 18.3051 -0.23716
-20.5325 -47.188 -0.560043
30.0388 -18.8143 -0.320008
-23.0647 20.5788 -0.209199
-9.96409 -12.7886 -0.0489972
6.99926 -11.6755 -0.0235965
14.5633 7.61579 0.00073146
-36.0438 -22.2569 0.225759
-24.3061 -41.5426 0.354035
-54.5744 29.8963 0.637375
6.67009 -11.8346 0.140719
7.99267 -9.0876 0.120945
-41.7027 -22.1714 0.519258
-11.668 -33.043 0.390176
11.0746 -9.65388 0.192593
-23.4497 20.0364 0.406803
-12.4812 -19.3652 0.334791
-31.6947 22.5536 0.694005
-35.7087 -23.9398 0.769394
-35.2201 -26.0187 0.764006
10.61 -9.5348 0.232756
7.77418 -9.58285 0.265179
7.88108 -9.19863 0.261385
-72.8272 25.2181 1.80308
18.0242 -13.0839 0.54226
-28.986 -8.70821 0.810375
-28.4228 22.289 1.04165
11.553 -9.89816 0.414955
17.2076 -7.45898 0.534035
-25.3903 21.5339 0.992422
-7.93468 -9.30467 0.389295
12.6096 13.7096 0.662742
6.11746 -12.6045 0.493048
8.89123 -8.74917 0.42629
24.4064 -4.32487 0.829037
18.3534 17.5272 0.916745
13.653 23.6348 1.02692
-58.0251 19.0726 2.20035
24.2164 -4.70421 0.934623
-25.8615 21.1257 1.26359
9.3582 -8.90267 0.499405
22.2624 -3.0671 0.84907
12.1134 14.0299 0.759143
14.6086 18.8758 0.977863
6.49235 -12.3095 0.571344
17.446 40.3226 1.83502
7.62541 -10.9884 0.563897
-7.57661 -7.45824 0.469911
-8.32046 -11.5116 0.634726
-29.8861 -11.831 1.53118
16.2728 10.5639 0.96717
-7.75359 -7.21437 0.507406
15.064 23.4034 1.4386
-6.9795 -8.21634 0.592799
14.3689 19.6761 1.33559
-26.4999 20.4057 1.85077
14.1995 23.125 1.57183
-7.15439 -9.22253 0.667136
6.78344 -13.4427 0.864463
9.81817 12.3499 0.93416
14.5245 19.2976 1.51469
14.7465 26.2451 1.85414
10.0849 28.2825 1.91017
-7.33815 -10.0157 0.794412
9.33234 21.2675 1.55931
11.3413 9.97622 1.07691
11.3583 12.0111 1.16729
13.5556 15.6638 1.4828
8.152 -12.5662 1.05754
10.6904 8.92379 1.02487
12.7618 14.3137 1.43526
-14.4915 8.54589 1.27302
-11.1842 2.10694 0.861502
12.2896 15.9976 1.56596
11.4207 18.2011 1.66908
10.0648 -6.88783 0.952363
-7.70245 -8.14811 0.897177
12.6414 11.4431 1.39115
11.7495 11.4945 1.36476
-7.03003 -6.18539 0.761137
-7.08349 -6.92655 0.821998
11.3608 11.8589 1.41645
10.5553 9.29826 1.27904
-11.4609 2.93472 1.08782
-7.64939 -7.12474 0.939372
11.5517 8.91339 1.39739
9.11204 12.8854 1.51572
7.09681 13.0584 1.45692
8.31798 12.9328 1.5423
-6.7667 -6.743 0.949783
7.84537 -6.5213 0.998622
9.58021 11.9995 1.53917
9.84687 10.0586 1.45405
-6.90279 -5.41867 0.913502
9.53484 9.07937 1.40385
8.10898 11.0246 1.43481
6.66863 12.9305 1.55027
9.51453 8.30246 1.33689
9.09665 10.1317 1.48353
5.60856 12.3543 1.46889
-6.41014 -7.54933 1.07044
6.60846 11.2474 1.43548
5.16157 12.9329 1.53639
-6.84429 -3.9918 0.875291
-6.71724 -6.09644 0.999698
3.91407 -7.75709 0.961971
5.43219 -6.08596 0.916643
9.28687 7.47616 1.34018
8.98167 9.55841 1.47929
7.83313 11.1568 1.52406
6.70003 10.5738 1.42765
-6.8982 -4.58195 0.939522
4.69889 -7.66671 1.03909
-10.712 7.1811 1.49766
-7.10804 -2.13859 0.864212
8.95142 6.04697 1.2854
5.80947 11.8569 1.56055
4.90647 11.3466 1.4581
4.76703 -5.85529 0.888783
4.10547 -7.8716 1.07962
8.29316 3.84121 1.14576
10.8872 5.43034 1.49548
4.48392 12.4753 1.65014
-6.17452 -5.4022 1.00655
-9.17778 1.30823 1.15606
8.19031 7.49087 1.40493
-6.45458 -5.33449 1.05945
7.7232 8.11173 1.44013
-6.90494 -3.58236 1.00761
4.96118 -5.95818 1.00106
5.01683 -5.42015 0.963071
8.33721 6.85942 1.43032
7.87494 7.78689 1.47364
-7.22309 -1.72868 1.00118
-7.04978 -2.21533 0.990666
-6.5028 -4.38452 1.04225
4.82345 -6.0801 1.03287
8.32494 6.30936 1.42094
-6.86825 -4.22938 1.08722
-6.06358 -4.45545 1.01233
4.94348 -5.5306 1.01868
7.39654 -3.51316 1.13979
8.31349 4.22074 1.32444
8.27549 4.54742 1.34
-6.95804 -2.91475 1.0791
7.46341 -3.72502 1.19117
7.0047 -3.04985 1.07779
4.93425 -5.78092 1.0972
8.17077 -1.72892 1.20961
-6.97745 -3.26635 1.14309
7.33734 5.52883 1.38
5.69942 7.3584 1.4059
7.9398 3.89055 1.35114
7.86028 4.16848 1.35285
5.37851 7.72316 1.43096
5.01989 8.57477 1.5013
3.44428 9.42106 1.51323
-7.02682 -2.83424 1.15558
7.66355 -2.78794 1.24923
7.82695 -2.23054 1.25607
7.77688 -2.01195 1.24133
7.41907 4.17873 1.37313
7.02281 4.72221 1.39074
6.69763 4.8815 1.37819
5.33747 6.39603 1.38639
-7.22713 -1.36484 1.21835
4.94138 7.25663 1.46527
4.67578 7.15636 1.43505
-7.24264 -0.806792 1.22082
2.86671 -5.93137 1.11065
6.66099 4.06463 1.33334
6.46217 5.1909 1.40772
3.78809 7.83941 1.46124
-6.395 -2.30645 1.15389
-6.30042 -2.68846 1.16872
3.77227 -5.24018 1.09937
-6.99348 -1.80093 1.2625
4.23455 -4.64137 1.1042
6.63138 3.49192 1.35358
5.022 5.55478 1.36863
3.63235 -5.36078 1.17931
3.32427 6.6657 1.38864
6.46628 3.03427 1.35707
6.40114 2.70286 1.32667
-1.64984 -5.71029 1.14126
-2.17223 -5.76689 1.2017
6.22946 2.36832 1.3322
3.9391 -4.58051 1.20171
-3.00863 5.6173 1.3599
-3.63239 5.22571 1.38807
4.20912 -2.9279 1.20526
-4.28677 3.9376 1.41915
4.58698 -2.18723 1.23341
4.47833 -1.26921 1.15745
3.70995 -2.93656 1.2326
3.67981 -2.5855 1.19322
3.42679 -2.97941 1.22555
-2.32 -3.6151 1.20693
-2.49807 -2.92586 1.19721
1.87432 -2.49429 1.13272
1.93591 -2.65237 1.19741
-2.04385 2.80588 1.31645
-2.07071 -1.46326 1.1971
-1.8235 -1.82957 1.30225
-1.97524 -1.17137 1.20963
9.64989 -9.02668 -9.35371
9.21411 -8.90133 -7.63509
2.44634 -20.0726 -10.7388
3.66732 -9.28848 -4.50325
26.2569 32.6194 -14.0599
2.06745 20.4614 -6.09652
9.48589 -8.75177 -1.6135
8.73847 -8.6104 -1.23021
8.88809 -8.76635 -0.925538
19.0545 -13.4915 -1.27699
43.0463 -11.562 -2.30811
-31.7073 -13.4099 0.347443
10.0115 6.89036 1.29058
-3.50674 5.33617 1.37249
7.96277 -8.22089 -10.2681
7.82392 -8.2469 -10.0078
8.3532 -8.44304 -9.83671
6.82097 -11.7778 -11.183
7.95379 -8.2134 -9.04504
7.99348 -8.69147 -9.07559
6.20029 -14.1191 -11.6031
5.85073 -14.1385 -11.2051
9.06015 -8.80778 -9.26416
7.60996 -9.18506 -8.64592
7.83818 -9.08865 -8.58072
7.19662 -10.6641 -9.15532
10.1955 -9.28185 -9.66604
6.40791 -11.0455 -8.72585
8.14874 -9.04857 -8.16618
7.31843 -9.30242 -7.90093
7.93842 -9.17947 -7.97953
5.02295 -15.9363 -10.7797
-0.522604 14.3526 -9.21858
7.28349 -10.7597 -8.3357
7.58957 -9.11366 -7.58906
10.9613 -9.78099 -9.32756
7.03482 -10.8957 -8.08452
8.17208 -8.57919 -7.36142
0.113443 14.3631 -8.75286
7.74487 -8.71082 -7.02319
11.4523 -9.72288 -9.06629
8.9561 -8.88495 -7.45638
6.56016 -12.8119 -8.49198
5.50235 -13.9517 -8.81461
7.03267 -11.0669 -7.5275
5.10401 -12.8172 -7.74765
3.1588 -19.3045 -10.9688
6.59585 -11.0695 -7.2213
7.83604 -9.03266 -6.70621
12.1479 -10.1756 -8.86251
9.67445 -9.47741 -7.42722
13.2302 -10.6063 -9.14714
15.0189 10.2864 -9.77911
14.9995 7.36969 -8.9302
13.8267 7.62307 -8.35002
11.3817 -9.82256 -7.72563
-0.0622252 15.1723 -7.67386
2.3642 -19.4872 -9.91671
10.6474 -9.54528 -7.19452
7.3286 -9.25646 -5.9235
14.0684 -11.1586 -9.04245
17.9824 -12.8585 -10.7566
18.5586 5.73031 -9.437
2.66152 -19.5518 -9.5828
12.8168 -10.5885 -8.03889
15.3487 -11.6862 -9.35928
7.28588 -10.741 -6.25163
14.9655 7.336 -7.756
7.07343 -10.8819 -6.04989
6.20971 -10.6075 -5.69312
9.98699 -2.506 -4.73373
17.3129 -12.6502 -9.85317
-11.8436 17.0018 -9.44488
3.53839 -9.02508 -4.39192
-10.2626 16.779 -8.83968
15.9454 7.21193 -7.8305
-11.2941 17.1834 -8.86908
-7.06833 6.85562 -4.24114
-6.48603 6.47016 -3.90011
1.19687 -15.4374 -6.58244
19.8597 20.5751 -12.0004
16.1725 -12.223 -8.52481
15.1188 7.42982 -7.03934
-10.0816 -1.10014 -4.21147
19.8331 21.5885 -12.037
14.0614 7.76926 -6.53862
16.3604 7.36888 -7.20832
14.9671 7.70153 -6.75169
1.48612 -17.9092 -7.01803
18.619 5.74487 -7.54105
19.3613 21.6055 -11.22
0.769583 16.2683 -6.25688
-9.24759 -1.34122 -3.62044
0.710309 -24.1736 -9.19799
16.8575 -12.4689 -7.84387
14.1223 7.88584 -5.8468
0.536933 -22.6481 -7.98468
-4.07296 13.6999 -5.01621
-10.6547 16.3753 -6.83851
-0.865442 -22.9253 -8.06456
-15.0857 18.6168 -8.28755
-8.94889 16.1662 -6.34173
-5.04574 14.375 -5.13676
1.27269 17.5993 -5.87924
-5.37201 14.3156 -5.0415
38.3385 -19.699 -14.2313
12.4492 -10.2976 -5.20713
8.00533 -9.17184 -3.90097
7.39125 -8.77918 -3.55274
-4.26089 14.3446 -4.50371
11.5133 -9.76478 -4.55711
15.0658 9.48241 -5.09775
13.6208 -10.6358 -4.95907
-5.53831 14.7669 -4.43976
-13.5193 18.1442 -6.38588
15.6222 10.5594 -5.19329
-9.66598 16.2437 -5.02401
-27.2566 21.1105 -9.00302
-24.0112 20.1702 -8.11222
-7.18201 15.2464 -4.30993
-7.97779 15.4798 -4.24714
-26.2149 20.688 -8.138
-3.30915 13.5421 -3.33877
-11.7991 17.1198 -4.9696
3.10223 -9.52784 -2.36997
14.7281 7.8564 -3.94015
-33.5577 -26.3446 -10.0044
5.38285 -11.6067 -3.01481
49.0345 -11.8264 -11.7235
-7.31574 -35.7821 -8.39219
-9.78912 16.4179 -4.36993
15.0298 7.36449 -3.79135
-30.3407 22.059 -8.32781
-12.4635 -44.6027 -10.1703
3.71921 -9.39673 -2.22606
42.2909 -10.7158 -9.42542
-35.0565 -23.0248 -8.93919
-14.8778 18.4617 -4.92406
14.6067 7.80151 -3.43902
-32.1485 -24.3264 -8.29904
9.27932 -9.18609 -2.70809
43.0083 -10.9337 -9.10366
45.7178 -9.69562 -9.4326
-28.6888 21.5326 -7.07521
-21.3395 -34.6871 -8.00588
-33.3963 -24.1283 -7.78981
-34.8584 -23.0017 -7.79917
-14.861 18.4736 -4.30628
15.2808 7.49265 -2.99839
-5.30779 14.1639 -2.66218
-18.6764 19.9837 -4.83595
-22.2802 -53.049 -10.0324
-22.6116 -36.4765 -7.40596
-34.2007 23.1705 -7.00734
9.11199 -8.96224 -2.16929
-31.3674 22.8493 -6.31572
-32.2582 -24.2372 -6.4433
-20.5068 -54.5771 -9.3111
42.3713 -10.7579 -6.97372
-44.8829 26.5093 -8.21414
-37.3032 -23.3541 -6.82454
6.42681 -10.8473 -1.96999
-29.4128 -26.219 -5.95292
-30.7907 -25.2637 -5.96993
-20.5624 -50.6589 -8.12144
6.46218 -12.3772 -2.08551
-33.3121 -23.9575 -5.87284
-31.29 -24.6317 -5.65111
-32.4587 23.2384 -5.58313
-13.1168 17.7092 -2.99981
-33.0679 -24.7223 -5.59044
-30.4022 -26.1557 -5.44386
-31.9689 -19.8817 -4.94345
-33.9557 -23.406 -5.43996
-33.7009 22.8582 -5.13143
-30.8213 22.9396 -4.69826
-41.0697 24.2585 -5.8628
12.9248 -10.4502 -1.94941
9.69179 -9.07431 -1.52708
10.5329 -9.21501 -1.54174
-13.1573 17.7893 -2.33073
15.0693 -11.588 -2.02972
-31.1217 -24.6125 -4.02381
45.5605 -9.68303 -4.65664
17.0814 -12.4634 -2.082
42.088 -11.312 -4.11046
-34.2556 -70.2732 -6.93386
-23.4934 20.5562 -2.73521
-29.091 -13.0555 -2.77045
6.93555 -10.6604 -1.11722
16.9977 -12.2821 -1.81649
-29.5151 -26.3342 -3.33732
9.83129 -8.9265 -1.09632
13.6893 -10.8842 -1.40764
-34.6001 23.4572 -3.19675
-30.2036 22.6302 -2.79146
16.7036 -12.1843 -1.51132
-17.6282 -43.2226 -3.34786
7.33608 -9.10132 -0.852554
-26.2159 -60.1712 -4.51865
9.55812 -9.00352 -0.871667
9.70777 -4.72742 -0.681275
11.2888 -9.78046 -0.941035
-15.0935 -41.4403 -2.59677
15.1802 7.45641 -0.926163
14.617 7.82606 -0.901443
11.7641 -9.98854 -0.797061
16.8483 -12.6188 -1.00683
-12.6401 17.3148 -1.03139
-37.1004 -66.2885 -3.65003
-27.4745 -55.0074 -2.94811
-35.2621 -19.8976 -1.36186
-18.3965 -45.5317 -1.63876
-25.5278 -59.0369 -1.86249
-22.5834 -60.9154 -1.88603
