ply
format ascii 1.0 
element vertex 1863
comment /media/mkaihara/Seagate Backup Plus Drive/model_iterations/model_90.ply
property float32 x 
property float32 y 
property float32 z 
end_header 
16.6268 -12.2328 -1.79821
9.79956 -9.0269 -1.14635
-36.4605 -70.3733 -6.81346
13.3461 -10.7385 -1.46042
-35.6636 -22.3351 -3.56318
11.4738 -9.83911 -1.27237
45.073 -9.80088 -3.82752
38.7632 -12.6921 -3.27025
-30.4058 -14.5751 -2.69675
18.0278 -12.9475 -1.68938
16.8432 -12.3521 -1.47058
-17.6944 -47.3178 -3.4453
-15.4402 -39.8977 -2.87258
40.8792 -10.696 -2.86583
42.444 -9.63012 -2.86473
11.6954 -9.94191 -0.994393
13.1141 -10.6474 -1.08757
13.4749 -10.6818 -1.08657
-17.4105 -43.3966 -2.88926
-35.1078 24.1636 -2.51074
16.6276 -12.302 -1.21555
15.6121 -11.7907 -1.1282
17.2403 -12.6055 -1.23105
-37.9587 23.8231 -2.4426
-9.58477 -12.5644 -0.841797
-16.3506 -41.4997 -2.41337
-14.6242 -41.4433 -2.35697
-28.7074 -16.8155 -1.73916
-17.8062 -43.646 -2.4745
-15.2918 -42.3498 -2.36133
-28.1355 -13.7374 -1.62045
37.7071 -8.04855 -1.98794
-43.7373 -83.3785 -4.63502
17.8462 -12.8489 -1.06875
-27.9069 -14.0043 -1.48702
-16.9615 -42.0574 -2.09175
-26.6656 -16.5558 -1.35234
-38.0782 23.9181 -1.62021
43.5883 -9.4073 -1.52656
-28.3554 -60.89 -2.06932
-13.2493 -38.4846 -1.25567
-32.695 -24.6499 -1.22729
-26.8824 21.938 -0.937133
35.7374 -8.49104 -0.996006
-35.8182 -22.2551 -1.0317
-35.4649 -22.4308 -1.01982
-35.9499 -71.4794 -1.83445
-19.4477 -44.4328 -1.02729
-35.7595 -22.4307 -0.798811
16.8326 -12.3212 -0.401632
-35.2379 -22.2833 -0.571188
16.9546 -12.414 -0.242207
13.0189 14.8108 -0.204969
-34.3787 -22.9299 -0.401047
11.1066 -9.59483 -0.132183
-36.5875 -21.25 -0.352686
-29.0394 -8.73867 -0.125918
-29.6957 -9.5255 -0.0849974
11.4704 -9.921 -0.00333141
-13.0694 -20.1184 0.0349695
41.7689 -9.26501 0.13018
9.07501 -8.87205 0.103666
15.0226 -11.4763 0.151387
11.2997 -9.76626 0.138964
13.2452 -10.6453 0.178199
18.0649 -12.9622 0.215583
-27.9561 -13.5445 0.342733
-33.8501 -22.4907 0.46704
-35.279 -18.9409 0.455459
-36.2568 -22.3282 0.53003
-13.7495 -20.8725 0.287327
-12.9346 -20.2974 0.319021
-13.4203 -20.103 0.34618
14.9575 -11.4718 0.277841
-30.4955 -13.1953 0.585764
-37.036 -19.9478 0.813317
-14.2479 -22.3563 0.527412
-30.6633 -13.4505 0.707937
-36.3871 -20.2594 0.848788
18.1047 -12.9954 0.46553
10.4764 -9.21257 0.297895
10.3839 -9.2193 0.344762
-8.24246 -9.77887 0.361244
10.5037 -9.25078 0.415473
13.4749 -10.7627 0.533566
10.3458 -9.43149 0.460226
13.1873 -10.6282 0.558873
-9.30118 -13.128 0.598359
10.4867 -9.44742 0.526271
13.181 -10.562 0.66608
-30.6154 -17.0807 1.41777
-32.5449 -18.8214 1.52917
9.52247 -9.09582 0.556378
-29.394 -17.5504 1.4997
21.966 43.5474 2.16388
9.58946 -8.92962 0.581424
10.4531 -9.35865 0.665729
12.2527 -10.2314 0.746395
-6.18112 6.65389 0.449544
-6.89317 -8.18476 0.536212
-7.15511 -9.28413 0.577362
-28.5765 -11.2729 1.61033
-6.8516 -8.48766 0.563435
11.8251 11.6713 0.883258
16.2899 24.3241 1.55513
15.7297 23.8183 1.50065
8.86766 -8.6167 0.663918
8.6512 -8.55975 0.669907
14.5481 24.9593 1.6062
-28.9083 -8.66976 1.68347
-7.54968 -8.04557 0.620468
10.3668 -9.35501 0.802638
-6.78093 -8.22892 0.639004
-6.74127 -8.46887 0.651039
-7.58442 -7.98051 0.683193
-6.91833 -8.2522 0.674306
9.53578 -8.86669 0.815484
10.4455 -9.34476 0.87946
10.4166 12.1778 1.04303
-7.35845 -9.5329 0.794357
12.3814 18.7977 1.5197
12.8943 20.5827 1.63509
9.06784 22.5534 1.69233
-7.11651 -8.32436 0.76012
-7.11903 -7.63732 0.742239
9.49831 -8.8369 0.920859
11.2786 11.8572 1.21243
11.6789 16.6022 1.52739
12.4938 11.4297 1.30195
12.7673 11.3718 1.33237
12.1752 11.4805 1.30333
11.9538 11.6076 1.31967
-7.23916 -9.40658 0.940905
11.5201 11.8556 1.3314
-7.37944 -6.14865 0.759544
-7.0757 -8.11795 0.867009
-6.77609 -8.32451 0.86467
-7.28557 -6.25986 0.765515
9.23572 -7.56826 0.989599
-7.37891 -8.12432 0.914032
-7.41303 -9.92314 1.0351
-7.30366 -7.89199 0.904491
9.17514 -6.95117 0.974696
11.5629 11.832 1.40698
-6.36611 -4.33953 0.659939
-7.09386 -8.37936 0.946241
-6.84959 -8.42997 0.965046
8.97576 -6.84566 1.007
8.19904 -7.11952 0.976399
5.92955 -5.90424 0.772659
10.7475 11.0249 1.4752
-7.0396 -5.73924 0.867378
10.711 9.255 1.37607
-7.17364 -5.724 0.89531
7.72644 -6.56102 0.997502
11.0007 9.77113 1.45488
10.8599 9.03981 1.41955
9.52333 11.4576 1.49226
-6.51417 -6.50936 0.923345
-6.87959 -4.52016 0.833853
-6.98745 -7.32719 1.02599
10.7197 9.03911 1.45089
10.0743 9.40506 1.41316
9.24362 10.0562 1.42741
-6.86423 -4.46053 0.862741
-7.14837 -5.68135 0.97664
-7.11962 -5.72116 0.975468
-6.92484 -4.63383 0.909803
-7.07036 -5.51046 0.974663
8.64009 10.216 1.48668
-6.90293 -3.43314 0.864252
-6.97628 -4.35245 0.917246
-6.84926 -3.49317 0.863822
-6.89249 -3.57763 0.870894
-6.89879 -4.23648 0.910922
-6.91996 -4.40753 0.926249
-6.91994 -4.49333 0.928965
8.70287 8.77042 1.39946
-6.95756 -3.85638 0.912601
-6.92203 -4.07393 0.910381
-6.92151 -4.1577 0.918096
5.84585 -5.77267 0.949489
-6.9343 -3.41883 0.901073
-6.94552 -4.37576 0.952747
-6.91506 -4.44737 0.95437
-6.90866 -2.83193 0.875715
-6.89007 -3.61966 0.911378
-6.97512 -4.13802 0.954503
-6.92147 -4.20683 0.94919
8.47813 8.01894 1.3848
-6.92436 -2.98501 0.909839
-6.90253 -3.97308 0.956638
-6.8856 -3.65872 0.946878
-6.92946 -4.12983 0.988037
-6.91527 -4.31368 0.999332
-6.47555 -5.36404 1.02812
6.00089 -5.94996 1.0326
-6.91403 -3.75499 0.975616
-6.91233 -3.91982 0.987188
-7.01865 -4.74491 1.05706
-6.94185 -4.39185 1.03683
-6.87401 -3.48126 0.976351
-7.08624 -2.1723 0.947393
-6.89124 -3.08498 0.968758
-6.90997 -3.16264 0.977946
-6.1506 -5.4914 1.07456
-6.93114 -3.23312 1.00027
-6.38539 -4.36627 1.01925
-6.80297 -3.78721 1.032
-6.89021 -4.18808 1.07004
-7.0573 -2.13704 0.985225
-7.00735 -2.33785 0.994121
-6.91353 -3.26915 1.02176
-6.91277 -3.54225 1.04002
-6.92046 -3.39631 1.05319
-7.0386 -2.16319 1.02347
-6.9368 -3.18219 1.05687
-6.90662 -3.26588 1.05641
-6.85418 -3.65264 1.07221
-6.91026 -2.94787 1.05029
-6.87557 -3.41326 1.07155
-6.89088 -3.75745 1.10428
-6.94018 -3.23866 1.08326
-6.0078 -4.4939 1.06768
-6.89474 -3.58739 1.11645
7.66429 6.32149 1.43608
5.17474 8.29784 1.41458
-6.89843 -3.49555 1.11986
7.29335 -3.51928 1.17545
-6.89043 -3.28179 1.11376
-6.8869 -3.3936 1.11985
-6.87062 -3.2029 1.11543
-7.17265 -1.75515 1.08861
-6.92217 -2.94435 1.11738
-6.92763 -3.0318 1.12186
7.10591 5.59421 1.4003
-6.38137 -2.28656 1.05182
7.04067 5.15717 1.39285
-7.02006 -2.41282 1.19441
-6.46747 -2.82245 1.15122
3.76846 7.8973 1.44243
-6.3149 -2.2632 1.11384
-6.48413 -2.29151 1.17172
-6.15274 -2.28164 1.14323
2.54608 7.3598 1.47693
7.8231 -8.51277 -10.1627
7.9506 -8.79564 -10.3771
7.68276 -8.73961 -10.1257
8.18087 -8.3128 -9.99117
6.93343 -11.453 -10.9707
8.1331 -8.26034 -9.51194
6.93691 -11.8674 -11.1616
8.0111 -8.39736 -9.22409
7.95574 -9.14924 -9.44027
8.22562 -8.68494 -9.30171
7.84493 -8.97075 -9.08966
8.2854 -8.69385 -9.11339
6.31436 -13.961 -11.4375
7.47607 -9.40466 -8.97982
7.91293 -9.06679 -8.91008
6.21065 -14.3226 -11.4991
6.2523 -12.8456 -10.4996
9.21193 -8.81611 -9.3376
9.19734 -8.97236 -9.35208
5.94972 -12.7028 -10.1795
5.88708 -13.0742 -10.268
9.34449 -8.97326 -9.2702
9.20131 -9.01548 -9.15083
6.90242 -11.1767 -9.31972
5.60052 -12.9305 -9.97274
6.49742 -10.9796 -8.77593
11.7295 -9.95343 -10.3279
8.23312 -8.61663 -7.88804
7.42394 -9.26157 -7.8289
8.2369 -8.77198 -7.93856
9.15027 -8.77487 -8.34762
7.59777 -9.31623 -7.85285
12.0699 -10.0807 -10.2358
4.66148 -15.7841 -10.6422
9.17115 -8.81285 -8.17972
5.00339 -15.3367 -10.4007
7.75016 -9.29379 -7.74643
8.243 -8.46422 -7.55515
0.354981 15.6966 -10.0132
4.73365 -15.119 -10.0873
10.869 -9.55895 -9.20549
7.90909 -9.06951 -7.62748
8.1551 -8.48821 -7.42895
4.71463 -15.751 -10.3299
-0.391044 13.6168 -8.51789
8.8287 -8.79487 -7.69637
4.22449 -18.6789 -11.8275
7.91226 -9.04916 -7.42194
8.26165 -8.56462 -7.34872
4.25816 -15.3983 -9.78579
8.21358 -8.63504 -7.28743
4.24567 -18.1478 -11.368
0.157442 15.0629 -9.17487
3.75405 -17.8398 -11.0345
4.17227 -15.7521 -9.854
7.0422 -10.8132 -7.74542
8.04609 -9.20322 -7.34365
4.19517 -16.5732 -10.1894
8.28579 -8.6615 -7.14165
9.39967 -8.99118 -7.75247
7.01041 -11.0559 -7.78659
7.72345 -9.25747 -7.15666
9.05197 -8.80574 -7.48397
7.99247 -9.15829 -7.11387
8.57262 -8.76646 -7.15769
9.6865 -9.14398 -7.76497
6.76333 -13.316 -8.62279
9.23434 -8.96622 -7.43415
5.7874 -13.3529 -8.40008
6.8798 -10.8597 -7.41024
9.54756 -9.09711 -7.51028
11.9134 -10.2178 -8.86206
10.7724 -9.4681 -8.06894
6.87754 -11.0967 -7.32897
9.13102 -9.0763 -7.22036
9.24616 -9.01409 -7.22094
12.5883 -10.5085 -9.16018
4.64861 -14.3565 -8.43613
10.186 -9.3737 -7.73885
8.52078 -8.69945 -6.77883
2.74401 -17.3205 -9.67466
14.7153 7.52583 -9.0359
2.71109 -19.8938 -10.921
2.42549 -8.79103 -4.9463
2.97444 -19.8925 -10.8688
14.6857 7.6487 -8.89148
2.36394 -20.2097 -10.8062
10.9401 -9.59488 -7.74186
9.76987 -9.02317 -7.04376
14.8762 7.46466 -8.80791
2.36107 -8.80927 -4.82045
1.65733 -19.8377 -10.2824
2.38727 -20.8677 -10.7736
13.8965 -11.1036 -9.11632
-9.31239 -2.60994 -4.92345
11.3189 -9.80223 -7.60564
2.17294 -20.2907 -10.2847
0.854739 17.4895 -8.70755
10.9738 -9.6277 -7.27863
-8.88266 -1.95395 -4.46167
2.2122 -20.2365 -9.99571
3.84962 -9.1834 -4.89146
11.2383 -9.64372 -7.25076
1.99636 -19.9151 -9.78334
-8.46282 16.2434 -8.88314
2.50295 -11.2007 -5.49175
1.9954 -21.1341 -10.1087
14.8373 7.58428 -7.86701
17.2451 16.1509 -11.1739
17.5961 16.8591 -11.3214
14.3077 -11.3145 -8.45947
9.79417 -2.60707 -4.69824
17.1747 16.1641 -10.8972
9.74179 -2.46564 -4.64908
-10.3682 17.026 -9.08883
-9.58696 -2.07723 -4.4491
9.84312 -2.60437 -4.62178
10.1727 -2.39545 -4.73404
9.75017 -2.97426 -4.61398
-5.41163 4.46145 -3.1628
8.07595 -8.31202 -5.22602
17.7294 17.2745 -11.1135
17.6018 17.4455 -11.1397
19.1202 5.81633 -8.96563
7.13012 -10.8835 -5.79732
20.2431 5.31497 -9.29972
9.55103 -3.41781 -4.51043
-10.0125 16.4598 -8.55743
-5.36346 4.91547 -3.22371
19.2224 5.55317 -8.84475
-11.4413 17.4448 -9.18272
17.8734 17.7275 -11.0371
-6.60154 15.1384 -7.25199
9.57827 -3.59559 -4.45875
19.984 5.41559 -8.9772
18.0095 18.2712 -11.0599
17.802 18.4187 -11.0397
14.8037 7.57585 -7.08808
3.85579 -9.34036 -4.28383
-11.3773 17.3094 -8.75451
-13.5281 3.31352 -5.87177
1.26355 -21.478 -9.01612
3.249 -10.184 -4.47268
14.1278 7.60995 -6.70943
18.5734 19.3882 -11.2308
3.86387 -9.17231 -4.14538
14.7492 7.69011 -6.8999
18.2519 19.4558 -11.0771
13.9636 7.7129 -6.56032
3.99838 -8.46739 -3.83905
6.7634 -10.8362 -5.23281
-13.4571 2.53131 -5.60502
14.908 7.47158 -6.797
-8.11235 15.6983 -7.18607
1.19049 -10.6085 -4.33609
0.756892 -21.7715 -8.82292
-13.0135 2.35712 -5.32164
-9.33614 -1.44146 -3.77205
-5.09422 5.65365 -3.01817
2.83337 -11.754 -4.76938
14.1538 -11.1669 -7.04895
1.51892 19.0643 -7.43072
3.93627 -13.1377 -5.30286
18.9093 5.78066 -7.62058
0.885709 -26.3675 -10.0731
4.74543 -8.66787 -3.75121
11.6903 -10.1213 -5.8765
19.2663 5.54777 -7.59983
19.9708 23.6755 -11.5658
19.8535 5.39201 -7.67609
20.2684 23.6232 -11.5976
3.25839 -10.8309 -4.22054
-13.2464 17.8412 -8.20076
11.8556 -10.0613 -5.71797
20.2435 5.16787 -7.65938
20.8458 24.9199 -11.8011
-8.19066 -2.82421 -3.13903
19.1872 5.69229 -7.20563
2.28003 -13.2285 -4.83023
0.810911 15.7265 -5.64354
-4.33264 14.1293 -5.27145
-8.24485 -2.8074 -3.10784
6.72892 -10.5082 -4.43066
-16.2259 18.7497 -8.76735
15.8931 -12.0014 -7.05653
-11.2501 16.962 -7.11716
19.2278 5.8622 -6.98035
3.71474 -8.66377 -3.25157
-8.93155 16.2447 -6.30985
2.98217 -13.4583 -4.70243
18.8309 -13.4704 -7.92202
33.7583 -20.9155 -13.4996
-15.1541 18.5656 -8.09074
19.9646 5.42454 -6.93611
36.6093 -20.6739 -14.0426
40.1694 -19.7694 -14.9232
16.3688 7.34216 -5.97617
3.44687 -10.2568 -3.60825
1.34818 -10.9241 -3.63865
-6.3488 15.1507 -5.35951
-12.8811 17.6688 -7.11852
15.7025 -12.0677 -6.44382
6.03689 -9.83598 -3.70981
3.33924 -10.1325 -3.4214
-1.1456 -23.9692 -7.66363
2.32464 -11.0304 -3.59126
3.23039 -10.055 -3.34714
2.8261 -9.03937 -2.98691
13.5775 -10.7361 -5.44113
-18.2308 19.7075 -8.40784
-8.72309 -2.65692 -2.85616
1.3705 -21.5335 -6.66268
19.5447 25.3033 -9.63545
3.2219 -9.86247 -3.12844
3.45092 -8.9797 -2.89554
-14.5728 18.2272 -6.98288
-21.7094 20.2462 -8.79349
-8.06442 15.6848 -5.1909
4.76681 -11.9753 -3.77628
4.14856 -8.91862 -2.89195
2.06752 20.4152 -6.02425
-4.39239 14.7797 -4.51849
4.05585 -8.95533 -2.87462
-15.5071 18.6578 -6.99759
-33.0741 -47.2641 -16.5001
7.1193 -11.0858 -3.75925
2.54508 -9.47721 -2.78225
-8.42203 -2.20607 -2.45455
4.4308 -10.9985 -3.34352
-2.49548 -25.1551 -7.08234
-9.40594 16.2217 -5.16588
4.35393 -11.2357 -3.32265
8.56197 -8.3513 -3.28669
-13.2724 17.6849 -6.05376
44.983 -14.9141 -12.9198
-8.74213 -2.44526 -2.45808
-24.813 20.8265 -8.76354
3.24162 -9.96432 -2.83214
3.39315 -9.96822 -2.84449
-4.32835 -31.1052 -8.43032
-27.2623 20.9088 -9.15938
42.1407 -13.9035 -11.729
45.3498 -13.1277 -12.4923
-8.71214 -39.2047 -10.5796
-8.49997 -40.0756 -10.7966
-14.6664 18.3799 -6.10358
9.8132 -8.92399 -3.46711
11.2808 -10.0168 -3.91941
-10.7918 16.8405 -5.17596
-4.35845 -28.5635 -7.50505
3.25779 -9.84956 -2.68224
3.51435 -10.284 -2.81284
-26.6708 21.144 -8.73081
4.26784 -11.0301 -2.99279
4.39548 -9.66359 -2.6782
9.44884 -9.13772 -3.31387
6.89254 -11.3255 -3.32796
-27.6686 21.3495 -8.73269
43.3899 -12.6302 -11.2772
-11.6877 17.2214 -5.16669
11.7688 -10.1345 -3.83923
3.3594 -10.219 -2.64729
-24.9318 20.9434 -7.96648
9.94386 -8.98033 -3.22384
-7.96326 15.5375 -4.19264
4.03462 -11.921 -3.03315
14.9998 7.53375 -4.01611
3.3728 -11.0861 -2.77867
3.16164 -9.86122 -2.46841
-6.89747 -39.4384 -9.52708
-11.4906 -44.1353 -10.8112
3.96378 -9.08131 -2.34393
-29.4007 21.9722 -8.67192
14.8106 7.58028 -3.89594
-9.58228 16.5541 -4.49366
3.91443 -11.2866 -2.81263
-13.024 17.7575 -5.14769
-26.8878 21.3354 -7.97211
3.47668 -10.3001 -2.49309
11.0029 -9.44606 -3.34681
15.5722 -11.7393 -4.46791
-38.219 27.042 -10.7072
-12.8709 -44.8038 -10.6232
10.8736 -9.50759 -3.30464
-12.1456 -43.6509 -10.2773
-6.28083 -31.8463 -7.38532
40.2184 -12.4337 -9.5402
-27.5057 21.2492 -7.84324
14.6352 -11.3575 -4.16607
-31.328 22.7567 -8.68967
4.44554 -5.79986 -1.64026
5.28394 -9.15987 -2.36637
-29.4544 -75.9825 -18.0163
-9.78859 16.3882 -4.20585
4.09784 -9.7562 -2.32908
13.3947 -10.8052 -3.79479
3.99995 -9.15909 -2.19822
40.5901 -12.0037 -9.2707
-23.891 20.8255 -6.9125
3.38761 -10.081 -2.28237
4.38791 -9.8776 -2.33901
14.8841 7.48173 -3.57805
-29.4467 22.0337 -7.90669
-21.6161 -34.2713 -8.70447
-8.5215 -36.0861 -7.92923
-24.8323 20.9441 -6.92287
-31.6154 22.9635 -8.31666
3.24067 -9.90773 -2.22497
4.86468 -8.84716 -2.14128
14.6976 7.67455 -3.50861
4.21957 -10.4633 -2.40131
41.2517 -10.7503 -9.03468
-10.6978 16.7589 -4.19586
4.33015 -9.13132 -2.11998
5.14721 -9.03012 -2.17791
14.7047 7.39909 -3.42904
-38.8415 25.5772 -9.68127
-27.5606 -25.5549 -7.76859
3.02335 -9.46138 -2.06484
-29.1262 -30.7134 -8.72063
-20.1249 -31.4237 -7.68317
3.84736 -9.31396 -2.0796
3.73227 -8.7244 -1.94777
-15.8601 18.7553 -5.02853
-25.8367 -68.4813 -15.0212
3.98225 -8.76854 -1.9695
-14.0399 3.07146 -2.93649
-33.9449 -23.9901 -8.47604
-28.9476 -79.9592 -17.307
-11.5177 -37.0876 -7.89662
43.365 -9.47056 -9.0171
14.8546 7.58891 -3.34186
-17.9587 -23.7902 -5.98939
12.2959 -10.0482 -3.19369
-19.5054 -55.7971 -11.795
4.17001 -10.729 -2.29616
-12.2184 17.5213 -4.24442
-26.5811 20.9154 -6.70515
-35.8836 -21.2426 -8.28978
-32.6 -25.4597 -8.19726
-9.4258 -36.5379 -7.51218
14.4655 -11.4046 -3.65012
4.02166 -9.80488 -2.08934
3.21901 -9.84005 -2.02989
-36.249 23.9518 -8.44383
-23.9271 -57.6116 -12.0558
-16.4121 -47.3878 -9.56257
3.48263 -8.89164 -1.829
-20.5405 -33.2666 -7.42225
-32.3916 -25.2795 -7.74715
-29.3852 -26.0931 -7.39711
-22.6344 -55.9308 -11.4132
3.87728 -9.07124 -1.87906
-17.1329 -46.7284 -9.31299
3.43631 -9.20632 -1.81453
-32.864 -24.5292 -7.46504
-31.6756 -27.1593 -7.60407
-33.5502 23.6203 -7.39681
-20.8028 -51.4678 -9.9036
-31.6377 -25.4858 -7.14508
-25.2237 -65.308 -12.3311
-34.8357 23.1824 -7.32724
-17.0426 -48.0589 -8.93951
3.39755 -9.55065 -1.772
14.02 7.78097 -2.78015
-29.2254 -25.6149 -6.75858
3.46732 -9.49646 -1.75342
4.79075 -8.64379 -1.71279
-27.2777 21.4159 -5.99356
-31.2356 22.7182 -6.66218
-31.4503 -28.968 -7.37748
3.87982 -9.98454 -1.84852
13.8731 7.47872 -2.70758
-24.331 -55.9049 -10.3675
-20.9499 19.9331 -4.88014
-31.8941 -25.3503 -6.90825
-20.2993 -50.3272 -9.20044
5.58892 -11.7109 -2.1914
41.7978 -11.805 -7.36395
-18.7006 -49.9081 -8.97185
40.9458 -10.6534 -7.11769
4.98614 -10.7 -1.96545
-10.5054 16.7028 -3.20233
-30.6809 -23.75 -6.32246
42.173 -11.3255 -7.10693
-22.4494 20.3931 -4.91997
-21.0225 -52.0089 -8.90783
-23.2522 20.4445 -4.88413
-24.4913 20.8783 -5.0076
-33.4732 23.579 -6.33521
3.80421 -10.0771 -1.6555
-32.491 -25.1222 -6.27745
-14.1219 -42.6025 -6.89348
-31.5974 22.995 -5.94109
-23.4626 -56.4675 -9.31099
-7.76701 15.7285 -2.646
-33.7478 -23.7165 -6.21427
-33.0109 -24.269 -6.20792
-28.1137 -26.3781 -5.80135
-33.6094 -24.1898 -6.21062
-31.752 -25.4169 -6.07962
-35.2245 -23.5273 -6.28768
-25.2094 21.162 -4.85259
-33.5365 -25.0964 -6.17262
-32.4868 -24.6014 -6.01752
-25.8887 21.3331 -4.90798
-12.8199 -42.4815 -6.50365
-12.7706 17.4693 -3.11807
-7.77966 15.5652 -2.4824
3.50023 -9.53775 -1.44579
38.1035 -12.5316 -5.70578
-33.8766 -24.9545 -5.95182
-30.9713 -24.6148 -5.56749
-30.4538 -25.6857 -5.60983
-21.0907 -50.8179 -7.66656
-6.94084 15.3804 -2.2918
-14.1768 18.113 -3.12084
-12.01 -42.0395 -5.95281
-7.52351 15.2487 -2.28424
-25.1673 -65.5146 -9.49445
-22.7015 20.6452 -4.08704
-25.406 -57.5845 -8.36242
-31.7086 -24.4774 -5.28729
44.9143 -10.3496 -6.06198
44.2979 -9.73803 -5.9755
-13.768 -42.7867 -5.90664
6.61014 -10.894 -1.6762
-15.2059 18.625 -3.12975
-23.1112 20.3554 -3.9927
-33.033 -24.6605 -5.30683
10.6699 8.7512 -1.78089
-34.1787 23.5007 -5.32581
-30.1491 22.942 -4.77603
-31.3181 -24.5196 -5.01769
-13.0141 -37.0262 -4.96224
9.63669 -9.01912 -1.64724
12.7323 -10.4055 -2.07045
-34.3138 24.0715 -5.24143
-36.5319 -22.7594 -5.36041
-30.9863 -25.6116 -4.99508
6.75319 -10.2706 -1.53431
-33.3346 -23.5619 -5.0583
-13.9412 -43.4938 -5.61746
13.1209 -10.9381 -2.09726
41.4127 -10.7632 -5.28395
-16.3915 18.8704 -3.05572
-16.233 -39.3459 -5.20282
-8.86807 15.8543 -2.21328
43.2569 -9.96446 -5.37557
14.924 7.7907 -2.02165
9.38319 -8.90337 -1.54436
-34.1527 -23.8287 -4.93796
-18.0962 19.6678 -3.12774
-20.938 9.26561 -2.71317
-32.1255 -24.8711 -4.79153
11.2411 -9.67 -1.73637
41.7565 -11.1784 -5.09044
14.626 -11.3564 -2.12876
14.8519 7.63411 -1.89821
-30.3746 23.0997 -4.35353
7.23651 -10.9889 -1.49344
-10.3943 16.5958 -2.19376
9.41291 -9.27982 -1.47163
12.7114 -10.4403 -1.83452
13.8975 -10.9691 -1.96975
9.41727 -9.0817 -1.45226
7.03042 -10.4113 -1.37642
44.22 -9.65775 -4.92725
-11.0496 16.5984 -2.1508
-33.695 23.7599 -4.47782
11.6591 -9.79553 -1.64458
6.14612 -12.6391 -1.47875
7.52288 -11.5155 -1.43172
9.80929 -8.87064 -1.39165
-15.7403 -45.4842 -5.04607
16.4555 -12.186 -2.14798
-31.4764 -63.2373 -7.32718
14.7954 7.45016 -1.69273
-31.4143 -25.0359 -4.12627
13.7528 -10.8814 -1.79763
-32.1871 -24.8976 -4.11732
14.7817 7.72313 -1.6753
-12.8343 17.1637 -2.10652
-20.9331 -53.0739 -5.52859
-33.7955 -68.2703 -7.29317
-23.7288 20.7572 -2.97882
-31.2759 -25.6215 -3.84331
-31.2566 -25.9632 -3.87276
-22.3383 -58.4523 -5.90041
-14.2678 18.2573 -2.16937
-31.5347 -24.6712 -3.73673
-16.0492 -43.714 -4.33815
-14.2511 -44.2942 -4.34035
9.77879 -9.06376 -1.23921
-34.3185 -66.8503 -6.9233
8.53143 -8.62833 -1.10194
16.3893 -12.2115 -1.87033
-15.1796 18.621 -2.15566
-36.2143 -22.5245 -3.85941
-33.6424 23.7528 -3.6274
-31.3328 -25.2782 -3.55778
13.9597 -11.1028 -1.58377
-32.4362 -19.7661 -3.24098
10.9978 -9.65149 -1.24621
-27.0419 21.935 -2.92479
-11.5681 -36.0043 -3.19602
9.35963 -8.97434 -1.08894
-34.3751 23.634 -3.46618
8.65347 -8.65505 -1.0055
16.65 -12.1429 -1.68384
-17.0812 -44.3852 -3.82243
-21.9455 -50.2006 -4.28897
-15.5685 -38.4342 -3.28714
-13.5662 -38.0638 -3.21071
9.16403 -8.90563 -1.00421
11.2307 -9.73565 -1.16552
14.7691 -11.5519 -1.48486
-30.3868 23.1723 -2.97384
-29.4715 -13.7567 -2.52671
11.7967 -9.99393 -1.19869
-23.7703 -52.9389 -4.44508
12.7049 -10.5455 -1.25123
-42.6003 -80.8205 -6.61255
9.90546 -9.09106 -0.974635
10.8543 -9.68878 -1.01435
-33.5474 -20.8261 -2.73168
11.89 -9.99287 -1.07569
14.6173 -11.509 -1.29341
-15.8341 -40.0101 -2.92871
-15.4495 -40.8709 -2.99558
18.4288 -13.3183 -1.50994
-23.6247 20.6847 -2.08406
-25.5777 -59.0026 -4.25307
12.8001 -10.5295 -1.10833
-14.9686 -41.5276 -2.86913
15.1742 -11.4571 -1.23589
-33.4897 -67.8057 -4.7499
-15.3939 -47.7144 -3.11587
-33.3525 23.5612 -2.49907
-33.9317 -67.1014 -4.57736
-17.3535 -42.2714 -2.78661
30.544 -20.2506 -2.23164
41.5228 -10.8281 -2.6057
36.1146 -8.70715 -2.25125
-15.474 -41.5444 -2.67892
-27.3757 22.2177 -1.9988
-29.1999 -14.3758 -1.88077
-16.1932 -42.1856 -2.52083
16.7747 -12.5167 -1.17287
-27.3565 -16.4621 -1.71877
42.0991 -9.37751 -2.21864
-9.4306 -12.6008 -0.799034
-15.7747 -41.9813 -2.2343
5.67488 -12.3854 -0.677108
-14.3913 18.2437 -1.13318
-15.5521 -48.8822 -2.51982
14.7972 7.76302 -0.804814
-16.7081 -42.8266 -2.18531
-15.0008 -48.7872 -2.40892
18.573 -13.1776 -1.0918
-17.725 -51.4034 -2.53695
36.3966 -8.93918 -1.75655
-29.0999 -14.8802 -1.46241
-25.132 -57.5871 -2.78706
-16.9087 -41.6031 -1.99959
9.61717 -9.07514 -0.589685
12.5342 -10.2877 -0.728003
43.6985 -9.9987 -1.99404
-14.4137 -43.8434 -1.96492
-33.2757 23.523 -1.69666
-54.7418 29.73 -2.48411
-34.3398 23.6322 -1.52905
-19.4011 -50.7358 -2.03932
-34.9731 -22.0232 -1.47735
9.70406 -9.03091 -0.487504
6.57603 -10.7831 -0.438386
-13.3707 -39.8594 -1.39215
7.41321 -13.012 -0.511655
18.4691 -13.0812 -0.764724
-27.4986 -60.2262 -2.18068
-13.6516 -38.7296 -1.33101
20.8171 24.0092 -1.01988
-23.4461 20.8148 -0.98705
-21.4857 -55.0151 -1.83216
20.8505 -14.2186 -0.767497
-27.834 -14.3236 -0.948827
-13.36 -42.7568 -1.33235
-24.4238 20.7528 -0.920135
-24.4263 -56.2145 -1.7441
-18.0562 -48.8687 -1.5034
-34.8239 -21.2183 -1.12789
-9.82649 -12.8923 -0.46302
-23.6046 -55.6661 -1.70728
17.8934 -13.3302 -0.568224
29.541 49.2977 -1.48801
-30.5466 23.3065 -0.987289
-31.7241 23.2036 -0.97149
-27.4381 -13.1838 -0.745913
9.52555 -8.96391 -0.316682
-21.1669 -34.0937 -0.936018
-40.7613 14.1391 -0.942715
21.0491 -14.084 -0.537997
18.2981 -13.1919 -0.42343
12.7439 -10.4694 -0.274898
-33.4942 10.5924 -0.580155
-28.5149 -13.5787 -0.499907
-37.4893 -21.3497 -0.655337
-18.5727 -45.5295 -0.761256
-8.02836 16.8838 -0.253868
-32.9055 -24.5814 -0.569525
-34.2731 -23.3642 -0.530884
17.1731 -12.8127 -0.260116
18.088 -13.0231 -0.282809
28.6235 -17.65 -0.449083
-22.1001 -56.6029 -0.737833
-30.734 23.4318 -0.411597
-28.6311 -61.0926 -0.719043
-19.0564 -43.7083 -0.510908
-54.4097 29.8181 -0.515308
-34.7002 -61.2125 -0.649
-20.6622 -54.189 -0.55156
37.0812 -8.95833 -0.350912
-14.5038 18.4089 -0.164288
-36.902 -82.1772 -0.617535
-18.3556 -44.5208 -0.328458
9.53279 -8.97002 -0.0408234
14.6958 7.7363 -0.0280922
-29.6505 -13.2272 -0.0586241
-11.7499 -17.1075 0.025165
-12.9706 -19.5228 0.044475
-19.1206 -43.8908 0.197039
9.39984 -8.94936 0.059097
-33.3045 23.5696 0.212747
-22.4984 -56.7983 0.29497
-30.4638 -14.1388 0.201779
16.7072 -12.1901 0.115481
-13.2274 -20.2811 0.157816
14.6098 -11.3805 0.145614
-54.0821 19.3767 0.509333
7.03957 -12.0954 0.117404
15.8776 -11.7655 0.167628
-36.8882 -22.3221 0.452332
37.7574 -7.76037 0.401125
-35.7089 -22.3779 0.480046
-12.8189 -35.4053 0.438841
-13.3025 -35.7715 0.461839
-11.4132 -32.8647 0.422759
-9.80592 -30.3399 0.385359
24.8992 50.4164 0.733349
9.54459 -8.97744 0.16934
-12.9024 -19.9933 0.323791
-11.1075 -33.7176 0.48566
8.53293 -8.47673 0.182292
6.24108 -12.768 0.206903
7.1095 -10.9553 0.199291
9.30169 -9.01727 0.187047
7.99408 -9.07058 0.193305
9.67927 -8.9623 0.217227
37.2442 -7.97945 0.624732
-24.2888 20.8289 0.573883
-33.6002 -22.6063 0.69681
-34.9458 -25.6395 0.758995
12.8305 -10.5401 0.27197
13.1382 -10.5969 0.316219
-9.95304 -12.6195 0.303375
6.78724 -11.1235 0.254032
7.94922 -9.34235 0.241147
25.4063 52.2732 1.16574
6.93614 -10.9023 0.259723
9.13711 -8.64533 0.267187
11.459 -9.84923 0.331042
17.1258 -7.64937 0.377496
7.16925 -10.8773 0.294795
-12.909 -19.8168 0.564771
7.61005 -9.26504 0.273063
7.79265 -9.31911 0.281978
-26.1127 21.9472 0.886868
-29.19 -9.36069 0.769442
9.5727 -8.9068 0.336314
17.3345 -12.6631 0.54109
18.1551 -13.0727 0.556266
-23.376 20.466 0.810245
-28.253 22.3287 0.940938
-29.2017 -8.76441 0.798398
-33.5312 -17.8789 1.03209
-13.4799 -20.3552 0.648653
14.644 -11.3782 0.494728
22.5388 -3.27933 0.640895
-12.3018 -19.182 0.659028
24.7333 -4.68544 0.732611
16.0097 24.8451 0.886319
-28.3491 -20.8844 1.04183
7.1797 -11.2464 0.40059
6.92462 -10.6338 0.386455
14.4311 23.5085 0.847355
-7.63814 -8.82602 0.35694
12.9379 -10.5865 0.510417
-7.33562 -9.53415 0.368441
-28.8227 -8.13539 0.996896
-11.9821 -17.5153 0.710462
7.83153 -9.30226 0.402327
15.9777 10.9162 0.69323
10.7933 -9.39822 0.519871
11.8142 -9.98182 0.563522
21.92 44.1397 1.85158
-7.46283 -8.14765 0.413021
9.59957 -8.91116 0.488967
22.606 -3.17387 0.876325
25.4685 52.6474 2.26532
-7.46591 -9.90956 0.485288
10.3685 -9.45656 0.550468
12.6369 -10.4368 0.662151
21.3803 -2.62036 0.878167
-29.4671 -17.877 1.40929
8.69548 -8.65635 0.507078
-6.93619 -8.48113 0.470986
9.38689 -8.87969 0.540177
12.5093 14.36 0.841358
-29.1679 -8.56029 1.33609
14.4753 18.8541 1.06862
14.6714 25.2609 1.30208
20.8321 40.9647 2.03312
6.11313 -13.6201 0.665749
10.7773 -9.45499 0.648385
18.3431 -1.62788 0.842498
18.7976 35.7912 1.89662
14.6052 25.7332 1.38779
-11.2393 2.78776 0.558035
-7.26084 -9.57066 0.579341
9.11899 -8.93783 0.604744
11.3284 -8.69131 0.668637
19.9421 -2.28525 0.966933
11.5035 11.7235 0.815894
15.4495 37.1544 1.97862
7.71922 -9.408 0.599008
10.125 -9.22149 0.678177
14.2446 24.1547 1.40457
19.3966 37.6134 2.14862
20.8193 -2.59349 1.06681
-7.42124 -8.52605 0.58648
9.335 -8.88794 0.671179
16.3451 23.969 1.52443
16.053 29.102 1.7351
12.9098 -10.641 0.888902
10.4322 12.1953 0.858566
13.9704 18.9637 1.2656
11.0054 -9.54275 0.787652
14.7446 19.2109 1.33583
-26.7406 20.4982 1.84236
-6.9817 -8.19102 0.595479
10.1299 12.2469 0.890292
-7.28005 -9.39807 0.665845
9.86886 12.2939 0.914527
-28.2109 19.8614 1.96023
6.05255 -12.7825 0.809838
11.0545 11.9501 0.935864
-6.89341 -6.80326 0.561819
11.144 11.8833 0.959466
-6.82247 -8.43045 0.649138
6.19878 -12.4604 0.813279
14.3837 19.1377 1.4398
13.8149 22.5871 1.57972
12.9699 29.9742 1.96036
-6.1839 6.58641 0.555259
-8.18757 -7.75805 0.682355
-7.13215 -8.18189 0.66667
5.67441 -12.3406 0.821448
-7.49586 -6.90133 0.633987
6.95872 -11.0871 0.80947
6.94515 -10.4962 0.785596
11.2659 -9.72476 0.919162
12.0448 -10.0759 0.973165
16.0754 7.11946 1.12032
14.6301 18.9524 1.51501
-7.25 -6.31843 0.623885
10.2044 -9.31986 0.891914
-7.39201 -6.27111 0.63602
11.3442 11.9704 1.12385
9.311 20.9608 1.56184
-7.29267 -9.68029 0.809769
11.4976 12.4702 1.16373
-6.96541 -4.46375 0.569239
-6.76701 -8.21881 0.726108
-6.70868 -4.43966 0.55508
9.22552 -8.82017 0.888583
9.95049 -7.80682 0.890939
12.5218 15.7819 1.45678
9.76313 -8.24448 0.934432
11.2735 16.8566 1.52464
11.1924 17.8438 1.57356
9.40663 17.9036 1.52517
8.81575 19.0519 1.57891
7.1253 21.2361 1.68383
10.5671 18.2393 1.60596
9.96895 -7.56352 0.956813
-7.04214 -7.20354 0.772038
-17.2937 -6.2726 1.43869
9.43144 -7.64608 0.951805
9.14288 18.2609 1.61184
-6.38843 -4.26567 0.609209
-6.84537 -8.23876 0.849244
4.83028 -5.72797 0.595745
8.81396 19.391 1.68942
7.58365 18.5419 1.61067
5.02288 -5.78903 0.617531
12.6428 11.4082 1.37996
11.6497 11.7019 1.35217
6.70011 -9.34699 0.934881
12.1033 11.5765 1.3768
6.50137 19.0851 1.65021
-6.36457 -4.3936 0.630495
-7.1825 -9.50604 0.977946
11.4178 11.9619 1.36829
10.3812 9.08169 1.17456
-5.05856 -11.5412 1.06439
6.11573 -6.03593 0.750071
9.18086 -7.15217 1.00097
-6.80753 -6.70504 0.811931
10.3099 12.2181 1.39565
8.76352 -7.30223 0.991618
10.7059 12.0684 1.41195
-7.32633 -7.78218 0.937131
8.16167 -7.26593 0.970234
10.0869 12.3291 1.43211
-7.08716 -7.75888 0.931852
-6.9547 -8.36042 0.97608
10.4768 12.1785 1.45883
10.3675 13.3735 1.53313
-7.13434 -8.34865 1.00045
11.1074 10.7289 1.42051
-6.32244 -4.23652 0.700039
-6.8783 -8.61486 1.0087
-6.33644 -4.39998 0.71131
10.9948 8.48495 1.30333
10.5489 9.24765 1.30808
6.36815 15.1272 1.54361
10.3996 11.188 1.44545
-11.2854 2.89192 1.10129
6.1473 -5.95538 0.815998
7.98079 -6.61611 0.995732
10.6493 9.11925 1.36112
9.41456 12.3876 1.50658
9.59898 12.3185 1.53863
7.5707 12.1076 1.41848
7.80454 13.0467 1.51328
11.1389 7.99881 1.39765
7.04312 12.5329 1.45086
8.96381 11.2334 1.46234
6.89352 13.3456 1.53719
5.76858 13.7068 1.52656
9.108 10.3835 1.42758
8.9265 12.1609 1.56739
11.3045 7.60171 1.42116
9.16654 9.91323 1.4058
4.96909 -5.81468 0.821152
-6.85694 -4.66359 0.874982
5.48012 13.6528 1.56137
-7.07096 -4.51427 0.894906
8.83854 10.5904 1.48108
-6.77946 -6.78917 1.02647
5.90131 -5.82479 0.895687
9.61528 8.46567 1.38092
8.88408 9.27909 1.38174
9.16979 10.2221 1.48891
4.69217 13.5984 1.55233
4.22794 -8.04084 0.984154
6.39242 10.6944 1.37103
-6.81205 -3.93105 0.865991
6.26548 11.7477 1.47718
-6.90633 -3.8693 0.877287
9.64567 7.15697 1.34319
6.59052 11.2477 1.45185
9.74115 6.98425 1.3466
5.36176 11.4299 1.42743
5.36279 11.9243 1.47665
4.63057 12.0501 1.46049
9.77293 6.64241 1.34676
-6.9034 -4.57129 0.948518
7.39031 -6.21627 1.1008
-7.34684 -0.787173 0.847649
-6.28456 -5.39889 0.954445
5.24535 -5.56399 0.882368
8.81305 7.83495 1.37387
4.4138 -7.1762 0.97603
10.3579 5.12783 1.35355
8.89706 7.73993 1.38626
5.19689 -5.60774 0.90329
8.54205 7.86282 1.37763
8.83104 8.98404 1.47392
-7.06131 -5.66191 1.07118
10.09 4.72462 1.32747
-6.9302 -3.85821 0.956025
9.08928 6.11014 1.32836
5.14333 11.2738 1.50203
-6.90465 -3.07065 0.91853
-6.88893 -3.25693 0.921839
4.87819 -5.9492 0.939062
5.96629 -6.12123 1.04078
9.32384 5.59256 1.34407
8.40888 7.17895 1.36705
-6.96235 -4.31795 1.00953
-6.89361 -4.54278 1.01782
8.19669 8.52081 1.46686
4.96645 11.169 1.51766
-6.56185 -5.62773 1.07609
3.70561 -7.56797 1.05016
8.44594 7.69062 1.42933
6.07094 -5.61097 1.03648
9.1164 6.02772 1.38501
-6.14427 -5.42166 1.03426
8.49943 6.57519 1.37042
8.0353 7.46042 1.39481
-7.11395 -1.78616 0.938593
-7.02578 -2.31004 0.944958
-6.45635 -5.32772 1.06828
8.78312 5.63092 1.33754
8.09789 7.9891 1.46615
-7.27788 -1.2557 0.947499
-6.90957 -4.12593 1.04079
7.39064 6.18673 1.24835
8.02871 6.99765 1.38103
7.91245 8.0677 1.46433
-6.9218 -2.8309 0.974007
-6.92307 -2.97101 0.974379
4.49999 9.96505 1.43679
8.95822 4.09285 1.2964
-7.26129 -1.60916 0.977878
6.83033 -4.2534 1.06941
4.92588 -5.94081 1.0232
-7.34761 -1.11934 0.995363
-7.02619 -2.20309 0.98545
-7.06343 -2.27249 0.991743
-6.00265 -4.4039 0.995294
5.1832 -6.55822 1.1141
6.90081 -4.17028 1.08552
8.02225 7.1247 1.45353
-7.16417 -1.7213 0.99103
-7.09494 -1.9591 0.990428
8.75198 4.83181 1.35783
8.28731 5.84165 1.37858
-6.93254 -3.62506 1.06641
8.82814 4.14328 1.33764
3.29739 10.3628 1.48844
-7.32685 -1.20224 1.01688
-6.01796 -4.44727 1.0295
-5.99844 -4.54622 1.03074
7.13753 -3.92842 1.11981
8.02519 6.44829 1.4238
5.30685 8.96946 1.44305
-6.39152 -4.32775 1.05856
4.9314 -5.52412 1.02871
7.17502 -3.82425 1.13158
7.54739 -3.68036 1.16187
3.57297 9.91167 1.46681
3.38626 10.1886 1.49654
-7.38367 -1.08423 1.04239
-7.08568 -2.00718 1.02676
4.97095 -5.28619 1.0144
7.23647 -3.73232 1.14391
7.35229 -3.66689 1.16531
7.85902 -3.35078 1.21458
-7.16711 -1.87795 1.05419
-7.01933 -2.95057 1.10388
-6.01575 -4.37914 1.07053
7.89341 -2.77814 1.22435
8.19718 4.6008 1.37725
4.95036 8.48026 1.43906
8.33428 4.48805 1.39902
7.81915 -2.33738 1.20304
7.11143 5.66105 1.36116
2.9238 9.33188 1.4618
-7.10561 -2.02284 1.10776
7.47474 -3.10591 1.22027
8.19412 4.52851 1.41915
5.74831 7.39266 1.42194
5.2545 7.5804 1.4054
5.08912 7.88459 1.42535
5.04196 7.99096 1.42995
7.32575 -3.16633 1.21896
7.66969 -2.75265 1.24091
-6.76645 -1.68535 1.05087
7.82108 -2.25377 1.24817
7.20255 5.40181 1.38247
-7.11521 -1.95562 1.14562
-6.9305 -2.79015 1.16169
6.78391 5.50254 1.37012
-7.36933 -1.09781 1.16433
-7.15628 -1.82721 1.15728
-7.05789 -2.07084 1.15301
-7.1328 -1.87559 1.15793
-6.90551 -2.9387 1.17863
4.77794 7.40835 1.40188
3.44691 -6.033 1.10949
-7.28907 -1.30178 1.18674
3.52894 -5.70905 1.08122
3.56591 -5.61454 1.07063
7.0517 4.7533 1.38578
4.63263 7.33202 1.41142
-7.08271 -2.02682 1.20118
-7.10491 -1.95018 1.20955
6.94729 4.81408 1.39786
3.78967 7.87263 1.44636
6.05101 -3.31806 1.14957
6.61613 4.86036 1.36882
4.63594 7.12527 1.41789
3.8372 -5.30163 1.09994
7.08892 4.41432 1.40614
7.46236 2.85346 1.35021
6.30231 5.26846 1.39222
-7.29271 -1.25807 1.26084
6.73924 4.07451 1.35249
-6.45925 -2.77558 1.20009
5.50868 -3.62914 1.13317
5.68963 -3.51786 1.14849
2.73195 7.78517 1.42611
-7.38708 -1.04157 1.29398
5.33322 -3.783 1.13978
-6.31908 -2.26258 1.16442
-6.27925 -2.41977 1.17884
4.28177 -4.66534 1.10731
4.49448 -4.47763 1.11285
4.59203 -4.44933 1.12171
-6.81195 -1.73534 1.23889
4.3127 6.47018 1.38699
-7.17323 -0.930041 1.29359
-6.15159 -2.26049 1.16794
6.6278 3.68545 1.35944
6.08714 4.35262 1.35734
3.60989 -5.32917 1.17053
5.13121 5.66697 1.39827
2.49742 7.14607 1.42165
6.47588 3.04784 1.35326
-1.70566 -5.7803 1.14101
6.42374 -1.38539 1.24681
6.26544 2.77447 1.31926
6.21173 2.37895 1.32708
-4.47237 3.95785 1.4051
4.31799 3.52852 1.33368
4.20434 3.28691 1.32107
4.66491 -1.67763 1.24473
4.81802 -1.38073 1.25375
-2.15954 4.84024 1.32539
3.72876 -2.95433 1.22289
3.67482 -2.5507 1.1941
3.40874 -2.96351 1.22647
3.99755 2.56506 1.32721
-2.59285 -3.53215 1.25062
-2.32411 -3.56781 1.2158
3.74934 2.05473 1.29971
3.72621 1.97729 1.29921
-2.85491 3.50148 1.39481
-2.29432 -2.41728 1.18692
1.95878 -2.78567 1.21467
-2.13047 2.77736 1.33075
-2.035 2.76533 1.33691
2.25365 -1.87196 1.22666
2.38271 -1.49975 1.22344
-2.01959 1.88119 1.29999
-2.06257 -1.44182 1.22815
1.45247 -2.07381 1.24761
-1.99071 -1.08693 1.21434
-1.92348 -0.707183 1.2201
-1.92525 -0.702989 1.24571
-1.95479 -0.344156 1.22937
-1.89159 -0.564322 1.23012
-1.89123 -0.530555 1.23523
8.20404 -8.68268 -7.45118
12.0749 -10.2443 -8.76376
-8.87957 15.8534 -7.05245
20.2599 24.67 -11.4658
-8.8263 -2.52769 -2.5871
-34.9877 -23.3719 -7.77219
-34.5694 -22.6075 -6.09425
-34.3009 -23.3103 -6.15841
-31.5918 -20.261 -2.82218
9.25498 -8.81511 -0.390625
-7.86099 16.9444 -0.460819
-29.7599 -11.5161 0.7354
-6.93605 -8.28975 0.46179
16.3985 23.5474 1.55917
11.2457 15.8156 1.60515
-6.70733 -6.68031 0.885367
4.16332 12.0802 1.47223
8.66723 9.02814 1.46387
7.96425 -8.75521 -10.3693
8.82208 -8.5302 -10.4858
6.94985 -11.9258 -11.5033
6.86572 -11.3396 -10.8858
8.14408 -8.25636 -9.52317
7.01559 -12.0189 -11.3169
7.05913 -10.9627 -10.4466
7.99388 -8.36915 -9.19459
6.72107 -11.2745 -10.2798
6.43917 -11.6869 -10.2044
7.74969 -8.84203 -8.9636
6.19931 -14.3036 -11.7978
8.28931 -8.69134 -9.09146
6.29405 -11.899 -10.1669
6.1422 -12.0786 -10.105
7.48313 -9.43532 -8.99186
7.90164 -9.04732 -8.91834
10.4473 -9.43184 -10.4686
6.11577 -14.1054 -11.3643
6.09831 -13.6631 -11.0011
6.12588 -12.5668 -10.2832
9.1824 -8.8124 -9.33656
9.27007 -9.05872 -9.45365
5.85982 -12.4955 -10.0263
9.34591 -8.97561 -9.248
6.85343 -11.1132 -9.26673
5.611 -12.9607 -9.99651
9.67423 -9.06463 -9.39578
7.60104 -9.33459 -8.46396
9.97834 -9.16947 -9.52086
10.896 -9.47514 -10.1325
11.415 -9.67693 -10.0505
8.37532 -8.59852 -7.94719
7.42293 -9.28909 -7.85685
8.15793 -8.70835 -7.88748
7.6196 -9.34181 -7.88732
7.82825 -9.39188 -7.8365
8.31107 -8.52573 -7.61152
0.362029 15.8805 -10.1343
7.51933 -9.31396 -7.61797
10.8872 -9.58666 -9.22376
7.21638 -10.6882 -8.16262
8.14619 -8.48811 -7.41964
4.61055 -15.4006 -10.1108
8.70434 -8.69166 -7.61083
7.91283 -9.02287 -7.40286
4.04635 -18.0144 -11.3735
8.18881 -8.61827 -7.26804
4.08551 -17.3093 -10.8524
0.147804 14.8869 -9.0579
6.64639 -11.2494 -7.95552
7.73449 -9.25856 -7.32024
10.104 -9.29261 -8.32996
6.81256 -11.2386 -7.89011
8.05109 -9.19388 -7.33599
11.2416 -9.67344 -8.86737
5.39575 -13.8457 -8.81368
7.72643 -9.25614 -7.15062
9.33658 -9.01973 -7.69267
6.89378 -11.1022 -7.73501
7.97428 -9.11776 -7.10778
9.73535 -9.17123 -7.79501
14.7889 7.38969 -9.60047
8.65505 -8.81866 -7.14016
6.92457 -10.9519 -7.44722
2.63813 -11.2059 -6.62124
7.85081 -9.06132 -6.86687
9.58763 -9.1236 -7.51837
10.7704 -9.4757 -8.09287
3.2803 -20.6108 -11.7369
6.79359 -10.9707 -7.2344
10.0861 -9.27293 -7.67309
12.303 -10.3233 -9.00697
9.22554 -8.99315 -7.19947
4.61053 -14.2787 -8.36563
7.99332 -9.20435 -6.77081
14.7107 7.52072 -9.06945
9.67961 -9.0904 -7.29312
0.838656 17.4606 -9.54509
2.74276 -19.8727 -10.9388
11.1046 -9.62301 -7.97852
4.22666 -14.4012 -8.12494
14.6245 7.64772 -8.88838
15.0019 10.3574 -9.78668
13.9632 7.70303 -8.51984
10.9248 -9.5953 -7.73251
13.2198 -10.7656 -9.06964
3.04519 -19.3477 -10.2964
11.3271 -9.8003 -7.6217
2.16903 -20.3966 -10.3529
10.237 -9.32022 -6.96195
14.2184 -11.2464 -9.10259
13.7545 -11.1252 -8.85674
10.9792 -9.62998 -7.27621
7.49727 -9.32389 -5.92524
3.56128 -8.46404 -4.52558
-8.72425 -1.91552 -4.39171
2.22514 -20.1882 -9.96168
4.52955 -9.29471 -5.05687
0.405453 13.6519 -6.68511
7.5962 -9.25607 -5.84326
-8.57675 16.3704 -8.95197
-9.22736 -2.43935 -4.59898
14.9321 -11.5312 -9.06698
19.2754 5.51504 -9.58725
-10.3478 -2.56195 -5.04232
1.90966 -20.5705 -9.82357
17.0818 16.0517 -11.1002
7.56745 -11.1881 -6.37374
19.9213 5.37706 -9.71661
13.9776 -11.0665 -8.29103
2.92432 -17.3091 -8.16304
19.2524 5.6963 -9.27465
17.7517 -12.937 -10.147
9.8424 -2.48602 -4.69027
20.1742 5.11334 -9.60169
17.205 16.1783 -10.881
1.81103 -20.2491 -9.30418
9.65135 -9.02501 -6.05088
-9.23765 -1.67672 -4.28193
9.43197 -3.46087 -4.57573
6.69845 -11.2925 -5.97249
9.88949 -2.61212 -4.63939
19.1455 5.838 -9.01048
17.5791 17.436 -11.1289
9.34845 -3.07945 -4.43021
15.3588 -11.8185 -8.69746
7.02091 -11.5358 -6.04073
7.13652 -10.8946 -5.80556
9.53772 -3.39703 -4.51172
-10.1123 16.5765 -8.64584
17.561 -12.8164 -9.66151
19.4302 5.59728 -8.96167
16.0255 7.26878 -7.79151
17.6835 17.8607 -11.1139
16.3481 -12.1586 -8.98021
-11.3929 17.3261 -9.11571
-6.6312 15.1572 -7.25504
-5.25951 4.93346 -3.14252
20.023 5.43654 -9.01956
9.53669 -3.39732 -4.36897
18.07 18.3142 -11.0564
15.7488 -12.1196 -8.55174
14.7935 7.39654 -7.058
3.83425 -9.29188 -4.27094
-11.313 17.2076 -8.71931
6.92917 -10.8829 -5.44055
-13.6602 3.3478 -5.92592
0.743349 -22.4362 -9.45993
15.7384 -11.9167 -8.25628
-5.19127 5.71686 -3.23144
0.999416 -22.3019 -9.358
1.23141 -20.7978 -8.72828
14.1064 7.5655 -6.69436
18.392 19.166 -11.0969
3.77905 -8.9463 -4.05013
14.7052 7.69495 -6.90772
17.769 18.9768 -10.787
-9.54246 -1.09519 -3.96511
4.00487 -8.49755 -3.84889
13.9734 7.71554 -6.55183
6.82863 -10.9627 -5.28067
-13.697 2.5587 -5.70037
-8.06763 15.6313 -7.14941
19.0766 20.7281 -11.4108
15.0061 7.2103 -6.70715
-5.33395 14.5705 -6.22206
13.8959 -10.986 -6.93867
1.52792 19.1664 -7.46631
-8.86728 16.0165 -7.11545
18.894 5.76196 -7.65299
-1.76219 13.3647 -5.22178
5.28789 -9.38035 -4.1529
-2.39938 13.5936 -5.30238
19.3901 22.4298 -11.3669
4.65608 -8.50749 -3.68323
19.317 5.54164 -7.64661
0.879278 -26.6715 -10.1409
14.8394 -11.4353 -7.05089
19.8716 5.38356 -7.70499
9.42288 -3.43307 -3.74938
0.534715 -22.8112 -8.50252
3.24214 -10.774 -4.20377
19.9781 23.2419 -11.3798
0.910448 -8.73034 -3.25507
13.971 -11.0644 -6.57197
20.2763 5.15704 -7.69208
17.7347 17.5235 -9.10966
-13.106 2.29608 -4.83763
20.6116 24.6127 -11.6416
2.28274 -13.2367 -4.83948
12.9861 -10.5017 -6.01012
0.796221 15.4015 -5.5173
-8.21961 -2.80497 -3.10658
0.410354 -21.9549 -7.84907
-4.2694 14.0165 -5.21285
0.638946 -22.0082 -7.82402
15.7809 -11.9188 -7.00989
-15.9946 18.4915 -8.61756
5.91834 -11.3196 -4.49154
-11.1999 16.9024 -7.08312
0.0929315 -18.5918 -6.53504
14.2065 -11.259 -6.33884
20.2311 5.32803 -7.3019
0.658542 -23.1423 -7.99514
-5.08619 14.7688 -5.35314
3.63637 -8.44162 -3.16405
4.87092 -9.02289 -3.51385
-14.7493 18.312 -8.04949
2.27341 -10.8799 -3.80922
-9.03021 16.3826 -6.3779
3.01848 -13.6588 -4.76974
-15.2329 18.6972 -8.17694
20.0499 5.45129 -6.98335
21.7662 26.9254 -11.5696
35.6741 -20.1384 -13.6912
-5.3862 14.2891 -5.07299
1.90593 20.6295 -6.87292
1.26744 -10.2506 -3.41515
-5.33179 14.6845 -5.07535
-12.7989 17.5225 -7.04034
18.4553 -13.151 -7.35979
3.5586 -8.67003 -3.00484
6.20865 -10.095 -3.79834
2.31287 -11.0066 -3.57918
-4.6315 -34.7773 -11.1499
-1.15005 -24.0693 -7.66953
14.934 10.2851 -5.72188
-13.4345 17.8777 -7.06962
-18.3135 19.7531 -8.46857
6.94473 -11.0678 -4.03993
1.38803 -21.9677 -6.80905
-2.60756 -27.7586 -8.55706
7.09113 32.7375 -10.2194
0.771168 14.9898 -4.55832
-11.3251 17.0883 -6.18006
-2.7392 -26.8842 -8.13698
-14.5936 18.247 -6.97263
-5.37846 -35.2562 -10.6179
0.841784 -25.2224 -7.54523
-5.48196 15.0809 -4.77445
2.07021 20.5736 -6.09092
-21.6603 20.1968 -8.7384
18.1208 5.76641 -5.59696
-4.36145 14.654 -4.49664
-8.0602 15.6387 -5.16293
4.25075 -9.13259 -2.96086
4.62772 -11.5961 -3.65102
-12.6811 2.23398 -3.70085
-33.8153 -47.8991 -16.8699
-15.4608 18.5999 -6.95389
6.94017 -11.0537 -3.75788
2.56213 -9.5404 -2.80689
12.8898 -10.4335 -4.7196
-8.47059 -2.46519 -2.50155
20.8111 26.8387 -9.6206
-8.59882 -2.26631 -2.51284
-2.59435 -26.4626 -7.46059
-13.0905 2.00598 -3.68809
4.37872 -11.3063 -3.36553
-9.47071 16.2882 -5.17386
-13.284 17.7171 -6.08324
-5.48512 14.6419 -4.27484
-8.70414 -42.2618 -11.804
-21.8593 20.399 -8.03861
-9.89842 16.4146 -5.13796
-27.2082 20.9009 -9.12818
11.3678 11.4412 -4.25492
4.31765 -11.2717 -3.19793
46.505 -13.519 -12.8306
-8.41276 -39.6957 -10.6635
4.08409 -8.6459 -2.51789
11.1383 -9.90704 -3.89985
-14.7052 18.4126 -6.12819
6.52418 -10.4045 -3.17885
3.17465 -9.63613 -2.62298
-30.8612 -45.1991 -14.1311
-4.45048 -29.1862 -7.63711
3.53529 -10.3557 -2.82176
4.06275 -9.37474 -2.62627
15.5364 -11.6822 -4.96015
-7.28472 15.5209 -4.34097
-32.2922 -43.0656 -13.6486
4.30293 -11.1218 -3.01845
4.25095 -7.69681 -2.23786
6.52134 -10.6376 -3.11201
44.2384 -13.375 -11.5235
-28.8031 21.7309 -8.92098
-11.7304 17.2346 -5.14044
-28.2005 -41.1378 -12.2622
-10.1465 -39.933 -10.1615
-24.9251 20.9351 -7.99978
4.34244 -10.3143 -2.74979
-12.2729 17.58 -5.19938
-7.98152 15.5525 -4.21446
10.2486 -9.24433 -3.30491
39.8249 -13.2289 -10.0427
15.0444 7.52379 -4.00403
-6.46515 -37.0181 -8.95009
3.9612 -9.07749 -2.34691
46.3811 -12.4135 -11.3962
-12.5166 -46.0821 -11.3102
3.84692 -11.0337 -2.75431
4.90143 -8.68092 -2.34535
-13.0007 17.7173 -5.1151
10.9761 -9.61894 -3.33587
-6.31507 -32.0195 -7.44555
-27.6489 21.3548 -7.91974
41.0416 -8.97545 -9.5344
-31.0782 22.5644 -8.61124
-35.9678 -23.5705 -9.63497
40.2497 -12.4425 -9.45979
5.4447 -9.45715 -2.43657
-12.4702 2.84543 -2.80655
40.1212 -11.7574 -9.23799
42.0627 -12.0017 -9.62412
-5.47841 14.3759 -3.36495
13.3391 -10.7338 -3.76899
37.6454 -12.098 -8.69342
-23.8035 20.7461 -6.84966
-30.9756 -76.3658 -17.8791
4.30118 -9.68101 -2.29743
4.53108 -9.16401 -2.20829
-14.8318 18.4791 -5.06104
-31.529 22.9021 -8.32152
-32.429 23.0137 -8.50089
-29.641 -78.6398 -18.011
-10.8772 16.9969 -4.27974
-8.64824 -36.708 -8.01823
3.18422 -9.66699 -2.17054
3.95757 -9.80796 -2.25526
45.1837 -10.4758 -9.90163
14.8776 7.45192 -3.52722
-15.4189 18.981 -5.17828
5.15516 -9.03939 -2.1864
26.102 37.7649 -9.59151
14.9155 7.806 -3.49474
-30.5696 -23.6091 -8.01214
-11.6461 17.1595 -4.21509
-15.8869 18.7837 -5.00902
-35.8795 24.085 -8.78153
43.8559 -9.5658 -9.15421
-13.664 -43.966 -9.35565
4.12728 -9.7142 -2.14759
11.5663 -9.6147 -3.0604
-12.202 17.5111 -4.2613
-20.7191 -59.462 -12.5824
-13.3195 -41.3741 -8.60405
4.06126 -9.9007 -2.11897
-34.6138 -23.6685 -8.26577
-27.2007 21.3482 -6.80586
-33.6289 -24.0552 -8.05932
-7.01516 15.5029 -3.30393
-27.6598 -64.9903 -13.7174
-34.0337 -22.6573 -7.87847
3.42925 -9.34441 -1.92224
45.2665 -10.4879 -8.92312
-12.9606 17.6957 -4.19383
3.9815 -9.32702 -1.93549
-36.9752 -22.4597 -8.18895
-21.6853 -35.227 -7.86639
-16.075 -46.3815 -9.28667
37.4771 -12.3628 -7.46086
-36.6639 24.6245 -8.26584
-34.1796 -23.6052 -7.8029
-33.1175 -24.23 -7.70243
-22.0634 -54.659 -11.0894
-17.4072 -47.2818 -9.34455
3.81523 -9.19503 -1.8389
42.0476 -11.3325 -8.08737
5.74553 -9.69243 -2.06516
-25.4302 -57.6633 -11.5366
-21.1192 -52.4181 -10.22
-14.8012 18.4502 -4.19475
-31.5493 -25.4452 -7.2042
-20.5863 -27.4318 -6.13274
-40.175 25.3509 -8.38188
-27.2123 21.3669 -6.02228
-34.7289 23.7647 -7.30679
3.90094 -10.028 -1.86598
4.76479 -8.5998 -1.70869
13.9387 7.48545 -2.72842
14.0096 8.03932 -2.76601
-31.3799 22.819 -6.65181
41.7312 -11.8066 -7.38415
41.537 -10.7577 -7.30482
-31.7063 -25.1807 -6.86808
-21.4087 20.3891 -4.96498
-21.0865 -52.4121 -9.54434
14.7898 7.4126 -2.77418
-32.268 22.8438 -6.6043
-24.4262 -58.2352 -10.4336
43.0244 -11.5904 -7.24307
-10.522 16.7046 -3.18651
-21.3913 -53.0681 -9.1243
-35.4052 -24.4404 -6.7789
-23.1412 20.3316 -4.82384
-24.5725 20.9766 -5.00764
-40.8894 24.7571 -7.40721
-11.4036 17.0679 -3.16946
3.46513 -9.5099 -1.56552
3.85957 -10.2064 -1.68975
-7.75588 15.7315 -2.67987
-31.6178 23.0122 -5.97802
-32.2131 -24.8805 -6.18904
-28.3399 -26.5087 -5.87844
41.7207 -10.8461 -6.55296
44.3123 -9.65405 -6.90989
-6.65831 14.8313 -2.43338
9.81414 -5.14433 -1.64461
-33.9734 -24.5034 -6.2376
10.1666 -9.14087 -2.03762
44.4483 -10.2825 -6.77582
-37.201 -24.7641 -6.57679
-31.9725 -26.3722 -6.06243
-13.0567 -43.2606 -6.64782
16.8341 -12.1794 -3.04395
-25.8062 21.247 -4.85808
-25.5863 -57.3284 -9.04542
-7.75106 15.5252 -2.48204
-12.9121 17.6052 -3.11328
6.01567 -11.493 -1.85392
-13.627 18.2139 -3.19579
-35.3418 23.8741 -5.99628
6.73985 -11.0093 -1.80443
37.1972 -12.2757 -5.50981
-31.5935 -25.3159 -5.64993
-33.6108 24.1543 -5.73391
-21.2606 -51.2411 -7.66147
44.5961 -9.97661 -6.30202
-6.99685 15.4746 -2.32166
-23.5782 -61.5352 -8.95081
7.73473 -9.36044 -1.62971
-14.2249 18.163 -3.11044
13.1667 -10.5015 -2.27909
-22.5779 20.5373 -4.10438
41.6409 -10.7662 -5.7106
44.3266 -9.70929 -6.00674
-22.9606 20.2055 -3.9996
-33.1533 -24.8081 -5.40824
-15.1303 18.5277 -3.0933
-34.6362 23.1178 -5.40635
-38.8498 -16.4039 -5.44466
6.9981 -10.4076 -1.60936
10.7223 8.77854 -1.77894
-34.2815 -23.6246 -5.32763
-31.9966 23.3582 -5.01132
-36.0838 -22.5166 -5.33086
41.5115 -10.7355 -5.36638
6.77808 -10.3403 -1.54512
-7.79056 15.583 -2.15785
-25.4252 21.349 -4.06543
-34.0037 23.9647 -5.13155
6.27347 -12.0319 -1.65332
44.2803 -9.44707 -5.54626
14.9291 7.82148 -2.02605
-18.4649 -44.721 -5.83357
7.0676 -10.504 -1.52458
-20.7174 9.18165 -2.68205
-14.7617 -44.653 -5.52924
-32.2989 -24.9019 -4.76859
-31.7784 -25.4147 -4.76144
41.5898 -11.1406 -5.06101
11.1974 -9.64294 -1.71222
-30.4024 23.0524 -4.38968
6.62408 -10.7931 -1.44997
7.47369 -9.20152 -1.35612
11.5473 -9.69367 -1.71262
9.43362 -4.60214 -1.18862
14.9082 7.6609 -1.88875
-10.5188 16.7458 -2.23224
-32.7662 23.9424 -4.54627
38.4711 -12.6642 -4.54259
9.33395 -9.00106 -1.43473
-11.2426 16.8616 -2.20346
6.7667 -12.7397 -1.56286
44.4194 -9.65388 -4.92841
10.7195 8.80875 -1.49495
16.689 -12.3971 -2.23164
41.781 -10.8361 -4.62561
9.59494 -8.95617 -1.39074
8.36197 -8.44691 -1.24527
-31.3311 -25.0722 -4.17824
-31.3073 -62.7963 -7.31943
14.9056 7.47532 -1.70342
-32.2364 -24.8563 -4.17637
-13.0601 17.8036 -2.24229
-12.9727 17.3803 -2.156
10.1805 -9.06393 -1.33549
-21.6041 -54.8661 -5.78048
6.29249 -12.0504 -1.31602
16.5602 -12.1157 -1.9727
41.6707 -11.1974 -4.13662
-31.8902 -64.4622 -6.83635
-21.6133 -56.7196 -5.76402
-23.6804 20.7129 -2.94114
45.1016 -10.0333 -4.31615
9.69194 -8.9643 -1.22228
39.2843 -12.9589 -3.85531
-15.2556 18.7008 -2.18579
-30.0003 -13.6781 -3.00527
-33.5629 -65.4281 -6.77765
15.783 -11.8133 -1.79371
8.61698 -8.70774 -1.10948
12.8431 -10.6013 -1.45041
44.6923 -10.3588 -3.93061
9.37864 -9.00564 -1.09315
10.919 -9.61555 -1.22314
-34.7684 23.877 -3.50972
16.7589 -12.2212 -1.71831
-17.4285 -45.3521 -3.89135
14.6187 -11.4308 -1.48009
-11.9818 -33.5435 -2.81131
-30.3337 23.0643 -2.94683
-33.6835 23.8086 -3.18419
-23.4664 -53.6034 -4.5173
-52.2867 28.4566 -4.5075
-21.7231 20.4448 -2.16998
-33.9136 23.9881 -3.01036
16.298 -12.1778 -1.48865
41.6942 -11.1573 -3.14506
-41.0735 -77.7146 -6.34344
13.9169 -11.011 -1.27029
-15.9832 -42.3991 -3.12733
10.7342 -9.58633 -0.986213
-23.705 20.7558 -2.12788
12.8215 -10.5796 -1.11299
17.8555 -12.9505 -1.47088
15.9632 -12.0743 -1.32217
-15.0715 -41.7871 -2.8735
43.4191 -11.2922 -2.80485
-33.1147 -67.0956 -4.56597
35.523 -8.61785 -2.24375
42.6139 -9.75356 -2.68433
