ply
format ascii 1.0 
element vertex 1869
comment /media/mkaihara/Seagate Backup Plus Drive/model_iterations/model_19.ply
property float32 x 
property float32 y 
property float32 z 
end_header 
12.0869 -10.4079 -3.94092
3.44433 -10.4696 -2.70967
-23.1423 19.4392 -7.39014
10.1713 -9.18529 -3.29598
-7.45569 14.5398 -3.91783
4.19238 -12.3799 -3.1458
15.4371 7.75393 -4.13699
3.47683 -11.4183 -2.8588
3.23185 -10.072 -2.51906
4.97156 -12.9546 -3.337
-6.00543 -34.3898 -8.31739
-9.89199 -38.0187 -9.32313
4.04315 -9.25941 -2.38816
-27.1627 20.2988 -8.00765
15.2446 7.80288 -4.0139
-8.94635 15.4506 -4.18859
4.05568 -11.6879 -2.90894
-12.1755 16.5977 -4.80669
-24.8961 19.7544 -7.37745
3.54364 -10.4888 -2.53705
11.2843 -9.68748 -3.43071
16.1201 -12.1521 -4.62262
-34.6955 24.548 -9.71556
-11.0405 -38.4478 -9.12607
11.1475 -9.74667 -3.38616
-10.3817 -37.324 -8.79803
-5.56886 -28.2615 -6.56244
43.1081 -13.3271 -10.2228
-25.4827 19.6856 -7.26255
15.116 -11.7301 -4.30062
-28.8584 20.9621 -8.0008
4.49027 -5.85807 -1.65642
5.39873 -9.3573 -2.41564
-23.3563 -60.2635 -14.3018
-9.15053 15.3155 -3.92563
-11.573 -39.7634 -9.11932
4.20191 -10.0004 -2.38517
13.8128 -11.1423 -3.91114
4.10109 -9.38872 -2.25115
43.5109 -12.8674 -9.93508
-22.1769 19.3306 -6.41266
3.46688 -10.3092 -2.33201
4.50409 -10.1362 -2.39797
15.3213 7.70191 -3.68673
-27.1776 20.3355 -7.29384
-19.6994 -31.2341 -7.93702
-7.53646 -31.9398 -7.02558
-23.0363 19.4287 -6.41849
-29.0902 21.1288 -7.6488
3.33709 -10.197 -2.28731
4.96545 -9.02883 -2.18369
15.1275 7.89954 -3.61483
4.35484 -10.7955 -2.4747
44.2349 -11.5279 -9.68576
-9.9915 15.6491 -3.91338
4.42911 -9.33785 -2.16613
3.19539 -9.2432 -2.0254
5.26224 -9.23081 -2.22462
15.1242 7.61085 -3.53036
-35.3629 23.2859 -8.81068
-25.7131 -23.8421 -7.24966
3.07381 -9.61027 -2.09604
-26.8509 -28.315 -8.04188
-18.5059 -28.8976 -7.06879
-27.8878 -71.3427 -15.8167
3.9402 -9.5355 -2.12712
3.81143 -8.90677 -1.98686
-14.793 17.4919 -4.68592
-20.8232 -55.2025 -12.1194
4.06822 -8.95566 -2.00989
-33.0544 22.1361 -8.08579
-13.6852 2.99386 -2.86192
-31.5913 -22.3269 -7.8897
-22.3832 -61.8363 -13.3973
-10.2222 -32.9297 -7.01765
46.6322 -10.1845 -9.69461
15.2938 7.81365 -3.44411
-16.8781 -22.3594 -5.63127
12.6474 -10.3353 -3.28328
-16.2666 -46.5425 -9.84779
4.30068 -11.0605 -2.3645
-11.3996 16.3447 -3.95524
-24.6363 19.3848 -6.21147
-33.4651 -19.8109 -7.73204
-30.3016 -23.6649 -7.6208
-11.9947 -37.2568 -7.75817
-8.20341 -31.8092 -6.54794
14.9532 -11.789 -3.77108
4.12984 -10.0652 -2.1427
3.30855 -10.1077 -2.08289
-33.1618 21.9117 -7.72173
-20.041 -48.2609 -10.107
-14.0161 -40.4771 -8.17561
3.57148 -9.11625 -1.87329
-18.7664 -30.3949 -6.7847
-30.1245 -23.5103 -7.20621
-27.3564 -24.2919 -6.88789
-19.0355 -47.0444 -9.6074
3.98862 -9.33105 -1.93068
-14.7017 -40.1032 -7.99962
-22.3583 -50.8085 -10.2158
3.52471 -9.43973 -1.85866
-30.5941 -22.8351 -6.95053
-29.37 -25.1826 -7.05197
-30.7643 21.6589 -6.77996
-17.7089 -43.8186 -8.43817
-29.4331 -23.71 -6.64832
-20.5348 -53.1754 -10.0483
-31.9469 21.26 -6.71724
-14.4927 -40.8731 -7.60974
3.49265 -9.81393 -1.81887
14.4285 8.00808 -2.86446
-32.5592 22.3111 -6.8437
-27.2305 -23.8666 -6.29845
3.5693 -9.77269 -1.80235
4.89763 -8.83606 -1.74949
-25.2416 19.8171 -5.54373
-28.746 20.9073 -6.12876
-29.0716 -26.7775 -6.82089
3.99752 -10.2842 -1.90186
14.2678 7.69191 -2.78783
-20.51 -47.1295 -8.74618
-19.4809 18.5352 -4.53531
-29.6705 -23.5829 -6.42762
-17.3086 -42.9169 -7.85167
5.78049 -12.1092 -2.26347
44.9234 -12.6879 -7.91244
-15.9866 -42.6737 -7.6771
43.8966 -11.4213 -7.62879
5.14456 -11.0377 -2.02529
6.88778 -11.4445 -2.25463
-9.77363 15.5377 -2.97535
-28.6549 -22.1817 -5.90579
45.3518 -12.1796 -7.64062
-20.8494 18.9394 -4.56692
7.76177 -9.35351 -1.92436
-34.8372 -24.1185 -6.67803
-17.8144 -44.0759 -7.5546
-21.5881 18.9812 -4.53239
-22.7029 19.3537 -4.63983
-30.7008 21.6261 -5.80858
3.93152 -10.4117 -1.70832
-30.2258 -23.3708 -5.8405
-12.2055 -36.8274 -5.96408
-29.0471 21.139 -5.4597
-19.6669 -47.3365 -7.81061
-7.17628 14.5293 -2.44014
-31.4358 -22.0918 -5.78913
-30.7429 -22.6016 -5.78204
-26.1735 -24.5577 -5.40185
-31.2864 -22.5178 -5.78194
-29.5411 -23.6471 -5.65699
-32.7757 -21.8917 -5.85107
-23.3435 19.5958 -4.49156
-31.174 -23.3284 -5.73837
-30.2513 -22.9084 -5.60403
-23.9597 19.7436 -4.54047
-29.7094 -24.6495 -5.65249
-11.0336 -36.5709 -5.60373
-11.8969 16.2734 -2.90196
-7.19768 14.398 -2.2925
3.60462 -9.81923 -1.48675
40.7643 -13.4069 -6.10219
-31.4886 -23.1954 -5.53275
-28.881 -22.9536 -5.19227
-23.6175 -49.9165 -7.84225
-28.3495 -23.9109 -5.22281
-21.0228 -48.4689 -7.38039
-17.9712 -43.3046 -6.53712
-6.38939 14.1549 -2.10524
-13.1965 16.8601 -2.90267
-10.29 -36.0266 -5.10602
-6.95273 14.0897 -2.10705
-20.3504 -52.9794 -7.68305
-21.0553 19.1481 -3.78906
-21.2851 -48.247 -7.01023
-29.5553 -22.8151 -4.92861
48.4853 -11.1729 -6.54242
47.7422 -10.4955 -6.43875
-11.8133 -36.7156 -5.0727
6.82303 -11.2446 -1.72837
-14.1401 17.3194 -2.90828
-21.4555 18.8972 -3.70525
-31.1273 -16.7072 -4.55915
-30.7445 -22.9521 -4.93949
10.9737 9.00117 -1.83492
-31.3322 21.5437 -4.88113
-27.7273 21.0994 -4.3912
-29.2028 -22.8635 -4.67907
-11.4942 -32.7059 -4.38616
-28.2355 -57.5651 -8.03187
9.86674 -9.23437 -1.68569
13.1181 -10.7209 -2.13199
-31.4067 22.0323 -4.79629
-33.9889 -21.1751 -4.98743
-28.8393 -23.837 -4.64928
6.94687 -10.5649 -1.57687
-31.0764 -21.9657 -4.71584
-11.9218 -37.197 -4.80793
13.5364 -11.2843 -2.16235
44.4635 -11.5564 -5.67171
-15.2484 17.5542 -2.84089
-14.3563 -34.8004 -4.60409
-8.22761 14.7077 -2.05051
46.5592 -10.7255 -5.78463
15.3802 8.02911 -2.08621
9.60056 -9.10948 -1.57933
-31.8016 -22.1882 -4.59814
-16.8008 18.2601 -2.90239
-20.0339 8.86567 -2.59598
-29.9144 -23.1592 -4.4619
-22.0419 -49.9423 -6.4165
11.5438 -9.93036 -1.78216
44.8689 -12.0118 -5.46835
15.131 -11.7486 -2.20093
15.3002 7.86482 -1.95817
-27.9214 21.2343 -4.00107
7.46531 -11.3361 -1.53912
-9.64926 15.4057 -2.03429
9.64632 -9.50999 -1.50726
13.0976 -10.7575 -1.88916
14.3541 -11.3295 -2.03326
9.64447 -9.30083 -1.48649
7.23207 -10.7095 -1.41459
47.648 -10.4066 -5.30804
-10.2762 15.4364 -1.99839
-30.8712 21.769 -4.10195
11.9897 -10.0735 -1.69028
6.41246 -13.1854 -1.54058
7.77088 -11.8944 -1.47736
10.0427 -9.08176 -1.42406
-13.4279 -38.804 -4.30745
17.0893 -12.6555 -2.22929
-26.1164 -52.47 -6.08122
15.2384 7.67345 -1.74592
-29.2628 -23.3212 -3.8436
14.2016 -11.2366 -1.85518
-29.9718 -23.184 -3.83385
15.2305 7.95785 -1.72872
-11.9558 15.989 -1.96106
-17.5994 -44.6236 -4.65008
-27.6351 -55.8267 -5.965
-21.9943 19.2402 -2.76065
-29.1064 -23.8442 -3.57654
-29.0686 -24.1457 -3.60148
-18.4194 -48.2001 -4.8673
-13.2609 16.9689 -2.0152
-29.4023 -23.003 -3.48384
-13.8456 -37.7139 -3.74418
-12.1366 -37.7242 -3.69849
10.0182 -9.28573 -1.26887
-28.2717 -55.0728 -5.7043
8.72054 -8.81957 -1.12578
17.0193 -12.681 -1.94093
-14.1033 17.3008 -2.00195
-33.7257 -20.9766 -3.59394
-30.8229 21.7626 -3.32339
-29.179 -23.5406 -3.31294
14.4292 -11.4764 -1.63598
-30.4537 -18.5579 -3.04265
11.2944 -9.9118 -1.27908
-24.9634 20.2494 -2.69994
-10.1539 -31.6045 -2.80665
9.58393 -9.1895 -1.11444
-31.4914 21.6518 -3.17558
8.84804 -8.8497 -1.02757
17.2925 -12.6116 -1.74764
-14.733 -38.2844 -3.2977
-18.7728 -42.9447 -3.66924
-13.7422 -33.9263 -2.90205
-11.8991 -33.3875 -2.81698
9.38098 -9.11656 -1.02742
11.5393 -10.0032 -1.19683
15.2929 -11.9618 -1.53648
-27.9239 21.2946 -2.73301
-27.9803 -13.0606 -2.39876
12.1372 -10.2825 -1.23253
-20.1798 -44.9437 -3.77382
13.1001 -10.8737 -1.28932
-33.8635 -64.2464 -5.25557
10.1504 -9.31599 -0.998191
11.1486 -9.95156 -1.04122
-31.4175 -19.5038 -2.55779
12.2348 -10.2829 -1.1062
15.1339 -11.9158 -1.33816
-13.8839 -35.0832 -2.56798
-13.4668 -35.6267 -2.61124
19.225 -13.8937 -1.57394
-21.9004 19.1754 -1.93233
-21.3054 -49.1495 -3.54217
-14.9672 -44.1386 -3.06935
13.199 -10.8578 -1.14212
-12.9755 -35.9991 -2.48708
15.7203 -11.8697 -1.27946
-27.4182 -55.5137 -3.88754
-12.9426 -40.118 -2.61967
-30.5771 21.601 -2.29189
-27.8828 -55.14 -3.75994
-15.1337 -36.8649 -2.42967
32.7983 -21.7454 -2.39395
44.6085 -11.633 -2.7984
38.3875 -9.25528 -2.39238
-13.4469 -36.1031 -2.32764
-13.4722 -18.4766 -1.34412
-25.2477 20.4911 -1.84418
-27.7168 -13.6457 -1.78499
-34.2835 -66.2477 -4.24332
-14.0671 -36.6477 -2.18918
17.4457 -13.0176 -1.21879
-25.9575 -15.6203 -1.63049
45.2344 -10.0762 -2.38322
-9.14887 -12.2244 -0.775031
-13.6869 -36.4256 -1.93759
5.94915 -12.9841 -0.70868
-13.3691 16.9484 -1.05305
-13.0058 -40.8806 -2.10631
15.254 8.00281 -0.831727
-14.5178 -37.214 -1.89768
-12.4996 -40.6537 -2.00619
19.3853 -13.7542 -1.13854
-14.8315 -43.0148 -2.1215
38.7217 -9.51045 -1.86825
-27.6109 -14.1187 -1.38722
-20.986 -48.0875 -2.3252
-14.767 -36.334 -1.74495
9.85591 -9.30064 -0.603955
12.9174 -10.6024 -0.749712
47.1063 -10.7788 -2.14885
-12.3237 -37.4882 -1.67871
-30.5124 21.5702 -1.5571
-48.7255 26.4632 -2.21288
-31.4679 21.6563 -1.40269
-16.3757 -42.8249 -1.7192
-32.652 -20.5615 -1.3784
9.9437 -9.25411 -0.499234
6.79414 -11.141 -0.452373
-11.5944 -34.5648 -1.20542
7.7473 -13.5988 -0.533841
19.2704 -13.649 -0.79706
-22.8931 -50.1408 -1.81242
-11.9397 -33.8742 -1.16234
22.4824 25.9305 -1.10622
-21.7256 19.2879 -0.915982
-20.239 -50.7067 -1.74466
-40.64 -77.5129 -2.71117
-18.0058 -46.1085 -1.53269
21.8673 -14.9123 -0.803967
-26.4753 -13.6245 -0.902105
-11.3919 -36.4588 -1.13397
-22.6377 19.2357 -0.854315
-20.4748 -47.1211 -1.45883
-15.2784 -41.3509 -1.26951
23.3349 -10.5013 -0.772116
-32.5611 -19.8396 -1.05366
-9.52732 -12.4999 -0.448586
-19.8009 -46.697 -1.42909
18.6649 -13.905 -0.591947
35.0521 58.4983 -1.77551
-28.0607 21.4104 -0.908688
-29.1393 21.3136 -0.894134
-26.1402 -12.5601 -0.710275
9.75631 -9.18116 -0.324137
-19.2747 -31.0461 -0.850304
-37.8082 13.115 -0.876
22.0718 -14.7686 -0.563305
-49.0847 17.7035 -0.96438
19.093 -13.7652 -0.441138
13.1404 -10.7953 -0.283108
-6.71029 14.5256 -0.280638
-31.5054 9.96368 -0.547152
-27.1221 -12.9154 -0.475063
-34.9495 -19.9034 -0.609864
-16.0341 -39.3072 -0.65397
-7.29294 15.3381 -0.231432
-30.662 -22.9054 -0.529286
-31.9645 -21.7905 -0.493821
-29.1792 -58.9586 -0.810435
17.8815 -13.3413 -0.27028
18.8656 -13.5833 -0.294365
30.5041 -18.8099 -0.477426
-18.3413 -46.9765 -0.608048
-28.2239 21.5186 -0.380181
-35.4121 -19.7952 -0.44682
-23.8806 -50.9585 -0.595065
-16.6179 -38.116 -0.442177
-48.4483 26.5517 -0.461664
-29.2398 -51.5813 -0.542129
-17.2937 -45.3571 -0.457362
39.5146 -9.54651 -0.37368
-13.464 17.0898 -0.154203
-28.7818 -64.095 -0.475102
-15.9197 -38.6137 -0.28122
-24.0588 -46.3702 -0.25938
-28.1897 -8.76574 -0.170698
9.76569 -9.18933 -0.0417374
13.5126 15.465 -0.04436
15.1516 7.97634 -0.0305804
-28.1783 -12.5705 -0.0552561
-11.2583 -16.3921 0.0251706
-12.3341 -18.565 0.0436351
-16.6671 -38.2596 0.175937
9.62734 -9.16608 0.0605573
-30.5528 21.6226 0.192453
-18.6755 -47.1478 0.250421
-28.8908 -13.4087 0.191951
17.3683 -12.6727 0.120379
-12.5455 -19.2357 0.151197
15.1233 -11.7807 0.150958
-49.0237 17.5647 0.45911
7.32544 -12.587 0.122243
16.4774 -12.2102 0.174228
-34.3726 -20.7998 0.422958
40.2468 -8.2723 0.427596
-33.3095 -20.8742 0.449293
-11.3783 -31.4281 0.393324
-11.8285 -31.8102 0.41449
-10.1994 -29.3712 0.381355
-8.79919 -27.2261 0.349105
30.3193 61.3928 0.885817
9.77853 -9.19765 0.173472
-12.2489 -18.9809 0.309001
-9.85074 -29.9038 0.434507
8.72235 -8.66501 0.186264
6.54578 -13.3918 0.216903
7.34661 -11.3209 0.205903
9.52964 -9.23842 0.191602
8.18666 -9.28926 0.1979
9.91686 -9.18245 0.22252
39.676 -8.50073 0.66553
-22.5202 19.3126 0.529291
-31.4001 -21.126 0.652808
-32.454 -23.8112 0.706857
13.2354 -10.873 0.280641
13.5586 -10.9361 0.326406
-9.65967 -12.2477 0.295135
7.02482 -11.5131 0.262813
8.14875 -9.57701 0.247117
31.0105 63.8098 1.41623
7.16783 -11.2668 0.268294
9.34867 -8.84561 0.273283
11.7854 -10.13 0.34046
17.6581 -7.88719 0.389151
7.40456 -11.2346 0.304346
-9.21269 -11.8932 0.38118
-12.2623 -18.8243 0.538244
7.79888 -9.49511 0.279727
7.98774 -9.55259 0.288923
-24.1224 20.2749 0.816127
-27.8422 -8.92842 0.734044
9.80534 -9.12339 0.344384
18.0542 -13.1891 0.563718
18.9405 -13.6385 0.580528
-21.6944 18.9942 0.748966
-26.0541 20.5914 0.864523
-27.8614 -8.36206 0.761816
-31.5467 -16.8207 0.972156
-12.7902 -19.3142 0.617337
15.1649 -11.7832 0.512387
23.3648 -3.39962 0.663973
-11.7091 -18.2581 0.629043
25.7508 -4.87834 0.762441
17.4474 27.0771 0.963068
-26.7024 -19.6712 0.982942
7.42958 -11.6381 0.414309
7.14528 -10.9728 0.398541
15.6885 25.5572 0.918486
-7.49207 -8.65732 0.350371
13.3505 -10.9243 0.526668
-7.18444 -9.33783 0.361222
-27.5256 -7.76918 0.952027
-11.4601 -16.7523 0.681093
8.02696 -9.53455 0.412177
16.6056 11.3453 0.718963
11.0818 -9.64958 0.533631
12.1594 -10.2736 0.579877
26.0636 52.4841 2.19741
-60.0564 21.9283 2.37665
-7.33194 -8.00479 0.405957
9.8334 -9.12836 0.500705
23.437 -3.29066 0.908118
31.358 64.8244 2.78432
-7.30285 -9.69318 0.475172
10.6436 -9.7076 0.564912
13.0309 -10.7624 0.682679
22.1157 -2.71055 0.907914
-27.8595 -16.9017 1.33372
8.89509 -8.85519 0.518498
-6.81143 -8.3286 0.462782
9.61337 -9.09407 0.553005
13.1235 15.0651 0.881055
-27.838 -8.16993 1.27523
15.424 20.09 1.13677
16.0853 27.6958 1.42531
24.3675 47.9182 2.37479
6.46315 -14.4003 0.702979
11.0668 -9.70906 0.6656
18.8749 -1.67515 0.866407
21.5229 40.981 2.16877
16.0477 28.2753 1.52267
-11.009 2.73064 0.545269
-7.109 -9.37055 0.567705
9.33872 -9.15331 0.619069
11.616 -8.91208 0.685408
20.5783 -2.35825 0.997304
11.9621 12.191 0.84708
18.1284 43.5979 2.31922
7.86264 -9.31538 0.58824
7.9149 -9.64662 0.613873
10.385 -9.45848 0.695356
15.5445 26.3594 1.53077
22.3709 43.3827 2.47543
21.5171 -2.68052 1.10211
-7.28559 -8.37026 0.576053
9.55995 -9.10224 0.687079
17.7478 26.0262 1.6533
17.8832 32.4205 1.93079
13.323 -10.9818 0.917143
10.8718 12.7093 0.893463
14.8991 20.2245 1.34809
11.3059 -9.80348 0.808908
15.7277 20.4918 1.42326
-24.8126 19.0207 1.70575
-6.86139 -8.04991 0.585474
10.5613 12.7686 0.926976
-7.13224 -9.20735 0.652807
10.2946 12.8243 0.952797
-26.2106 18.4534 1.81749
6.34598 -13.402 0.848115
11.506 12.4384 0.972876
-6.79532 -6.7065 0.553838
11.5972 12.3667 0.997294
-6.70164 -8.28119 0.637966
6.47975 -13.0251 0.84923
15.3449 20.4168 1.53454
14.9794 24.4915 1.71136
14.7051 33.9853 2.2212
-6.00861 6.39962 0.537463
-8.04612 -7.62407 0.670728
-7.00887 -8.04051 0.655417
5.94023 -12.9183 0.858872
-7.3831 -6.79755 0.624477
7.19521 -11.464 0.836348
7.15844 -10.8186 0.809151
11.5818 -9.99758 0.944633
12.4024 -10.3752 1.00176
16.5882 7.34659 1.1551
15.5908 20.197 1.61309
-7.14992 -6.23121 0.615204
10.4699 -9.56252 0.914786
-7.28946 -6.18413 0.627117
11.8093 12.4613 1.1689
10.1701 22.8953 1.70518
-7.1398 -9.4775 0.793387
11.9871 13.0012 1.21223
-6.88907 -4.41485 0.56262
-6.65134 -8.07839 0.714008
-6.63798 -4.39289 0.548847
9.44505 -9.03015 0.909346
10.1671 -7.97688 0.909992
13.2064 16.645 1.53539
-6.59114 -6.5839 0.647433
9.98436 -8.4314 0.955236
11.9649 17.8906 1.61725
11.9338 19.0262 1.67693
10.086 19.1971 1.63467
9.5388 20.6151 1.7079
7.91821 23.6006 1.87131
11.3075 19.5176 1.71773
10.1804 -7.72404 0.976745
-6.93561 -7.0946 0.760481
-16.8177 -6.09991 1.39893
9.62724 -7.80487 0.971181
9.83259 19.6389 1.73295
-6.32544 -4.22362 0.602786
-6.72801 -8.09759 0.835036
4.88232 -5.78964 0.601765
9.55422 21.0204 1.83098
8.23518 20.1357 1.74896
5.07888 -5.85353 0.624016
13.1363 11.8537 1.43297
12.1156 12.1701 1.40543
6.86937 -9.58312 0.957854
12.5815 12.0339 1.43036
7.14582 20.9782 1.81415
-6.30133 -4.34996 0.623834
-7.03541 -9.31148 0.958558
11.8846 12.4511 1.42343
10.7085 9.36808 1.21087
-4.91497 -11.2141 1.0356
5.43192 -5.83099 0.708175
6.19544 -6.1146 0.759441
9.35835 -7.29049 1.01992
-6.71387 -6.6129 0.800799
10.7475 12.7369 1.45423
8.93159 -7.44232 1.01022
11.1502 12.5694 1.46987
-7.20621 -7.65469 0.922025
8.31223 -7.39999 0.987699
10.5218 12.8608 1.49325
-6.97283 -7.63383 0.917084
-6.8332 -8.21445 0.959439
10.9188 12.6924 1.51976
10.856 14.0037 1.6048
-7.00899 -8.20204 0.983279
11.5161 11.1237 1.47212
-6.26102 -4.19537 0.692807
-6.7542 -8.45951 0.990978
-6.27373 -4.35644 0.703869
11.3237 8.73887 1.34167
10.8871 9.54424 1.34939
6.81054 16.1789 1.65116
11.3641 11.2979 1.49509
10.8003 11.6192 1.50058
-11.0534 2.83243 1.07699
6.22638 -6.03198 0.826074
8.11386 -6.72645 1.0119
10.9871 9.40865 1.40371
9.82967 12.934 1.5726
10.0165 12.8545 1.60516
7.91926 12.6654 1.48362
8.19776 13.7045 1.58942
11.4603 8.2297 1.43742
7.39446 13.1585 1.52323
9.32014 11.6802 1.52012
7.27407 14.0828 1.62222
6.13367 14.5752 1.62372
9.4384 10.7603 1.47898
9.31745 12.6938 1.6358
11.6209 7.81449 1.4604
9.48222 10.2548 1.45381
5.02467 -5.87967 0.829869
-6.78174 -4.61245 0.865025
5.83596 14.5403 1.6635
-6.99217 -4.46397 0.884541
9.16801 10.9853 1.53601
-6.68505 -6.69469 1.01227
5.97329 -5.89579 0.906168
9.89924 8.71578 1.42127
9.17056 9.57846 1.42592
9.49606 10.586 1.54157
5.02479 14.5638 1.66353
4.3158 -8.20753 1.00366
6.66141 11.1447 1.4288
-6.74245 -3.89088 0.856637
6.56756 12.3147 1.54869
-6.83505 -3.82937 0.867714
9.89421 7.34146 1.37737
6.88304 11.7474 1.51644
9.9883 7.16152 1.38033
5.63142 12.0055 1.49976
5.64935 12.5623 1.5562
4.90194 12.7578 1.54708
10.0125 6.80531 1.37935
-6.82787 -4.52127 0.937755
7.499 -6.30755 1.11653
-7.26816 -0.778771 0.837484
-6.21505 -5.33919 0.943687
5.30146 -5.62345 0.891359
9.05519 8.05032 1.4113
4.48436 -7.29065 0.990888
10.5825 5.23904 1.38246
9.13893 7.95046 1.42363
5.25287 -5.66808 0.912561
8.77734 8.07951 1.4153
9.10689 9.26483 1.5197
-6.97326 -5.59132 1.05767
10.2978 4.822 1.3544
-6.85851 -3.8183 0.945604
9.29558 6.24891 1.35816
5.40281 11.8434 1.57859
-6.83675 -3.04045 0.90881
-6.82075 -3.2247 0.912065
4.93406 -6.01724 0.949298
6.04388 -6.20077 1.05382
9.5257 5.7137 1.37282
8.62217 7.36116 1.40147
-6.88734 -4.27142 0.998213
-6.81852 -4.49329 1.00634
8.44139 8.77534 1.51051
5.2182 11.736 1.59549
-6.48471 -5.56158 1.06329
3.77398 -7.70695 1.06851
8.6739 7.89832 1.4677
6.14272 -5.67725 1.04828
9.32167 6.16352 1.41589
-6.07742 -5.36269 1.02282
8.70026 6.73065 1.40255
8.24605 7.65622 1.43122
-7.0429 -1.76833 0.928275
-6.9567 -2.28733 0.934823
-6.38421 -5.2682 1.05613
8.97021 5.75095 1.36573
8.32486 8.21317 1.50712
-7.20225 -1.24266 0.936608
-6.8369 -4.08252 1.02935
7.55413 6.32372 1.27576
8.22746 7.17099 1.41504
8.13661 8.29641 1.50572
-6.85421 -2.80325 0.963746
-6.85507 -2.94182 0.96409
4.70304 10.4157 1.50259
9.12046 4.16704 1.31955
-7.18664 -1.59262 0.966839
6.90233 -4.2982 1.08031
4.98139 -6.00757 1.03419
-7.27011 -1.10755 0.983775
-6.9572 -2.18146 0.974896
-6.99357 -2.25001 0.981069
-5.94646 -4.36267 0.985555
5.2529 -6.64619 1.12845
6.97366 -4.21427 1.09661
8.22419 7.30418 1.49001
-7.09196 -1.70396 0.980068
-7.02444 -1.93964 0.979659
8.92195 4.92571 1.38393
8.46562 5.96743 1.40803
-6.86202 -3.58817 1.05496
8.98765 4.21821 1.36152
3.48539 10.9561 1.57533
-7.25007 -1.18965 1.00515
-5.96124 -4.40534 1.01938
-5.94137 -4.50295 1.02054
7.21367 -3.97029 1.13139
8.2105 6.59731 1.45654
5.49778 9.29265 1.49555
-6.32847 -4.28506 1.04767
4.98131 -5.5799 1.03863
7.25127 -3.86486 1.14325
7.63144 -3.72132 1.17445
3.75375 10.4152 1.54272
3.57195 10.7495 1.58055
-7.30525 -1.07273 1.03021
-7.01543 -1.98729 1.01565
5.01835 -5.33648 1.02361
7.31343 -3.77198 1.15572
7.43152 -3.70637 1.17751
7.94865 -3.38896 1.22809
-7.09504 -1.85907 1.04263
-6.94954 -2.92123 1.09215
-5.95949 -4.33816 1.06009
7.98094 -2.80891 1.2376
8.34799 4.68552 1.4024
5.12024 8.77187 1.48916
8.48662 4.57016 1.4244
7.90317 -2.36246 1.21565
7.25695 5.77703 1.38898
3.07406 9.81457 1.53925
-7.03497 -2.00273 1.0958
7.5535 -3.1386 1.2328
8.34351 4.61115 1.44487
5.90527 7.59484 1.46114
5.4067 7.80038 1.44662
5.24588 8.12794 1.46987
5.20082 8.24323 1.47564
7.40102 -3.19881 1.23115
7.75157 -2.78201 1.25384
-6.70294 -1.66953 1.03999
7.9051 -2.27795 1.26127
7.34476 5.50859 1.40973
-7.04438 -1.93615 1.13324
-6.86289 -2.76292 1.14955
6.91881 5.61211 1.3974
-7.2914 -1.08621 1.15085
-7.08451 -1.80888 1.14467
-6.98836 -2.05044 1.1407
-7.06156 -1.85686 1.14536
-6.8381 -2.91 1.16635
4.91728 7.62491 1.44346
3.48287 -6.09547 1.12033
-7.21355 -1.2883 1.17331
3.56157 -5.76152 1.09057
3.59764 -5.66419 1.07954
7.17772 4.83836 1.41053
4.76729 7.54572 1.45322
-7.01266 -2.00677 1.18831
-7.03436 -1.93081 1.19654
7.07211 4.9007 1.423
3.92285 8.15035 1.49854
6.09972 -3.34471 1.15852
6.73473 4.94762 1.3934
4.76591 7.32556 1.45841
3.86819 -5.34421 1.10829
7.20953 4.48954 1.43006
7.56708 2.89358 1.36903
6.42237 5.36899 1.41889
-7.21705 -1.24502 1.24659
6.84635 4.13938 1.37399
-6.40161 -2.75079 1.18855
5.54919 -3.65575 1.14119
5.73266 -3.54439 1.15686
2.8427 8.10346 1.48623
-7.30869 -1.03053 1.27902
5.3717 -3.81021 1.14768
-6.26496 -2.24319 1.1535
-6.22581 -2.39916 1.16788
4.31143 -4.6975 1.11457
4.52534 -4.50824 1.12011
4.62404 -4.48021 1.12914
-6.7477 -1.71897 1.22612
4.42209 6.63489 1.42302
-7.09963 -0.920525 1.27905
-6.10088 -2.24184 1.15735
6.72622 3.7403 1.37966
6.18562 4.4232 1.37944
3.63815 -5.37059 1.17912
5.23754 5.7847 1.42773
2.58974 7.41335 1.47677
6.56167 3.08833 1.37122
-1.69159 -5.73291 1.13192
6.47489 -1.39634 1.25654
6.3433 2.80906 1.33568
6.28358 2.40657 1.34247
-4.40045 3.89325 1.37917
4.37387 3.57448 1.35154
4.25521 3.32697 1.33765
4.68552 -1.68496 1.2502
4.84102 -1.38724 1.25971
-2.10709 4.71685 1.28712
3.73952 -2.96276 1.22632
3.68346 -2.55658 1.19687
3.41588 -2.96962 1.22899
4.03626 2.59017 1.3407
-2.58611 -3.52261 1.24651
-2.31921 -3.55988 1.21237
3.77918 2.07135 1.31071
3.75494 1.9928 1.30988
-2.81572 3.45105 1.37131
-2.293 -2.41543 1.18481
1.95422 -2.77934 1.21225
-2.11011 2.74757 1.31322
-2.01621 2.73619 1.31955
2.24948 -1.86859 1.22498
2.37947 -1.49774 1.22239
-2.00826 1.86841 1.28836
-2.06316 -1.44179 1.2264
1.44592 -2.06525 1.24319
-1.99151 -1.087 1.21248
-1.92414 -0.707208 1.21788
-1.92584 -0.702977 1.2434
-1.95454 -0.344121 1.22637
-1.89212 -0.564331 1.22768
-1.89171 -0.530563 1.23273
8.33451 -8.81856 -7.56581
12.3633 -10.4872 -8.96863
-8.41799 15.0179 -6.67391
21.5505 26.2506 -12.212
-8.70682 -2.49352 -2.55202
-32.565 -21.7536 -7.23501
-32.2329 -21.0794 -5.68281
-31.9549 -21.716 -5.73771
-29.6747 -19.0315 -2.65056
9.47332 -9.02318 -0.399601
-7.13466 15.3792 -0.418547
-28.3181 -10.9581 0.70015
-6.81542 -8.14567 0.45399
17.7622 25.5061 1.68696
11.8797 16.7074 1.69491
-6.61721 -6.59074 0.873517
4.42438 12.8396 1.56587
8.94007 9.31248 1.50972
8.0699 -8.8682 -10.5013
8.94629 -8.64758 -10.6286
7.03832 -12.068 -11.6383
6.95267 -11.4749 -11.0135
8.2542 -8.36553 -9.64749
7.0995 -12.1526 -11.4411
7.1513 -11.0986 -10.574
8.10401 -8.48196 -9.31678
6.80871 -11.4133 -10.4041
6.52167 -11.8271 -10.3245
7.85678 -8.9611 -9.08248
6.27731 -14.4661 -11.9294
8.41135 -8.8167 -9.22067
6.37425 -12.0403 -10.2854
6.2161 -12.2127 -10.2151
7.59343 -9.57074 -9.11856
8.01143 -9.1696 -9.03717
10.6474 -9.61028 -10.6639
6.18112 -14.2384 -11.4697
6.15371 -13.7701 -11.0863
6.20096 -12.7083 -10.3969
9.33473 -8.95641 -9.48693
9.4243 -9.20693 -9.60617
5.93209 -12.6368 -10.1375
9.50117 -9.12227 -9.39709
6.95755 -11.2751 -9.39897
5.67804 -13.1006 -10.1023
9.84914 -9.22652 -9.56105
7.71165 -9.46682 -8.58182
10.162 -9.33618 -9.69149
11.1016 -9.65134 -10.3188
11.6515 -9.87529 -10.2539
8.50248 -8.72667 -8.06391
7.53636 -9.42775 -7.97187
8.28734 -8.84429 -8.00847
7.73772 -9.48335 -8.00461
7.94984 -9.53442 -7.95335
8.44114 -8.65705 -7.72688
0.344641 15.8188 -10.0966
7.63758 -9.45729 -7.73292
11.1079 -9.77884 -9.40618
7.34001 -10.8662 -8.2956
8.27327 -8.61848 -7.53169
4.65017 -15.5034 -10.1768
8.83401 -8.81837 -7.7205
8.03585 -9.16034 -7.5137
4.07458 -18.091 -11.4206
8.31615 -8.75002 -7.37735
4.10063 -17.3281 -10.864
0.131913 14.8202 -9.01878
6.75685 -11.4294 -8.07996
7.85309 -9.39727 -7.428
10.3137 -9.48413 -8.49867
6.92415 -11.4159 -8.01183
8.18185 -9.34041 -7.45083
11.4861 -9.88207 -9.05587
5.46867 -14.0148 -8.91891
7.84951 -9.40057 -7.26012
9.50217 -9.17757 -7.82526
7.01024 -11.2834 -7.8585
8.10276 -9.26193 -7.21817
9.92145 -9.3447 -7.94011
15.1711 7.58211 -9.8555
8.80764 -8.97236 -7.26235
7.03944 -11.1275 -7.56403
2.66694 -11.3066 -6.67855
7.97875 -9.20641 -6.97475
7.53096 -8.96483 -6.64465
9.77301 -9.29836 -7.65995
10.9889 -9.66596 -8.25316
0.11708 15.2684 -8.61324
3.27034 -20.4648 -11.6549
6.90099 -11.1376 -7.34212
10.2872 -9.4561 -7.82227
12.6127 -10.5819 -9.22912
9.3935 -9.15498 -7.32691
4.67591 -14.4585 -8.46821
8.13341 -9.36337 -6.88543
15.0955 7.71881 -9.31335
9.86699 -9.26472 -7.43068
0.82163 17.4616 -9.54851
2.7278 -19.6731 -10.8307
11.3427 -9.82756 -8.14573
4.30041 -14.6281 -8.2493
15.0056 7.84859 -9.12675
15.4496 10.6692 -10.0875
14.3214 7.90212 -8.74517
11.1618 -9.8018 -7.89641
13.574 -11.0525 -9.308
3.02916 -19.1677 -10.2022
11.5822 -10.0193 -7.78953
2.16002 -20.1918 -10.2502
10.4609 -9.52295 -7.11067
14.6098 -11.5538 -9.34846
14.1499 -11.4437 -9.10672
11.2322 -9.85078 -7.44026
7.63146 -9.4884 -6.02743
3.59939 -8.54865 -4.56931
-8.60394 -1.88912 -4.33048
2.20431 -19.8847 -9.81425
4.57516 -9.38123 -5.10282
0.391375 13.6535 -6.68846
7.73099 -9.41797 -5.94324
-8.20359 15.6401 -8.54622
-9.09169 -2.40348 -4.53084
15.391 -11.8842 -9.34087
19.8717 5.68612 -9.88838
-10.1761 -2.51945 -4.95817
1.90243 -20.3547 -9.72161
17.7837 16.7166 -11.5685
7.72282 -11.4131 -6.49897
20.5567 5.54895 -10.0309
14.3615 -11.3686 -8.51451
2.96254 -17.4751 -8.23874
19.8558 5.87523 -9.5699
18.3862 -13.3976 -10.5043
9.97685 -2.52013 -4.75526
20.8222 5.27794 -9.91432
17.9215 16.8574 -11.3462
1.79679 -19.9503 -9.16881
9.83975 -9.19958 -6.16601
-9.10263 -1.65224 -4.2187
9.55872 -3.50749 -4.63768
6.84236 -11.5299 -6.09477
10.0258 -2.64827 -4.70418
19.7474 6.02193 -9.29832
18.37 18.2261 -11.6424
9.47122 -3.12004 -4.48904
15.8636 -12.206 -8.97869
7.17548 -11.7845 -6.16766
7.27849 -11.1067 -5.91586
9.66735 -3.44333 -4.57353
-9.6575 15.8167 -8.24384
18.1956 -13.278 -10.0055
20.044 5.77447 -9.24913
16.4843 7.47772 -8.02006
18.4922 18.6834 -11.6351
16.893 -12.5623 -9.27478
-10.7909 16.4002 -8.62129
-6.3404 14.4719 -6.92053
-5.16063 4.83885 -3.07972
20.671 5.61283 -9.31569
9.66631 -3.44361 -4.42883
18.9254 19.1871 -11.5927
16.2656 -12.5159 -8.82777
15.1948 7.59819 -7.25491
3.89002 -9.42047 -4.32797
-10.7325 16.3138 -8.25981
7.07212 -11.103 -5.54776
-13.3152 3.26301 -5.77426
0.739322 -21.9097 -9.24078
16.2239 -12.2822 -8.50665
-5.08049 5.59234 -3.15817
0.988473 -21.7584 -9.13301
1.23012 -20.5608 -8.62959
14.4798 7.76694 -6.8771
19.3045 20.1232 -11.6608
3.83007 -9.06106 -4.10027
15.1067 7.90625 -7.10189
18.6286 19.9014 -11.3221
-9.3976 -1.0786 -3.90426
4.04705 -8.58154 -3.88584
14.3457 7.92231 -6.73197
6.97265 -11.1894 -5.38703
-13.3633 2.49617 -5.55986
-7.67035 14.8473 -6.78402
20.1086 21.856 -12.0423
15.4188 7.40943 -6.89675
-5.11054 13.9339 -5.94437
14.313 -11.315 -7.14332
4.0051 -9.2398 -3.95077
1.54059 19.5411 -7.61908
-8.4096 15.1777 -6.73604
19.4829 5.94199 -7.89563
-1.72758 13.0021 -5.07723
5.37877 -9.53781 -4.22048
-2.33997 13.1849 -5.13966
20.5247 23.7497 -12.0469
4.72049 -8.6216 -3.73112
19.9306 5.71797 -7.8934
0.852051 -25.3717 -9.65319
15.3147 -11.8008 -7.27303
20.5142 5.55802 -7.95797
9.54999 -3.47947 -3.80042
0.521418 -21.7103 -8.09869
3.31032 -10.9884 -4.28428
21.1874 24.6567 -12.0837
0.906013 -8.65441 -3.22806
14.3867 -11.3925 -6.76402
20.9425 5.32675 -7.94845
18.593 18.3759 -9.56147
-12.8006 2.24248 -4.7236
21.9342 26.2007 -12.4044
2.31959 -13.4115 -4.90096
13.349 -10.7943 -6.175
0.78887 15.5496 -5.57467
-8.11501 -2.7693 -3.06688
0.405378 -21.0439 -7.5285
-4.07697 13.3533 -4.96018
0.629981 -21.2652 -7.56378
16.3204 -12.3254 -7.24575
-15.0185 17.3588 -8.08326
6.02777 -11.5215 -4.56952
-10.5591 15.9282 -6.66826
0.0990352 -17.9155 -6.30175
14.6335 -11.5962 -6.52599
20.8969 5.50373 -7.54582
0.646624 -22.257 -7.69363
-4.82676 13.9902 -5.06431
3.68927 -8.56001 -3.20677
4.94864 -9.16305 -3.56671
-13.8487 17.1892 -7.54946
2.29769 -10.9728 -3.84039
-8.51381 15.4355 -6.00236
3.10314 -14.0139 -4.88956
-14.3013 17.5487 -7.66843
20.7112 5.63134 -7.21723
23.3874 28.9384 -12.4476
38.2703 -21.6022 -14.6799
-5.10139 13.5139 -4.79103
1.93916 21.1816 -7.06442
1.26982 -10.2319 -3.409
19.8172 -14.4043 -8.13293
34.3465 -21.5906 -13.3357
-5.05447 13.8983 -4.79726
-12.0317 16.4669 -6.60995
19.2119 -13.6899 -7.65746
3.59808 -8.75968 -3.0349
6.33384 -10.295 -3.87148
2.32985 -11.0628 -3.59671
-4.2051 -31.6742 -10.1643
-1.06923 -22.6058 -7.20991
15.437 10.6326 -5.92051
-12.6198 16.7885 -6.63288
-17.1044 18.446 -7.90218
3.06767 -9.88737 -3.26312
13.5884 -10.7145 -5.44293
7.11698 -11.3391 -4.13618
1.35731 -21.2729 -6.59675
-2.40251 -25.6931 -7.92807
7.54837 34.9488 -10.9238
0.76392 15.1346 -4.60633
-10.6319 16.0368 -5.79355
-2.51085 -24.7368 -7.4954
-13.6796 17.1004 -6.52873
-4.90466 -32.2376 -9.71662
0.809494 -23.8281 -7.13385
-5.1619 14.1799 -4.48249
2.11151 21.1583 -6.27129
-20.1975 18.8306 -8.1421
18.6777 5.94392 -5.77244
-4.13005 13.8456 -4.24257
-7.58311 14.7034 -4.84788
4.33042 -9.29994 -3.01315
4.73772 -11.8628 -3.73223
-12.3954 2.18362 -3.61666
-29.8699 -42.3148 -14.9104
-14.4824 17.4193 -6.50705
7.12905 -11.3523 -3.85643
2.59792 -9.66112 -2.84096
13.2478 -10.7224 -4.84825
-8.36093 -2.43331 -2.4691
22.3233 28.798 -10.3344
-8.48578 -2.23655 -2.47971
-2.35321 -24.0879 -6.80008
-12.7913 1.96009 -3.60306
4.49479 -11.5983 -3.44944
-8.88486 15.2741 -4.84576
-12.4498 16.6009 -5.6945
-5.15364 13.7398 -4.00499
-7.66875 -37.2897 -10.4254
9.93178 -9.05185 -3.65557
-20.3491 18.988 -7.47775
-9.28455 15.3907 -4.81173
-25.2426 19.3899 -8.4639
11.7575 11.8353 -4.40709
4.43701 -11.5759 -3.28123
50.3578 -14.6389 -13.8897
-7.33334 -34.6378 -9.31591
4.17032 -8.82662 -2.56846
11.4255 -10.1619 -3.9983
-13.7472 17.2103 -5.72281
6.66958 -10.6332 -3.24673
3.23805 -9.82058 -2.67119
-27.3466 -40.054 -12.529
-3.96819 -26.0621 -6.82938
3.62086 -10.5984 -2.88536
4.15075 -9.57399 -2.67998
16.0805 -12.0912 -5.13116
-6.80373 14.4873 -4.0455
-28.7963 -38.4048 -12.1771
4.41997 -11.4172 -3.09581
4.32949 -7.83874 -2.27751
6.69249 -10.9147 -3.1906
47.7717 -14.4435 -12.4403
-26.6305 20.091 -8.24361
-10.9779 16.1252 -4.80435
-25.3373 -36.9648 -11.0233
-8.88328 -34.9864 -8.91234
-23.1347 19.4303 -7.42057
4.44476 -10.5518 -2.81086
-11.4841 16.4463 -4.85908
-7.47637 14.5606 -3.94014
10.488 -9.45967 -3.38044
42.6738 -14.175 -10.7578
15.4833 7.74388 -4.12464
-5.67097 -32.5186 -7.87168
4.03853 -9.2508 -2.39004
50.188 -13.4324 -12.3284
-26.2929 -39.2749 -11.2056
-10.7526 -39.6119 -9.73235
4.30343 -9.20709 -2.42222
-24.2574 -35.1946 -10.0255
3.99072 -11.4413 -2.85224
5.00354 -8.86066 -2.39218
-12.1554 16.5623 -4.77691
3.33335 -9.84084 -2.38666
-6.89514 -32.5454 -7.7057
11.2521 -9.86025 -3.418
-5.65694 -28.716 -6.6848
-25.6115 19.7802 -7.33226
-10.353 -37.2796 -8.75319
43.9476 -9.61137 -10.2076
-28.6423 20.7951 -7.93244
-33.4279 -21.9062 -8.95611
-5.01586 -23.9045 -5.4515
43.1375 -13.3351 -10.1356
5.56834 -9.67021 -2.48961
-12.1855 2.78046 -2.74201
43.0023 -12.602 -9.89872
45.1882 -12.8934 -10.3365
30.1088 42.4104 -11.406
-5.10149 13.3745 -3.12453
13.7547 -11.0681 -3.88433
40.1655 -12.9077 -9.2727
-22.0987 19.2596 -6.35525
-24.6087 -60.6798 -14.2186
4.41236 -9.92855 -2.35396
4.64017 -9.38316 -2.25912
-13.8373 17.2382 -4.71695
-29.0082 21.0706 -7.65261
-29.8002 21.1479 -7.80821
-23.1754 -61.4967 -14.0977
-10.1494 15.8565 -3.98785
-7.60043 -32.2833 -7.05958
3.27324 -9.93187 -2.22758
4.07193 -10.0885 -2.31726
48.7665 -11.3068 -10.6845
15.3109 7.66947 -3.63349
-14.3712 17.6892 -4.82171
5.27017 -9.23989 -2.2332
29.099 42.1108 -10.7101
-37.2578 24.4758 -9.34222
-26.0919 -25.5343 -7.58189
15.3622 8.0402 -3.603
-28.5534 -22.052 -7.48518
-26.5282 -68.0275 -15.1281
42.8516 -11.5321 -9.17587
-10.8664 16.0083 -3.92792
-14.8155 17.5155 -4.66698
-32.8041 22.0205 -8.02555
47.2047 -10.2967 -9.85131
-11.711 -37.6898 -8.02868
4.23991 -9.97662 -2.20338
4.37539 -9.96271 -2.21576
11.8781 -9.87394 -3.14135
-11.3836 16.3342 -3.9707
-17.063 -48.9798 -10.3741
-7.74584 -29.9847 -6.20174
-7.11949 -29.0981 -6.01029
-11.6228 -36.115 -7.51736
4.17421 -10.1728 -2.17498
-32.2118 -22.0261 -7.69337
-25.1802 19.762 -6.2972
-31.3066 -22.3942 -7.50401
-6.51511 14.3903 -3.06161
-22.7376 -53.4321 -11.2864
-31.7423 -21.1319 -7.3491
3.5262 -9.60555 -1.97375
48.8464 -11.3175 -9.62673
-12.0855 16.4993 -3.90637
4.08942 -9.57797 -1.98551
-34.3994 -20.8953 -7.61942
-19.6787 -31.9684 -7.14223
-13.7565 -39.6983 -7.95598
40.0156 -13.2002 -7.96376
-33.4619 22.474 -7.54109
-31.8258 -21.9796 -7.26662
-30.8341 -22.5595 -7.17253
-18.596 -46.0748 -9.35525
-14.9334 -40.5688 -8.0247
3.90347 -9.4044 -1.87914
45.1842 -12.1781 -8.68846
5.89065 -9.93623 -2.11537
-21.304 -48.3103 -9.6725
-17.9687 -44.6057 -8.7033
-13.7814 17.1781 -3.9021
-29.3538 -23.6746 -6.70401
-19.1507 -25.5196 -5.7072
-22.2832 -58.2298 -11.072
-36.5179 23.0432 -7.61637
-25.176 19.7679 -5.56915
-31.8062 21.7648 -6.68945
4.01899 -10.3282 -1.91968
4.87033 -8.78973 -1.74504
14.3377 7.70005 -2.80972
14.4269 8.2791 -2.85175
-28.872 20.9951 -6.1178
44.8471 -12.6884 -7.9333
44.5786 -11.5456 -7.83783
47.0359 -10.9171 -8.26889
-29.5116 -23.4378 -6.39367
-19.8792 18.9321 -4.60757
-17.8524 -44.3776 -8.08741
15.2238 7.63052 -2.85871
-29.6792 21.0109 -6.07222
6.77793 -11.2856 -2.2119
16.6805 -12.4214 -3.42687
-20.4268 -48.7058 -8.73231
41.1785 -12.9846 -7.03571
46.3352 -12.4826 -7.79837
-9.79306 15.5456 -2.9619
-18.0645 -44.8186 -7.71156
-32.8882 -22.7029 -6.29765
-21.4935 18.8838 -4.47822
-24.0723 -15.0913 -4.4871
-22.7728 19.4401 -4.63876
-37.2009 22.5239 -6.73726
-10.6163 15.8882 -2.94722
3.57531 -9.80996 -1.61291
3.99269 -10.5558 -1.74536
-7.1629 14.5259 -2.47026
-29.0648 21.1541 -5.49344
-29.9881 -23.1619 -5.76223
-26.3748 -24.6707 -5.47173
-19.1905 -44.6077 -7.40037
44.803 -11.6475 -7.03532
47.7435 -10.4018 -7.44341
-6.15173 13.6987 -2.24331
9.9705 -5.22623 -1.67084
-31.5991 -22.791 -5.80227
-22.3049 -56.4057 -9.00088
10.4175 -9.36642 -2.08684
47.9244 -11.0869 -7.30408
-34.4881 -22.9584 -6.09769
-29.6907 -24.4901 -5.63045
-11.198 -37.1102 -5.70781
17.4781 -12.6452 -3.15856
-23.8873 19.6672 -4.49507
-21.5035 -48.1842 -7.60701
-7.1703 14.3592 -2.29186
-12.0237 16.3931 -2.89631
6.23068 -11.9026 -1.9178
-12.6678 16.9312 -2.96815
-32.34 21.8466 -5.48551
6.95441 -11.3591 -1.85994
39.7294 -13.1117 -5.88295
-29.4052 -23.5624 -5.25911
-30.7682 22.1117 -5.24745
-18.0946 -43.614 -6.52507
48.0915 -10.7588 -6.79447
-14.9846 2.80482 -2.09836
-6.43847 14.2362 -2.13186
-19.3049 -50.3867 -7.33414
7.91754 -9.58134 -1.66711
9.38292 -9.23696 -1.81534
-13.2383 16.9029 -2.89236
13.579 -10.8305 -2.34915
-20.948 19.0548 -3.80645
44.7302 -11.5653 -6.13268
47.774 -10.4647 -6.47253
-21.3306 18.7711 -3.71423
-30.8458 -23.0814 -5.03216
-14.0757 17.236 -2.8756
-31.7722 21.2064 -4.95819
-36.325 -15.3378 -5.09094
7.20056 -10.7084 -1.6544
11.0299 9.03117 -1.8333
-31.9256 -22.001 -4.96174
-29.3754 21.4449 -4.59963
-33.6002 -20.9668 -4.9641
44.564 -11.5251 -5.75948
6.97591 -10.6419 -1.58874
-7.19183 14.3835 -1.98853
-23.5244 19.7531 -3.76031
-31.1391 21.946 -4.6982
6.51082 -12.4856 -1.71364
47.7153 -10.1802 -5.97527
15.3859 8.06105 -2.09081
-16.0218 -38.8061 -5.06465
7.27479 -10.8117 -1.56782
-19.8298 8.78846 -2.56712
-12.6288 -38.2055 -4.73411
-30.0695 -23.1831 -4.43959
-29.5707 -23.649 -4.43081
44.6779 -11.9681 -5.43529
11.4991 -9.90282 -1.75741
-27.9513 21.1941 -4.0349
6.82984 -11.1278 -1.49347
7.64673 -9.41425 -1.38659
-21.3003 -51.1954 -6.24595
11.8655 -9.96085 -1.75887
9.57533 -4.67133 -1.20667
15.36 7.89335 -1.94865
-9.75923 15.5361 -2.0688
-30.0264 21.9406 -4.16536
41.201 -13.5631 -4.86319
9.55609 -9.21529 -1.46809
-10.4474 15.6688 -2.04569
7.04703 -13.2662 -1.6254
47.8839 -10.4071 -5.31164
11.0345 9.06812 -1.54196
17.3414 -12.8817 -2.31738
44.8964 -11.6444 -4.96916
9.82497 -9.17095 -1.42334
8.54124 -8.62797 -1.27134
-29.1848 -23.3546 -3.89198
-26.0144 -52.1807 -6.08375
15.3549 7.70085 -1.75729
-30.0191 -23.1466 -3.88903
-12.1352 16.5428 -2.08203
-12.076 16.1791 -2.00566
10.4316 -9.28752 -1.36772
-18.0632 -45.8757 -4.83515
6.55296 -12.549 -1.36866
9.68784 -9.14642 -1.25971
-50.1059 27.9099 -5.53919
17.1973 -12.5819 -2.04726
44.7879 -12.0353 -4.44473
-26.3633 -53.2912 -5.65269
-17.9089 -47.0001 -4.77811
-21.9534 19.2026 -2.72625
48.7005 -10.8342 -4.65944
9.92543 -9.18032 -1.25108
42.1398 -13.901 -4.13393
-14.1707 17.3712 -2.02946
-28.4599 -12.9757 -2.85092
-27.7488 -54.0951 -5.60441
16.3669 -12.2505 -1.85885
8.81179 -8.90465 -1.13396
-34.303 -19.4551 -3.45419
13.2439 -10.9322 -1.49473
48.2527 -11.1844 -4.24263
9.60371 -9.22182 -1.11877
11.2114 -9.87305 -1.25517
-31.8242 21.8556 -3.21268
17.4083 -12.6948 -1.78368
-14.9839 -38.9918 -3.34627
15.1297 -11.8305 -1.53079
-35.7928 -69.9458 -6.24017
-10.6872 -29.9206 -2.5083
-27.8842 21.2022 -2.70909
-30.8579 21.8119 -2.91739
-19.8491 -45.3416 -3.8212
7.77004 -9.508 -0.979573
-46.74 25.4384 -4.02994
-20.1486 18.9633 -2.01279
-31.0536 21.9655 -2.75695
16.9285 -12.6491 -1.54513
44.8314 -11.9972 -3.3806
-32.9336 -62.3145 -5.08549
14.3838 -11.3806 -1.31202
-13.8569 -36.7596 -2.71142
11.0217 -9.84321 -1.01202
-21.97 19.2371 -1.97248
13.2232 -10.9113 -1.14709
18.6016 -13.4916 -1.53116
-20.309 -46.7924 -3.3709
16.5738 -12.5363 -1.37172
-13.052 -36.1889 -2.48842
46.8226 -12.1777 -3.02367
-27.1679 -55.0473 -3.74465
37.7306 -9.15369 -2.38264
45.8297 -10.4899 -2.88611
6.32879 -13.6804 -0.899721
32.8576 -21.7421 -2.35598
-9.24646 15.4359 -1.05743
-13.9125 -36.2931 -2.2126
17.1764 -12.8369 -1.20335
-9.4389 -12.236 -0.846728
15.3535 7.87703 -0.934917
14.3056 -11.3245 -0.976555
-12.0633 16.348 -1.06138
-14.7368 -36.5269 -2.09098
15.2465 8.01722 -0.846157
-14.5327 -37.1483 -1.95622
-13.3494 16.9208 -1.03105
9.77282 -9.21843 -0.615975
-20.7611 -47.6241 -2.34903
12.7805 -10.5068 -0.766698
-14.0649 -39.2077 -1.84807
-15.3346 -37.7817 -1.74429
7.13524 -13.1759 -0.663967
-12.2551 -37.3593 -1.67362
-47.9259 26.0644 -2.21125
19.0213 -13.6657 -0.949956
17.3836 -12.9214 -0.843061
-34.1238 -66.2312 -2.80723
-15.9372 -41.7932 -1.64548
-31.3655 21.5514 -1.39298
45.3559 -11.6866 -1.68638
-29.1088 -57.9026 -2.16496
-22.3566 -48.9949 -1.81063
21.4322 24.7881 -1.09205
-20.1907 18.9211 -0.902547
8.49086 -14.9863 -0.577714
9.62548 -9.1891 -0.431241
11.5821 -10.1965 -0.501381
19.2879 -13.6382 -0.775868
36.7727 -13.8696 -1.30385
23.5576 28.517 -1.19053
-26.3048 -13.1942 -0.921879
-21.5512 19.1919 -0.880518
-29.6225 20.9806 -1.13404
-21.4669 -49.3535 -1.66413
-12.3501 -34.9403 -1.13979
-18.536 -47.2855 -1.53519
-14.6068 -39.5878 -1.20678
-32.2376 -19.5463 -1.00307
11.7302 -9.95135 -0.411937
16.8857 -12.5595 -0.554423
-37.9368 23.4695 -1.17783
-28.2808 21.5195 -0.880489
-28.7926 21.1019 -0.845244
9.77567 -9.20274 -0.310946
-38.8387 13.4239 -0.909269
-27.847 -46.6315 -1.22019
22.159 -14.8202 -0.585514
32.303 -19.5879 -0.851829
14.5206 4.01295 -0.308485
-45.9998 16.5843 -0.956324
31.4683 54.9933 -1.17228
24.4562 -11.3858 -0.47497
50.5172 -11.6328 -0.96427
-29.069 -20.8902 -0.651513
-27.7431 -27.2492 -0.614845
-16.7495 -41.1004 -0.736218
13.0656 -10.7443 -0.278182
19.2252 -13.8923 -0.362153
-28.0843 -12.4827 -0.402861
-30.9758 -23.1815 -0.536818
-28.2272 -56.9037 -0.853148
-23.8718 -50.8074 -0.765354
-32.053 -21.8904 -0.505358
-28.2962 21.5279 -0.42016
17.5968 -13.1411 -0.260519
30.9911 -19.2162 -0.428469
-28.7628 21.1163 -0.398865
-35.828 -20.0194 -0.460742
-17.0177 -39.0298 -0.452597
-10.8127 -32.5477 -0.342975
-29.0922 -51.2609 -0.538928
-13.501 17.1263 -0.168665
-25.6918 -12.9531 -0.231644
-14.1558 17.2564 -0.153954
-21.2556 18.9835 -0.14823
-19.7993 18.5715 -0.125035
-10.2682 -13.2008 -0.058079
15.1111 7.93832 -0.0220681
11.3814 -10.0082 -0.00797984
-32.7559 -17.9412 0.0582049
-10.2606 -30.4952 0.107568
17.5432 -12.7459 0.0942256
-16.7923 -38.5524 0.190523
19.4892 -13.7317 0.126784
7.44447 -12.7972 0.108024
27.0853 -11.1126 0.180057
-50.9671 18.1991 0.514374
16.7931 -12.4457 0.199628
39.5168 -8.06806 0.380279
-27.9986 -7.89487 0.340593
-34.2713 -20.6855 0.443087
-10.3122 -29.5465 0.338656
-49.5044 27.1316 0.687931
-11.5038 -31.8787 0.406779
-9.35965 -28.7707 0.366002
6.61428 -13.5201 0.191984
7.4349 -11.4542 0.179452
-26.4086 20.7303 0.511983
11.596 -10.1274 0.231373
-22.6954 19.409 0.490891
11.1666 -9.97058 0.234856
13.3354 -10.9783 0.272084
38.3555 -8.20882 0.652276
-32.6363 -21.8657 0.716362
-29.2197 20.8927 0.70315
6.4196 -13.4131 0.288253
7.2375 -11.39 0.259811
8.20927 -9.63315 0.246994
32.9052 67.6638 1.63052
7.90654 -9.6608 0.282049
10.3583 -9.38201 0.336989
-27.7425 -8.89587 0.70221
-21.9585 19.1668 0.786387
-25.8717 20.4002 0.881969
-27.8702 -8.36841 0.767201
9.38621 -9.08576 0.352681
9.83343 -9.13954 0.365736
-24.0218 20.2462 0.851292
26.2807 -5.31671 0.7461
13.3449 -10.9478 0.514031
15.8751 25.8622 0.933877
6.46243 -13.332 0.465712
7.701 -12.0048 0.447266
-27.4385 -7.73846 0.935726
-12.0967 -18.5216 0.730541
-27.1338 -8.48058 0.983308
16.6342 11.3853 0.72715
-28.4661 -17.6394 1.172
17.0668 29.6476 1.21841
-29.0932 -15.8694 1.22934
24.3013 -4.38827 0.891699
-26.5627 -18.8919 1.20947
-7.19023 -7.83985 0.401726
9.24233 -9.01273 0.479591
12.8904 14.1009 0.735184
30.8218 63.5857 2.67186
29.5694 62.9574 2.61501
-11.335 -8.97215 0.570435
8.90211 -8.84675 0.496182
-24.1327 19.88 1.26674
22.4807 -3.0468 0.918558
-27.5449 -16.7309 1.32167
9.61666 -9.11856 0.543074
12.9457 14.9097 0.848104
6.83739 -12.9487 0.621207
15.6506 20.3357 1.12644
22.4459 31.0043 1.67405
-9.23425 -13.427 0.717372
-9.6603 -15.1086 0.797428
7.81664 -11.266 0.60372
8.80162 -8.89298 0.565095
24.9887 -3.82814 1.14089
-28.7394 -8.37509 1.36681
6.95202 -11.4291 0.614983
-8.14749 -8.01811 0.538304
24.3536 49.1378 2.62101
-27.3179 -16.8835 1.5195
-9.50414 -13.3317 0.780379
9.86973 -9.15747 0.633804
18.1366 50.403 2.59066
-29.0217 -12.8546 1.51597
-6.66358 -8.12395 0.517387
16.2862 37.8748 2.10182
-28.5819 -11.1927 1.5412
-7.49541 -6.89232 0.514888
-6.61087 -7.49421 0.505812
17.5713 31.8307 1.88603
10.8939 12.7386 0.904711
14.9773 20.3817 1.35657
9.54464 -9.11625 0.706804
15.586 20.2795 1.41081
16.3038 25.1812 1.65025
-25.982 18.2942 1.73909
-6.87128 -8.07528 0.588376
-24.9286 19.128 1.74418
6.36185 -13.4325 0.830614
-6.9886 -9.00657 0.650642
10.2884 12.851 0.967126
16.0021 26.9618 1.83021
6.73826 -13.5332 0.869109
14.7364 24.0422 1.66427
-8.13498 -7.99637 0.687665
11.8824 11.9646 1.00451
15.4404 20.5361 1.54235
-7.26049 -9.8287 0.76066
7.2223 -11.5093 0.827399
11.5323 -9.94738 0.922882
6.04961 -11.09 0.783126
-7.10967 -6.5716 0.605149
15.281 21.6775 1.67686
16.547 7.34501 1.17455
-6.95916 -6.08029 0.606486
6.75065 -14.0438 1.0373
10.0639 22.733 1.67638
10.7576 12.9665 1.15087
14.2071 19.1039 1.65947
13.1201 21.7535 1.75683
11.6964 12.3556 1.19329
6.76117 -10.0833 0.859058
11.8433 12.117 1.22531
9.96655 -7.03538 0.867639
12.7389 12.3324 1.3013
10.1207 -8.54687 0.969976
-6.02756 6.53266 0.661888
10.6778 9.40219 1.06795
12.498 18.6869 1.69066
12.0566 19.2088 1.70804
-6.85177 -7.59478 0.793552
11.4359 19.7385 1.7496
9.71125 -9.1432 1.03029
10.8605 14.5789 1.42448
-6.36321 -4.26381 0.603946
9.70395 19.4421 1.73596
10.2485 -7.01298 0.99389
12.8221 11.8966 1.41313
10.3006 20 1.81101
-7.13862 -9.46889 0.966642
6.86551 -9.5864 0.958815
12.6072 12.0606 1.4288
12.5145 12.3077 1.4568
11.7689 12.3012 1.40866
-4.93042 -11.2537 1.03486
10.6578 13.3345 1.45184
-6.88551 -6.01686 0.78773
-6.73914 -6.61952 0.79814
-5.09216 -11.1691 1.04517
-7.20179 -7.64211 0.904697
9.43794 -7.37586 1.03443
-7.02111 -7.94525 0.928375
-6.92407 -7.58874 0.903863
9.69798 12.9451 1.43348
-6.85135 -8.2509 0.958685
11.0661 9.28524 1.31589
10.8308 13.9496 1.59507
10.7704 9.45929 1.31158
8.03822 14.5915 1.53208
-6.40792 -8.02293 0.941309
-6.79384 -8.876 1.03237
11.5039 11.0953 1.47409
11.5145 9.39469 1.39002
11.1653 11.0982 1.47514
6.81266 15.7438 1.61211
-11.2491 2.88187 1.08785
-6.3101 -4.13734 0.706728
-6.73262 -6.22644 0.850576
9.76686 13.7743 1.62853
-5.90523 6.41646 0.856766
8.07352 -6.70308 1.0222
8.22988 13.7228 1.5893
-6.97546 -7.51721 1.03356
9.58826 11.9892 1.54807
7.26244 12.8952 1.50192
7.33845 13.5199 1.56824
9.75309 9.3023 1.3944
6.14367 14.6466 1.64661
9.44224 12.8423 1.66162
-6.05767 -4.42061 0.785915
6.23599 14.3298 1.64653
6.49961 14.2376 1.64571
-6.90734 -4.38768 0.875139
8.96763 9.22408 1.37113
9.37374 10.4427 1.52583
7.5518 11.3395 1.48053
6.03441 11.8862 1.44946
-6.22091 -7.31841 1.0503
10.4495 6.56731 1.36508
9.17707 8.30612 1.36406
7.55333 12.074 1.57259
7.07789 12.03 1.54321
5.56984 12.3691 1.50966
5.07807 12.6236 1.52287
4.95653 14.4157 1.67791
10.0502 7.18598 1.37912
8.96575 9.53061 1.46186
5.58556 11.952 1.486
-6.76187 -6.64534 1.05552
7.07409 11.0419 1.47723
4.54528 13.8676 1.65035
9.86963 -3.23414 1.1576
-6.04723 -5.36354 0.935892
7.38081 -6.19675 1.09346
10.5879 5.8094 1.38469
-7.31747 -0.977278 0.845311
-6.19893 -5.30614 0.939281
5.29734 -5.60874 0.888342
5.26897 12.0862 1.53214
-6.82026 -4.51763 0.9479
4.51968 -7.36941 0.999003
10.572 5.22995 1.38367
9.06171 8.0428 1.42202
-5.95439 -4.33356 0.858146
-6.42464 -5.22377 0.978237
4.16741 -8.01046 1.07286
5.01654 -5.9089 0.929394
10.3195 4.82531 1.3652
8.69643 8.44462 1.46799
5.4764 11.9314 1.6031
9.19493 6.36989 1.36922
8.18078 8.51398 1.47892
-6.42504 -5.6895 1.06848
3.76987 -7.7017 1.07299
8.82552 6.80492 1.4011
-6.40634 -5.29364 1.05186
9.23736 6.1101 1.41368
8.33167 7.27002 1.41056
8.26817 7.65012 1.43807
5.83207 -5.39637 1.01962
-6.90888 -4.40296 1.05152
8.26583 8.16128 1.50651
-7.29449 -1.03348 0.95126
-6.86773 -2.80379 0.968396
9.09349 4.15497 1.30896
8.54607 6.74225 1.42876
5.05089 -6.09115 1.03953
4.97044 -6.26032 1.05788
6.93244 -4.32143 1.08695
-7.07553 -1.70434 0.975137
-6.95379 -2.20232 0.974743
-5.97754 -4.38726 0.991185
8.27455 6.77269 1.44942
8.72484 4.49892 1.33808
8.75655 5.24202 1.3937
8.17452 7.26816 1.48871
-6.75169 -3.7024 1.04535
8.97811 4.21436 1.35728
8.39324 5.92403 1.40661
-6.34487 -4.29315 1.04818
-5.90995 -4.48902 1.01349
5.50092 9.27021 1.48927
3.77902 10.4561 1.54511
-7.30468 -1.08362 1.02202
-6.84472 -3.89323 1.09264
4.99478 -5.5948 1.03597
5.27597 -5.44739 1.052
7.53212 -3.56946 1.16522
3.52115 10.5617 1.56129
8.5156 4.66066 1.37297
7.4429 -3.71194 1.17945
7.65661 -3.36544 1.19198
7.83465 -3.33664 1.2079
9.04338 2.84756 1.36434
4.8792 -5.68819 1.07663
7.41637 -2.87732 1.15776
-6.90069 -3.27274 1.11296
7.99146 -2.80531 1.23446
8.75024 -1.83801 1.31207
5.13679 8.79529 1.50398
3.06548 9.80084 1.52919
7.79888 -1.90416 1.18278
7.33945 5.84517 1.39786
3.58096 9.90788 1.55854
3.311 10.1809 1.5881
-7.30689 -1.03441 1.09357
-7.01716 -2.00667 1.08721
7.06147 6.39247 1.43806
-6.21916 -2.25574 0.992364
-7.17956 -1.36379 1.10258
8.04862 4.88409 1.43411
5.82454 7.5055 1.44171
5.40714 7.79668 1.44438
5.17547 8.2021 1.46672
6.8132 -3.25122 1.14128
7.30858 -3.15153 1.21847
7.7039 -2.77992 1.24767
-7.25361 -0.726645 1.11257
-7.03947 -1.93856 1.12645
6.84294 -3.11732 1.16249
3.78556 -5.84129 1.0757
-6.99595 -2.05918 1.14284
-7.2832 -1.08354 1.15556
7.45969 4.8386 1.4042
-7.13871 -1.4315 1.15781
-7.21024 -1.29012 1.17465
-7.03962 -2.00256 1.18971
7.16314 4.82618 1.40985
-7.04327 -1.92958 1.19913
7.10322 4.93014 1.43616
6.70241 4.91619 1.38709
5.2947 6.34943 1.3775
4.77074 7.32226 1.46008
3.92197 8.14103 1.50298
-7.18845 -1.362 1.22075
2.81971 -5.83271 1.09132
7.23223 4.48466 1.43351
6.60461 5.31165 1.42987
3.90631 -5.4102 1.12448
3.96602 -5.05815 1.08755
-7.21102 -1.24187 1.24065
-6.54804 -2.60523 1.19528
7.49382 2.87755 1.36132
7.11167 3.93647 1.38508
-6.36672 -2.73258 1.17841
6.85438 4.14699 1.37522
5.72207 -3.54408 1.1581
-7.33237 -1.03066 1.27982
-6.31115 -2.26402 1.15227
5.57355 -3.67303 1.15018
5.35495 -3.79946 1.15049
3.67939 7.3274 1.44322
-6.74681 -1.72172 1.2223
4.51072 -4.4979 1.12058
-7.03383 -0.907124 1.26269
4.75878 -4.48928 1.15728
4.40974 6.61501 1.4192
6.65561 3.51064 1.35883
6.69811 3.72288 1.37659
-6.39466 -1.48967 1.18034
3.63813 -5.36919 1.17919
5.15425 5.69772 1.4071
-6.11279 -2.16824 1.18822
3.4383 -5.19618 1.15815
3.46125 6.91918 1.44843
-1.6825 -5.73073 1.13501
6.50468 2.7574 1.3444
-2.12561 -5.68099 1.16646
6.36744 2.82195 1.34079
-2.76724 -5.33757 1.1784
-3.46202 5.25546 1.36058
4.51726 3.9342 1.36751
4.16808 -2.89037 1.18156
4.64902 -2.19581 1.24213
4.23674 3.32113 1.33386
3.72027 -2.94028 1.22785
4.04708 2.59321 1.34322
-1.43876 -4.10499 1.21782
-2.31466 -3.56958 1.20871
3.88553 2.38021 1.32053
-2.83303 3.48969 1.34498
