ply
format ascii 1.0 
element vertex 1881
comment /media/mkaihara/Seagate Backup Plus Drive/model_iterations/model_51.ply
property float32 x 
property float32 y 
property float32 z 
end_header 
12.2148 11.6831 1.38953
6.64909 19.5191 1.688
-6.35651 -4.38804 0.629478
-7.1611 -9.4777 0.974996
11.5273 12.0767 1.38146
10.4585 9.14933 1.18335
-5.03881 -11.4961 1.06034
6.1225 -6.04264 0.750977
9.20667 -7.17232 1.00388
-6.79504 -6.69272 0.810294
10.4134 12.3408 1.40973
8.78725 -7.32206 0.994391
10.8109 12.1868 1.42587
-7.30919 -7.76396 0.934826
8.18173 -7.28384 0.972702
10.1898 12.455 1.4468
-7.0712 -7.74139 0.929643
-6.93782 -8.34011 0.973627
10.5811 12.2999 1.47344
10.4825 13.5218 1.55023
-7.11663 -8.32791 0.99788
11.2036 10.8218 1.43288
-6.31465 -4.2313 0.698944
-6.86108 -8.59327 1.0061
-6.32853 -4.39448 0.710193
11.072 8.54457 1.31255
10.6289 9.31783 1.31808
6.47323 15.3771 1.56936
10.4945 11.2901 1.45873
-11.2315 2.87808 1.09551
6.15418 -5.96207 0.81699
7.99808 -6.63048 0.997976
10.729 9.18758 1.3714
9.51333 12.5176 1.52251
9.69836 12.4461 1.55469
7.65505 12.2426 1.43445
7.89901 13.2048 1.53179
11.214 8.05278 1.40717
7.12821 12.6844 1.4686
9.04933 11.3407 1.47643
6.9852 13.5232 1.55789
5.85662 13.9163 1.5502
9.18737 10.4741 1.44015
9.01983 12.2882 1.58394
11.378 7.65117 1.4305
9.24246 9.99539 1.41756
4.97105 -5.81699 0.821562
-6.84654 -4.65652 0.873421
5.56619 13.8676 1.58627
-7.05964 -4.50703 0.89323
8.91778 10.6854 1.49451
-6.76692 -6.77659 1.02441
5.90696 -5.83039 0.89663
9.68313 8.52545 1.39078
8.95336 9.3515 1.39264
9.24813 10.3095 1.50177
4.77265 13.8321 1.57943
4.23357 -8.05161 0.985506
6.45871 10.8054 1.38546
-6.80212 -3.92531 0.864465
6.33937 11.8865 1.49487
-6.89594 -3.86348 0.875701
9.70467 7.20077 1.35152
6.66221 11.3702 1.46789
9.79966 7.02623 1.3548
5.42826 11.572 1.44547
5.43314 12.081 1.49638
4.69719 12.224 1.48194
9.82947 6.68087 1.35466
-6.89286 -4.5643 0.946823
7.40327 -6.22719 1.10282
-7.33136 -0.785538 0.845485
-6.27613 -5.39163 0.952953
5.24804 -5.56687 0.882912
8.87136 7.88683 1.3831
4.41723 -7.18182 0.976857
10.4096 5.15342 1.36041
8.95519 7.79055 1.39545
5.19944 -5.61051 0.903827
8.59896 7.91525 1.38695
8.89782 9.05203 1.48522
-7.0491 -5.65211 1.06912
10.1377 4.74699 1.33387
-6.91971 -3.85237 0.954301
9.13825 6.1431 1.33565
5.20763 11.415 1.5212
-6.89413 -3.06598 0.916826
-6.87855 -3.25203 0.920153
4.88029 -5.95179 0.939558
5.97277 -6.12791 1.042
9.37129 5.62104 1.35104
8.46048 7.22305 1.37559
-6.95162 -4.31129 1.00771
-6.88312 -4.53586 1.01602
8.25629 8.58282 1.47771
5.02896 11.3099 1.53718
-6.55197 -5.61924 1.07426
3.7082 -7.57331 1.05096
8.50117 7.74096 1.43884
6.077 -5.61661 1.03761
9.16509 6.05994 1.39255
-6.1364 -5.4147 1.03272
8.54776 6.61261 1.37836
8.08665 7.50814 1.40389
-7.10129 -1.783 0.936563
-7.01415 -2.30623 0.943055
-6.44724 -5.32018 1.06655
8.82754 5.65943 1.34444
8.15316 8.04369 1.47634
-7.26359 -1.25325 0.945258
-6.89915 -4.1197 1.03894
7.43077 6.22037 1.25528
8.07701 7.0398 1.38951
7.96721 8.1236 1.47465
-6.91109 -2.82652 0.972176
-6.9124 -2.96643 0.972561
4.5511 10.0786 1.45354
8.99567 4.10998 1.30195
-7.24759 -1.60613 0.975663
6.83829 -4.25838 1.07077
4.92815 -5.94358 1.02377
-7.33276 -1.1171 0.992959
-7.01446 -2.19942 0.983454
-7.05158 -2.26868 0.989731
-5.99611 -4.39908 0.993946
5.18765 -6.56391 1.11514
6.90907 -4.17529 1.08693
8.07136 7.16837 1.46261
-7.15117 -1.71819 0.988862
-7.08259 -1.9557 0.988344
8.79189 4.85386 1.36417
8.33013 5.87187 1.38586
-6.92202 -3.61955 1.06449
8.86505 4.16063 1.34337
3.34479 10.5125 1.51054
-7.31226 -1.19986 1.01447
-6.01132 -4.44234 1.0281
-5.99183 -4.54119 1.02935
7.14683 -3.93356 1.12138
8.07012 6.48445 1.43195
5.35507 9.05115 1.45651
-6.38333 -4.32219 1.05693
4.93304 -5.52599 1.02916
7.18447 -3.82931 1.13319
7.5587 -3.6859 1.16373
3.61878 10.0394 1.48624
3.43319 10.3305 1.51796
-7.36857 -1.08203 1.03986
-7.07344 -2.00373 1.02462
4.97239 -5.28776 1.01481
7.24621 -3.73736 1.14557
7.3626 -3.67206 1.16706
7.87191 -3.3563 1.2167
-7.15433 -1.87461 1.05194
-7.00833 -2.94596 1.10181
-6.00916 -4.37432 1.06909
7.90664 -2.78281 1.22653
8.23282 4.62083 1.3834
4.99359 8.55454 1.45201
8.37012 4.50737 1.4052
7.83226 -2.34132 1.20518
7.14707 5.68948 1.36818
2.96226 9.45563 1.48182
-7.09329 -2.01934 1.10547
7.48569 -3.11048 1.22218
8.22942 4.54804 1.42544
5.78804 7.44389 1.43206
5.29332 7.63656 1.41612
5.12913 7.94676 1.43691
5.08253 8.05545 1.44181
7.33587 -3.17072 1.22077
7.68178 -2.75701 1.24299
-6.75523 -1.68256 1.04874
7.83427 -2.25759 1.25041
7.23727 5.4279 1.38933
-7.10277 -1.95221 1.14323
-6.91968 -2.78579 1.15953
6.81714 5.52956 1.37705
-7.35434 -1.09559 1.16154
-7.1435 -1.82396 1.15482
-7.04587 -2.06732 1.15067
-7.12018 -1.87228 1.15549
-6.8949 -2.93418 1.17647
4.8138 7.46415 1.41278
3.44529 -6.03025 1.10911
-7.27485 -1.29926 1.184
3.52693 -5.70589 1.08075
3.56384 -5.61137 1.07015
7.08228 4.77396 1.39199
4.66737 7.38722 1.4224
-7.07052 -2.02334 1.19872
-7.09252 -1.94678 1.20704
6.97766 4.83518 1.40419
3.82427 7.94489 1.46012
6.05543 -3.3205 1.15055
6.64529 4.88183 1.37507
4.66953 7.17711 1.42857
3.83538 -5.29918 1.09957
7.11798 4.43246 1.41212
7.48627 2.86263 1.35471
6.33218 5.2935 1.39906
-7.2784 -1.25561 1.25793
6.76508 4.09018 1.35788
-6.45059 -2.77185 1.19812
5.51098 -3.63068 1.13379
5.69264 -3.51974 1.14923
2.76102 7.86889 1.44209
-7.37192 -1.03945 1.29088
5.33493 -3.78424 1.14029
-6.31061 -2.25955 1.16248
-6.27114 -2.41664 1.17693
4.28052 -4.66402 1.10714
4.49372 -4.47691 1.11281
4.59153 -4.44889 1.12174
-6.80068 -1.73248 1.23642
4.34123 6.51321 1.39659
-7.15904 -0.928225 1.29058
-6.14393 -2.25767 1.16609
6.65137 3.69861 1.36449
6.11143 4.37005 1.363
3.60765 -5.32595 1.16998
5.15851 5.69725 1.40604
2.52192 7.2172 1.43648
6.49605 3.05738 1.3577
-1.7076 -5.78636 1.14197
6.43133 -1.38703 1.24845
6.28363 2.78257 1.3233
6.2282 2.38529 1.33082
-4.45293 3.94033 1.39804
4.33232 3.54036 1.33848
4.21734 3.2972 1.32553
4.66572 -1.67793 1.24518
4.81974 -1.38123 1.25443
-2.14415 4.80395 1.3142
3.726 -2.95219 1.22224
3.67218 -2.54891 1.19351
3.40533 -2.96062 1.22553
4.0072 2.57137 1.33081
-2.5955 -3.53554 1.25138
-2.32702 -3.57198 1.21679
3.75655 2.05879 1.30262
3.7331 1.98105 1.30202
-2.84368 3.48696 1.38804
-2.2971 -2.41999 1.1877
1.95399 -2.77924 1.21226
-2.12449 2.76852 1.32555
-2.02946 2.75663 1.33173
2.24964 -1.86881 1.22501
2.37923 -1.49767 1.22217
-2.01646 1.87752 1.29661
-2.06484 -1.44323 1.22866
1.44853 -2.06885 1.24511
-1.99272 -1.08789 1.21466
-1.92514 -0.707718 1.22017
-1.92688 -0.703505 1.24576
-1.95595 -0.344376 1.22907
-1.89309 -0.564723 1.23006
-1.89269 -0.530927 1.23515
8.22481 -8.7045 -7.46968
12.1259 -10.2875 -8.80021
-8.7673 15.6499 -6.9602
20.5498 25.0248 -11.6332
-8.80379 -2.52127 -2.58041
-34.4607 -23.0199 -7.65565
-34.0617 -22.2754 -6.00515
-33.791 -22.9638 -6.06728
-31.1787 -19.996 -2.7855
9.2866 -8.84527 -0.391839
-7.67146 16.5359 -0.449737
-29.4505 -11.3964 0.727503
-6.91944 -8.2699 0.460605
16.7008 23.9815 1.5878
11.3931 16.0229 1.62626
-6.69547 -6.66849 0.883649
4.22748 12.267 1.49544
8.73318 9.0969 1.47517
7.98228 -8.77477 -10.3922
8.84367 -8.55083 -10.511
6.96517 -11.9508 -11.527
6.88049 -11.3629 -10.9079
8.1626 -8.27497 -9.54447
7.02998 -12.0422 -11.3386
7.07464 -10.9859 -10.4684
8.01225 -8.38822 -9.21535
6.73575 -11.2981 -10.3009
6.45294 -11.7107 -10.2248
7.76725 -8.86181 -8.98344
6.21325 -14.3332 -11.8217
8.30968 -8.7125 -9.11336
6.30746 -11.923 -10.1871
6.15448 -12.1013 -10.1236
7.5012 -9.45779 -9.01296
7.91959 -9.06754 -8.93809
10.483 -9.46383 -10.5037
6.12711 -14.1289 -11.3829
6.10757 -13.6812 -11.0156
6.13848 -12.5909 -10.3026
9.2085 -8.83728 -9.36263
9.29654 -9.08436 -9.48012
5.87189 -12.5195 -10.0452
9.37246 -9.00088 -9.27379
6.87059 -11.1402 -9.28883
5.62225 -12.9846 -10.0146
9.70454 -9.09287 -9.4247
7.61882 -9.35609 -8.48321
10.0104 -9.1987 -9.55088
10.9325 -9.50652 -10.1657
11.4573 -9.71254 -10.0871
8.39588 -8.61943 -7.96634
7.44082 -9.3112 -7.87527
8.17882 -8.7305 -7.90729
7.63834 -9.36449 -7.9062
7.84753 -9.4147 -7.85529
8.33194 -8.54698 -7.63029
0.35804 15.8779 -10.1332
7.53789 -9.33668 -7.63628
10.9259 -9.62049 -9.25595
7.2363 -10.7172 -8.1843
8.16637 -8.50901 -7.4377
4.61758 -15.4195 -10.1229
8.72507 -8.71207 -7.6286
7.93213 -9.04463 -7.42049
4.0523 -18.0328 -11.3848
8.20889 -8.63922 -7.28552
4.08864 -17.3151 -10.856
0.143969 14.8821 -9.05544
6.66389 -11.2782 -7.97547
7.75285 -9.28023 -7.33716
10.14 -9.32565 -8.35914
6.83014 -11.2668 -7.90949
8.07166 -9.21711 -7.35428
11.2846 -9.71023 -8.90069
5.4078 -13.8741 -8.83132
7.74551 -9.27872 -7.16782
9.3639 -9.04592 -7.71476
6.91207 -11.1309 -7.75463
7.99429 -9.14039 -7.1252
9.76653 -9.20044 -7.81953
14.8746 7.43281 -9.65771
8.67957 -8.84353 -7.16002
6.94232 -10.9792 -7.46546
2.64248 -11.2221 -6.63044
7.87053 -9.08388 -6.88372
9.61846 -9.15282 -7.54213
10.8078 -9.50843 -8.12053
3.27966 -20.5922 -11.7263
6.80985 -10.9962 -7.25089
10.12 -9.30393 -7.69842
12.3584 -10.3697 -9.04686
9.25291 -9.01967 -7.22044
4.62158 -14.3097 -8.38329
8.01511 -9.22926 -6.78886
14.7971 7.56522 -9.1243
9.71066 -9.11942 -7.31611
0.835392 17.4787 -9.55584
2.74085 -19.8431 -10.9227
11.1456 -9.65839 -8.00751
4.2394 -14.4412 -8.14683
14.7103 7.69296 -8.94212
15.1039 10.4284 -9.85518
14.0442 7.74807 -8.57087
10.9654 -9.63082 -7.76077
13.2837 -10.8174 -9.11274
3.04295 -19.3201 -10.2819
11.371 -9.83811 -7.65074
2.16848 -20.3705 -10.3397
10.2746 -9.35436 -6.98706
14.2893 -11.3021 -9.14723
13.826 -11.1829 -8.90209
11.0224 -9.66784 -7.30441
7.51717 -9.34845 -5.94056
3.56492 -8.47247 -4.52998
-8.70068 -1.91036 -4.3795
2.2222 -20.1416 -9.93895
4.53409 -9.30337 -5.06153
0.402278 13.6643 -6.69198
7.61616 -9.2802 -5.85823
-8.48817 16.1966 -8.85538
-9.2009 -2.43236 -4.58549
15.0161 -11.5959 -9.11718
19.4044 5.55203 -9.65241
-10.3135 -2.55347 -5.02536
1.90956 -20.5454 -9.81157
17.2418 16.2031 -11.2068
7.59114 -11.2225 -6.39296
20.0582 5.41409 -9.78435
14.0464 -11.1208 -8.33119
2.93242 -17.3476 -8.18059
19.3829 5.73499 -9.33852
17.8703 -13.0232 -10.2138
9.86672 -2.49223 -4.70224
20.3135 5.14872 -9.66891
17.3683 16.3329 -10.9869
1.80943 -20.207 -9.28501
9.68141 -9.05295 -6.06938
-9.2106 -1.67183 -4.26908
9.45367 -3.4689 -4.58655
6.72 -11.3282 -5.99093
9.91405 -2.61867 -4.65126
19.2758 5.87781 -9.07281
17.7587 17.6153 -11.2454
9.36968 -3.08651 -4.4406
15.4513 -11.8896 -8.74908
7.04434 -11.5737 -6.06009
7.15742 -10.9259 -5.82191
9.56004 -3.40505 -4.52257
-10.0035 16.3944 -8.54944
17.6793 -12.9026 -9.72571
19.5629 5.63555 -9.0238
16.1275 7.31523 -7.84234
17.8673 18.0475 -11.2322
16.4486 -12.233 -9.03455
-11.2484 17.1037 -8.99689
-6.5616 14.9926 -7.17465
-5.23438 4.90929 -3.12635
20.1626 5.47451 -9.08335
9.55895 -3.40532 -4.37945
18.264 18.512 -11.1778
15.8433 -12.1922 -8.60229
14.8838 7.44189 -7.10231
3.84028 -9.30608 -4.27726
-11.1735 16.9925 -8.60872
6.94986 -10.9149 -5.45617
-13.5816 3.32846 -5.89127
0.743306 -22.361 -9.42851
15.8265 -11.9831 -8.30179
-5.16294 5.68487 -3.21249
0.998283 -22.2222 -9.32489
1.23236 -20.7761 -8.71909
14.191 7.61116 -6.73579
18.5985 19.3826 -11.2244
3.78403 -8.95774 -4.05516
14.7959 7.74265 -6.95157
17.9646 19.187 -10.9086
-9.51274 -1.0918 -3.95247
4.00796 -8.50374 -3.85168
14.058 7.7625 -6.59276
6.8493 -10.9954 -5.29603
-13.6217 2.54456 -5.66855
-7.97143 15.4411 -7.06072
19.309 20.9819 -11.5528
15.0986 7.25493 -6.74966
-5.2806 14.4177 -6.15538
13.9701 -11.0446 -6.97515
1.53336 19.2853 -7.51446
-8.75615 15.8126 -7.02314
19.0218 5.80103 -7.70566
-1.75547 13.2874 -5.19098
5.29862 -9.39909 -4.16098
-2.3868 13.5033 -5.26642
19.6452 22.7264 -11.5196
4.6621 -8.51827 -3.68781
19.4497 5.57975 -7.69994
0.87524 -26.4565 -10.0601
14.9249 -11.5011 -7.09089
20.0102 5.42118 -7.75955
9.44433 -3.44094 -3.75816
0.532569 -22.62 -8.4323
3.25119 -10.8031 -4.21467
20.2497 23.5595 -11.5376
0.909367 -8.71859 -3.25087
14.0446 -11.1225 -6.606
20.4196 5.19351 -7.74718
17.9289 17.7163 -9.21175
-13.0371 2.28397 -4.81183
20.9078 24.9681 -11.8122
2.28901 -13.2682 -4.85053
13.0492 -10.5526 -6.03882
0.795579 15.4599 -5.53946
-8.20053 -2.79847 -3.09919
0.409778 -21.8056 -7.79644
-4.22339 13.8569 -5.15201
0.638002 -21.8963 -7.78475
15.8788 -11.9926 -7.05269
-15.7592 18.2183 -8.48866
5.93214 -11.3451 -4.50138
-11.0436 16.6646 -6.9818
0.0940199 -18.4838 -6.49771
14.2819 -11.3186 -6.37191
20.3746 5.36588 -7.35443
0.657194 -23.008 -7.9493
-5.02344 14.5797 -5.28296
3.64046 -8.45096 -3.16746
4.87869 -9.03699 -3.51921
-14.5313 18.0401 -7.92838
2.27608 -10.8904 -3.81272
-8.90365 16.1503 -6.28571
3.03242 -13.7185 -4.78984
-15.0074 18.4192 -8.05382
20.1925 5.49009 -7.03372
22.1235 27.3689 -11.7629
36.1771 -20.422 -13.8826
-5.31639 14.0985 -5.00361
1.91778 20.8019 -6.93239
1.26746 -10.2475 -3.4141
-5.2642 14.4922 -5.00728
-12.6118 17.2649 -6.93527
18.5959 -13.2512 -7.41509
3.56025 -8.67352 -3.00606
6.22426 -10.12 -3.80751
2.31404 -11.0096 -3.5801
-4.55094 -34.1948 -10.9648
-1.13575 -23.8145 -7.58945
15.0484 10.3641 -5.76698
-13.2359 17.6121 -6.96308
-18.0218 19.4378 -8.33193
6.96863 -11.1055 -4.05332
1.38467 -21.8769 -6.78122
-2.57031 -27.3867 -8.44375
7.21351 33.3227 -10.4055
0.770791 15.0521 -4.57844
-11.1547 16.8298 -6.08496
-2.69606 -26.4803 -8.01625
-14.3708 17.9675 -6.86441
-5.29154 -34.7065 -10.4537
0.837338 -25.0064 -7.4814
-5.40336 14.859 -4.7025
2.08502 20.7603 -6.14818
-21.3089 19.8686 -8.5952
18.2421 5.80507 -5.63514
-4.30563 14.458 -4.435
-7.94188 15.4065 -5.08466
4.25822 -9.14841 -2.96582
4.64125 -11.629 -3.66102
-12.6167 2.22259 -3.6818
-32.9267 -46.6416 -16.429
-15.2226 18.3124 -6.84507
6.96663 -11.0957 -3.77172
2.5645 -9.54831 -2.80911
12.9508 -10.4827 -4.74152
-8.45014 -2.45926 -2.49541
21.1492 27.2764 -9.77988
-8.57741 -2.26069 -2.50648
-2.54773 -26.0046 -7.33316
-13.0231 1.99563 -3.6689
4.39295 -11.3423 -3.37584
-9.32529 16.0363 -5.09231
-13.0794 17.4432 -5.98783
-5.40279 14.4174 -4.2076
-8.49348 -41.2526 -11.5242
-21.4958 20.0594 -7.90365
-9.74605 16.1603 -5.05689
-26.7389 20.5402 -8.96969
11.4599 11.5343 -4.29077
4.33213 -11.3087 -3.20805
47.262 -13.7391 -13.0384
-8.18176 -38.6142 -10.3754
4.0919 -8.66249 -2.52255
11.1849 -9.94844 -3.91584
-14.4707 18.1183 -6.02893
6.54219 -10.4328 -3.18726
3.17991 -9.65151 -2.627
-30.0677 -44.0376 -13.7697
-4.35162 -28.5461 -7.47159
3.54418 -10.381 -2.82839
4.07098 -9.39348 -2.63132
15.6337 -11.7554 -4.99072
-7.16413 15.2615 -4.26676
-31.505 -42.016 -13.3175
4.31663 -11.1564 -3.02751
4.25711 -7.70815 -2.24106
6.5436 -10.6737 -3.12224
44.935 -13.5857 -11.704
-28.2841 21.3391 -8.75927
-11.5442 16.9599 -5.05718
-27.5721 -40.2222 -11.9906
-9.87546 -38.8725 -9.89372
-24.4955 20.5741 -7.86088
4.35302 -10.3389 -2.7561
-12.0779 17.2997 -5.1152
-7.85482 15.3035 -4.14554
10.2858 -9.27784 -3.31667
40.384 -13.4146 -10.1828
15.1433 7.57338 -4.03114
-6.30149 -36.0925 -8.72823
3.96714 -9.09078 -2.35023
47.1303 -12.614 -11.5793
-12.1279 -44.6574 -10.9628
4.20482 -8.99695 -2.3691
3.8647 -11.0845 -2.76647
4.91132 -8.69842 -2.34993
-12.792 17.432 -5.03154
11.0203 -9.65757 -3.34901
-6.18292 -31.3571 -7.29301
-27.1606 20.9775 -7.77906
41.6216 -9.10243 -9.66847
-30.4953 22.1411 -8.44896
-35.4136 -23.2074 -9.48715
40.8169 -12.6178 -9.59224
5.4581 -9.4803 -2.44234
-12.405 2.83054 -2.79175
40.6907 -11.9244 -9.36831
42.6771 -12.177 -9.76384
-5.38295 14.1219 -3.3039
13.4106 -10.7914 -3.78881
38.1402 -12.257 -8.8069
-23.3929 20.3881 -6.73064
-29.4049 -72.4964 -16.9764
4.31226 -9.70579 -2.30308
4.54167 -9.1854 -2.21326
-14.587 18.1737 -4.97633
-30.9261 22.4641 -8.16171
-31.8017 22.5684 -8.33575
-28.0195 -74.3409 -17.03
-10.6955 16.7121 -4.20681
-8.42658 -35.7726 -7.81559
3.19232 -9.69128 -2.17576
3.96922 -9.83671 -2.26161
45.8938 -10.6405 -10.0565
14.9753 7.50097 -3.5511
-15.1613 18.6634 -5.09061
5.16681 -9.05977 -2.19116
26.7424 38.693 -9.83009
15.0163 7.85884 -3.51908
-30.1341 -23.2727 -7.89855
-32.7912 -84.0793 -18.6848
-11.4517 16.8725 -4.14346
-15.6238 18.4723 -4.92503
-35.1465 23.5929 -8.60154
44.5214 -9.7111 -9.29241
-13.2213 -42.5432 -9.05494
4.1383 -9.73998 -2.15306
11.6175 -9.65736 -3.0737
-11.9984 17.2182 -4.18896
-19.8509 -56.9731 -12.0583
-12.9469 -40.2197 -8.36561
4.07224 -9.92721 -2.12441
-34.0916 -23.3115 -8.14163
-26.7157 20.9675 -6.68387
-33.1255 -23.6952 -7.93923
-6.88817 15.2202 -3.24228
-26.482 -62.225 -13.1361
-33.5369 -22.3265 -7.76397
3.43757 -9.36698 -1.92668
45.9723 -10.6515 -9.0615
-12.7433 17.3986 -4.12242
3.99134 -9.35002 -1.94007
-36.4149 -22.1195 -8.06539
-21.25 -34.5202 -7.70949
-15.5464 -44.8579 -8.98344
37.9755 -12.5272 -7.55932
-35.8996 24.1112 -8.09305
-33.6684 -23.2521 -7.68672
-32.6221 -23.8676 -7.58776
-21.2551 -52.6582 -10.6854
-16.8456 -45.7579 -9.0451
3.82169 -9.21031 -1.84184
42.6659 -11.4992 -8.20555
5.76197 -9.7201 -2.07085
-24.4523 -55.4465 -11.095
-20.3974 -50.6285 -9.87274
-14.5493 18.136 -4.12246
-31.0757 -25.0633 -7.09658
-20.2862 -27.0321 -6.04396
-39.3005 24.7991 -8.19907
-26.7234 20.983 -5.91359
-34.0297 23.2863 -7.1593
3.91209 -10.0564 -1.87104
4.77415 -8.61672 -1.71193
14.0293 7.53416 -2.74678
14.1046 8.09387 -2.78542
-30.7783 22.3815 -6.52387
42.3442 -11.9801 -7.49186
42.1367 -10.913 -7.40958
-31.233 -24.8049 -6.76604
-21.0374 20.0354 -4.87828
-20.3341 -50.5428 -9.20559
14.8877 7.46174 -2.79314
-31.6473 22.4044 -6.4769
-23.4877 -55.9993 -10.0346
43.6768 -11.7662 -7.35216
-10.3383 16.4126 -3.12987
-20.6162 -51.146 -8.79536
-34.8572 -24.0621 -6.67444
-22.7426 19.9813 -4.74032
-24.138 20.6057 -4.91867
-40.0063 24.2225 -7.24709
-11.2059 16.7716 -3.11361
3.47431 -9.53499 -1.56946
3.8726 -10.2407 -1.69518
-7.60396 15.4225 -2.62609
-31.0051 22.5664 -5.8619
-31.7324 -24.5092 -6.09712
-27.9208 -26.1168 -5.79195
42.328 -11.004 -6.64766
44.9905 -9.80187 -7.01497
-6.52771 14.5392 -2.38429
9.83856 -5.15713 -1.64871
-33.4582 -24.1319 -6.14345
-26.3451 -66.6143 -10.6247
10.2053 -9.17567 -2.04518
45.1341 -10.4413 -6.87967
-36.6091 -24.3702 -6.4726
-31.4805 -25.9664 -5.96958
-12.6419 -41.8881 -6.43817
16.9496 -12.263 -3.06441
-25.3435 20.866 -4.77065
-24.6292 -55.1849 -8.70849
-7.60211 15.226 -2.43319
-12.6903 17.3025 -3.05908
6.04301 -11.5451 -1.86201
-13.388 17.8942 -3.13904
-34.6231 23.3887 -5.87419
6.76784 -11.0549 -1.81164
37.6941 -12.4398 -5.58273
-31.122 -24.9381 -5.56601
-32.9278 23.6636 -5.61722
-20.5323 -49.4867 -7.40028
45.2863 -10.1311 -6.39888
-6.85286 15.1551 -2.27263
-22.5543 -58.8642 -8.56372
7.75863 -9.38933 -1.63457
-13.9797 17.8498 -3.05623
13.237 -10.5576 -2.29097
-22.1828 20.178 -4.03224
42.2511 -10.9241 -5.79362
45.008 -9.85864 -6.09844
-22.5652 19.8576 -3.93048
-32.6543 -24.4347 -5.3272
-14.8689 18.2076 -3.03935
-33.9503 22.66 -5.29922
-38.2957 -16.17 -5.36739
7.0243 -10.4466 -1.61515
10.7955 8.83861 -1.79175
-33.7702 -23.2722 -5.24852
-31.3665 22.8983 -4.91253
-35.5426 -22.1789 -5.25127
42.1119 -10.8909 -5.44335
6.80329 -10.3788 -1.55065
-7.63641 15.2741 -2.11419
-24.966 20.9634 -3.99183
-33.3153 23.4796 -5.02761
6.30427 -12.0907 -1.6611
44.9594 -9.59204 -5.6307
15.0323 7.87557 -2.04054
-17.9167 -43.3938 -5.66121
7.09451 -10.544 -1.53015
-20.5086 9.08918 -2.65512
-14.2804 -43.1982 -5.34995
-31.8173 -24.5306 -4.69781
-31.3032 -25.0346 -4.69056
42.1971 -11.3034 -5.13427
11.2456 -9.6845 -1.71938
-29.8126 22.6052 -4.30447
6.65009 -10.8354 -1.45543
7.49553 -9.22837 -1.35993
11.5989 -9.73702 -1.72006
9.4557 -4.61293 -1.19142
15.0102 7.71336 -1.90214
-10.3262 16.4391 -2.19077
-32.1062 23.4602 -4.4547
39.0061 -12.8404 -4.60509
9.36647 -9.03244 -1.43957
-11.0418 16.5603 -2.16358
6.80472 -12.8111 -1.57128
45.1026 -9.80242 -5.00359
10.7941 8.87022 -1.50596
16.8055 -12.4836 -2.24683
42.3946 -10.9954 -4.69292
9.62916 -8.98815 -1.39554
8.38627 -8.47147 -1.24877
-30.8687 -24.7021 -4.11686
-30.0409 -60.2562 -7.0241
15.0068 7.5261 -1.71541
-31.7588 -24.4881 -4.11479
-12.8284 17.4878 -2.20214
-12.7482 17.0796 -2.11836
10.2189 -9.09815 -1.34036
-20.7749 -52.7608 -5.55934
6.32681 -12.1161 -1.32291
16.6739 -12.1989 -1.98588
42.2837 -11.3622 -4.19684
-30.5646 -61.7827 -6.55279
-20.7377 -54.4223 -5.53122
-23.2613 20.3464 -2.88909
45.8111 -10.1912 -4.38342
9.72678 -8.99655 -1.22652
39.8436 -13.1434 -3.90954
-14.9861 18.3705 -2.14698
-29.6694 -13.5272 -2.97239
-32.1638 -62.7008 -6.49569
15.8861 -11.8906 -1.8051
8.64406 -8.73513 -1.11284
12.9103 -10.6568 -1.45775
45.3956 -10.5219 -3.99184
9.41157 -9.03729 -1.09684
10.9651 -9.65611 -1.22811
-34.0618 23.392 -3.43866
16.8747 -12.3056 -1.72983
-16.8752 -43.9123 -3.76813
14.7073 -11.5002 -1.48877
-11.7055 -32.7701 -2.74673
-29.7431 22.6154 -2.88969
-33.0023 23.3273 -3.12008
-22.6288 -51.6903 -4.35637
-50.9508 27.7297 -4.39289
-21.3395 20.0838 -2.13177
-33.2277 23.503 -2.9498
16.4102 -12.2617 -1.49856
42.312 -11.3228 -3.19106
-39.0545 -73.8948 -6.03189
13.9972 -11.0746 -1.27736
-15.5072 -41.1367 -3.03438
10.7792 -9.62658 -0.990174
-23.2841 20.3874 -2.0903
12.8888 -10.6352 -1.1186
17.9897 -13.0478 -1.48157
16.0715 -12.1562 -1.33083
-14.6202 -40.5358 -2.78758
44.0882 -11.4664 -2.84747
-31.6768 -64.1824 -4.36775
35.9599 -8.72392 -2.27091
43.2478 -9.89874 -2.7237
6.06164 -13.103 -0.862904
31.0208 -20.5264 -2.22579
-9.81038 16.377 -1.12231
-15.514 -40.4696 -2.46797
16.6421 -12.4374 -1.16654
-9.68026 -12.5489 -0.868542
14.9986 7.69485 -0.911563
13.9236 -11.022 -0.950935
-12.7513 17.28 -1.12179
-16.4163 -40.689 -2.33024
14.8929 7.83117 -0.824802
-16.2397 -41.5109 -2.18714
-14.1136 17.889 -1.08978
9.57546 -9.03221 -0.603759
-23.8641 -54.7414 -2.7022
12.4685 -10.2502 -0.748316
-15.941 -44.4371 -2.09604
-17.1492 -42.2523 -1.95226
6.86785 -12.6816 -0.639846
-13.8591 -42.2471 -1.89397
-52.3458 28.4676 -2.41413
18.376 -13.2019 -0.918282
16.8345 -12.5131 -0.81691
-41.1287 -79.8271 -3.38774
-18.1472 -47.588 -1.87577
-33.531 23.039 -1.48813
42.7938 -11.0264 -1.59125
-34.2366 -68.1026 -2.55017
-25.7262 -56.379 -2.08651
20.2459 23.4155 -1.02796
-21.3822 20.0372 -0.954879
8.13456 -14.357 -0.554222
9.43133 -9.00367 -0.422681
11.3139 -9.96026 -0.489986
18.6318 -13.1741 -0.749949
34.9542 -13.1836 -1.23974
22.0655 26.7103 -1.11108
-27.3566 -13.7219 -0.95933
-22.8375 20.3369 -0.932067
-31.5994 22.3803 -1.2086
-24.8326 -57.091 -1.92821
-13.7595 -38.9253 -1.27169
-21.3888 -54.5603 -1.77438
-16.5452 -44.841 -1.36934
-33.9737 -20.599 -1.05823
11.4631 -9.72465 -0.402715
16.3689 -12.1749 -0.537793
-40.8981 25.301 -1.26844
-30.1913 22.9728 -0.938698
-30.7117 22.5079 -0.90029
9.57785 -9.01645 -0.304737
-41.2267 14.249 -0.96421
-31.2787 -52.3767 -1.37399
21.3194 -14.2586 -0.563781
30.6042 -18.5575 -0.807803
14.2499 3.93808 -0.301603
27.6672 48.3478 -1.02421
23.5971 -10.9858 -0.458412
47.3707 -10.908 -0.904172
-30.5933 -21.9854 -0.686969
-29.528 -29.0024 -0.656281
-18.8998 -46.3755 -0.833943
12.7387 -10.4755 -0.271366
18.5614 -13.4124 -0.349982
-29.2419 -12.9973 -0.420108
-32.7765 -24.5291 -0.56959
-33.1308 -66.789 -1.00653
-27.5566 -58.6493 -0.887936
-33.8768 -23.1361 -0.535585
-30.2097 22.9833 -0.44699
17.0317 -12.7189 -0.252407
29.4152 -18.2389 -0.407284
-30.671 22.5169 -0.423736
-19.0125 -43.6043 -0.508951
-11.9816 -36.0635 -0.38271
-33.2017 -58.5008 -0.619714
-14.2825 18.1171 -0.177103
-26.6864 -13.4545 -0.241292
-14.9714 18.25 -0.161467
-22.4985 20.0933 -0.155309
-20.9435 19.6443 -0.130698
-10.5537 -13.5677 -0.0603405
14.7604 7.754 -0.0201537
11.1219 -9.77979 -0.00779373
-34.4469 -18.8673 0.0599583
-11.3098 -33.6128 0.115483
16.9905 -12.3441 0.0911652
-18.7367 -43.0159 0.208585
18.8219 -13.2615 0.122312
7.18844 -12.3568 0.104328
26.0746 -10.6978 0.173406
-55.1466 19.6912 0.558301
16.2799 -12.0651 0.193489
37.5931 -7.67515 0.362148
-29.0548 -8.19277 0.353132
-36.226 -21.8653 0.466721
-11.3021 -32.3821 0.367927
-12.6755 -35.1245 0.444627
-10.2606 -31.5388 0.397992
6.34324 -12.9657 0.184265
7.22319 -11.1278 0.174445
-28.1067 22.0629 0.547088
11.3276 -9.89286 0.22612
-24.0585 20.5744 0.522484
10.9137 -9.74463 0.229648
12.9917 -10.6953 0.265144
36.5348 -7.81901 0.621708
-34.5034 -23.1167 0.755502
-31.1488 22.2716 0.751856
6.15512 -12.8602 0.276654
7.03113 -11.065 0.252581
8.03383 -9.42719 0.241886
27.795 57.153 1.38224
7.73614 -9.45249 0.276165
10.1405 -9.18465 0.330089
-28.7916 -9.23229 0.728338
-23.2558 20.2988 0.835181
-27.5112 21.6926 0.940284
-28.9205 -8.68381 0.795734
9.19865 -8.90412 0.345849
9.63417 -8.95426 0.35854
-25.5239 21.5119 0.906957
25.4283 -5.1442 0.722394
13.0015 -10.6659 0.500974
14.8794 24.2397 0.877523
6.20188 -12.7942 0.447415
7.46806 -11.6415 0.434041
-28.4484 -8.02335 0.96985
-12.6028 -19.2963 0.759366
-28.1324 -8.79275 1.0191
16.1449 11.0504 0.707125
-29.8033 -18.468 1.22557
15.8419 27.5188 1.13323
-30.4223 -16.5945 1.28422
23.5783 -4.25767 0.865712
-27.8116 -19.7801 1.26467
-7.29717 -7.95641 0.40745
9.05964 -8.83451 0.470387
12.4569 13.6266 0.711902
26.259 54.1704 2.27996
25.1087 53.4591 2.22412
-11.5574 -9.14814 0.581235
8.73053 -8.67618 0.486915
-25.613 21.099 1.34715
21.871 -2.96412 0.894235
-28.7816 -17.482 1.37959
9.42294 -8.9348 0.532429
12.4833 14.3773 0.819232
6.58765 -12.4757 0.599091
14.8981 19.3578 1.07394
20.8625 28.8167 1.55817
-9.49362 -13.8038 0.736414
-9.9778 -15.6048 0.822242
7.60633 -10.9628 0.587876
8.63123 -8.72076 0.554487
24.2286 -3.71163 1.10678
-29.8486 -8.6983 1.41914
6.7499 -11.0967 0.597601
-8.27578 -8.14433 0.546481
21.4621 43.3024 2.31232
-28.5438 -17.6412 1.5862
-9.76718 -13.7003 0.800863
9.6692 -8.97134 0.621254
15.5823 43.3023 2.22783
-30.241 -13.3946 1.57869
-6.76476 -8.24723 0.524906
14.6169 33.992 1.88816
-29.7322 -11.6432 1.60246
-7.59514 -6.98398 0.521589
-6.70218 -7.59763 0.512552
16.1827 29.3149 1.73879
10.5567 12.3441 0.877848
14.2497 19.3914 1.29213
9.35265 -8.93281 0.692957
14.8388 19.3072 1.34462
15.3125 23.6501 1.55148
-27.4748 19.3451 1.84179
-6.97549 -8.19769 0.596949
-26.4029 20.259 1.85026
6.10393 -12.8881 0.797849
-7.10861 -9.1611 0.661307
9.96343 12.445 0.937641
14.9395 25.1713 1.71016
6.47256 -12.9997 0.835718
13.8611 22.6141 1.5668
-8.26267 -8.12187 0.698121
11.5406 11.6203 0.976701
14.6882 19.5355 1.46856
-7.40026 -10.0178 0.774628
7.01543 -11.1797 0.80434
11.27 -9.72102 0.902285
5.87119 -10.7629 0.760775
-7.19822 -6.65338 0.612557
14.4927 20.559 1.59165
16.1499 7.16873 1.14732
-7.04016 -6.15104 0.613481
6.47396 -13.4689 0.995886
9.40864 21.2526 1.56802
10.4193 12.5585 1.11564
13.5574 18.2301 1.58469
12.4057 20.5685 1.66219
11.3472 11.9867 1.15863
6.6004 -9.84349 0.839283
11.4953 11.7609 1.19024
9.80585 -6.92198 0.854074
12.3587 11.9643 1.26341
9.9268 -8.38308 0.951854
-6.1594 6.6756 0.678092
10.4289 9.18294 1.04391
11.9223 17.8258 1.61368
11.475 18.282 1.62652
-6.94927 -7.70285 0.8045
10.8536 18.7332 1.66128
9.51487 -8.95826 1.00996
-6.41898 -4.30117 0.609432
9.18478 18.4016 1.64363
10.0799 -6.89757 0.977992
12.4519 11.5531 1.3732
9.74364 18.9183 1.71365
-7.26891 -9.64158 0.983573
6.71762 -9.38001 0.938837
12.2392 11.7084 1.38794
12.1435 11.9427 1.41445
11.419 11.9355 1.3676
-5.05428 -11.5357 1.05951
10.3098 12.8989 1.40515
-6.96441 -6.08578 0.796669
-6.8209 -6.69972 0.807638
-5.2154 -11.4386 1.06916
-7.30505 -7.7516 0.917299
9.28297 -7.25474 1.01793
-7.1253 -8.06305 0.941715
-7.0214 -7.69531 0.916198
9.38599 12.5284 1.388
-6.95679 -8.37776 0.972932
10.8086 9.06917 1.28599
10.4596 13.4714 1.54105
10.5176 9.2372 1.2815
7.71745 14.009 1.47129
-6.50276 -8.14158 0.954755
-6.90784 -9.02481 1.04904
11.1926 10.7949 1.4349
11.2426 9.17283 1.3579
10.8626 10.7973 1.43583
6.48773 14.9925 1.53525
-11.4338 2.92916 1.10688
-6.36418 -4.17279 0.712996
-6.8096 -6.2975 0.860169
9.42921 13.298 1.57272
-6.03078 6.55306 0.876947
7.95931 -6.6083 1.00825
7.92985 13.2223 1.53166
-7.07298 -7.62223 1.04761
9.30338 11.6328 1.50257
7.00636 12.4402 1.44916
7.06318 13.0125 1.50957
9.52793 9.08749 1.36276
5.86459 13.9807 1.5716
9.13771 12.428 1.60841
-6.10959 -4.4585 0.792812
5.96305 13.7021 1.57427
6.22358 13.6325 1.57571
-6.97284 -4.42928 0.883604
8.76267 9.01315 1.34029
9.13184 10.1731 1.4869
7.32748 11.0025 1.43679
5.8271 11.4774 1.39964
-6.30265 -7.41446 1.06371
10.2598 6.44804 1.34086
8.98578 8.13291 1.33612
7.31151 11.6872 1.52241
6.84644 11.6364 1.49285
5.35984 11.9022 1.45251
4.87257 12.112 1.46083
4.70916 13.6954 1.59351
9.85963 7.0497 1.35351
8.75348 9.3049 1.42768
5.3845 11.5213 1.43233
-6.84455 -6.72652 1.06818
6.86634 10.7174 1.43401
4.32382 13.1904 1.56909
9.75205 -3.19565 1.14428
-6.1064 -5.41602 0.945032
7.28814 -6.11905 1.08027
10.407 5.71009 1.36158
-7.3813 -0.9858 0.853373
-6.25944 -5.3579 0.948448
5.24427 -5.55266 0.879975
5.07072 11.6309 1.47415
-6.88504 -4.56054 0.957045
4.45088 -7.25756 0.984608
10.3996 5.14461 1.36164
8.87784 7.87955 1.3936
-6.00399 -4.36964 0.865468
-6.48794 -5.2752 0.987888
4.09 -7.86209 1.05397
4.96324 -5.84624 0.920103
10.1589 4.75017 1.34448
8.51281 8.26623 1.43738
5.27777 11.4982 1.54459
9.03794 6.26108 1.3463
8.00617 8.33218 1.44766
-6.4921 -5.74882 1.07955
3.70436 -7.56858 1.05541
8.66932 6.68441 1.37672
-6.47011 -5.34632 1.06232
9.0834 6.00821 1.39055
8.17749 7.13542 1.38482
8.1084 7.50221 1.41062
5.77378 -5.3425 1.00997
-6.97427 -4.44462 1.06163
8.09636 7.99387 1.47592
-7.35771 -1.04243 0.960213
-6.92484 -2.82711 0.976882
8.96944 4.09825 1.29156
8.39648 6.62419 1.40412
4.99543 -6.02447 1.02876
4.91357 -6.18889 1.04645
6.86768 -4.28112 1.07727
-7.13444 -1.71853 0.983867
-7.01102 -2.22045 0.983297
-6.02774 -4.42409 0.999667
8.12992 6.65425 1.42441
8.60438 4.43676 1.32002
8.62562 5.1636 1.37325
8.02337 7.13369 1.46147
-6.81035 -3.73457 1.05472
8.85576 4.15689 1.33921
8.25985 5.82983 1.38461
-6.40018 -4.33057 1.0575
-5.95983 -4.52689 1.02218
5.35864 9.03014 1.45054
3.64266 10.0775 1.48836
-7.36796 -1.09301 1.0316
-6.90601 -3.9281 1.10267
4.94608 -5.54042 1.02646
5.2256 -5.39554 1.04253
7.46217 -3.53636 1.15487
3.38711 10.1582 1.50068
8.39734 4.5959 1.35428
7.37372 -3.6775 1.16895
7.58574 -3.33435 1.1814
7.7606 -3.30516 1.19694
8.93372 2.81299 1.34821
4.83092 -5.63209 1.06661
7.35252 -2.8526 1.14823
-6.95995 -3.30086 1.12288
7.91698 -2.77921 1.2234
8.66327 -1.81978 1.29947
5.00942 8.57685 1.46636
2.95416 9.44286 1.47221
7.73127 -1.88771 1.17296
7.22713 5.75565 1.37671
3.457 9.56378 1.50349
3.18806 9.80114 1.52776
-7.37023 -1.04337 1.10379
-7.07517 -2.02327 1.09678
6.94562 6.2875 1.41464
-6.26418 -2.27207 1.00009
-7.24029 -1.37533 1.1126
7.93668 4.81611 1.41447
5.71 7.35772 1.4133
5.29385 7.63308 1.41395
5.05826 8.01605 1.43324
6.75836 -3.22514 1.13254
7.24518 -3.12424 1.20835
7.63503 -2.75511 1.23696
-7.31643 -0.732937 1.12301
-7.09778 -1.95462 1.13638
6.78799 -3.09235 1.1536
3.74856 -5.78465 1.06594
-7.05361 -2.07616 1.15285
-7.34598 -1.09289 1.16628
7.35933 4.77344 1.38556
-7.1986 -1.44352 1.16822
-7.27148 -1.30109 1.18535
-7.09796 -2.01916 1.20017
7.06812 4.76209 1.39136
-7.10159 -1.94557 1.20968
7.00782 4.86385 1.41706
6.61389 4.85118 1.36894
5.20719 6.24424 1.35463
4.67434 7.174 1.43022
3.82353 7.93604 1.46449
-7.24922 -1.37352 1.23179
2.79085 -5.77374 1.0811
7.14024 4.42755 1.41549
6.51233 5.23734 1.41001
3.87257 -5.36379 1.11546
3.93561 -5.01966 1.07984
-7.27226 -1.25242 1.25193
-6.59902 -2.62553 1.20509
7.41452 2.84704 1.34721
7.02827 3.89024 1.36907
-6.41511 -2.75336 1.18784
6.77289 4.09763 1.35907
5.68219 -3.51947 1.15048
-7.39594 -1.0396 1.29171
-6.35757 -2.28069 1.16132
5.53495 -3.64769 1.14267
5.31851 -3.77372 1.14312
3.59735 7.16334 1.41027
-6.79979 -1.73525 1.23257
4.47935 -4.46679 1.11332
-7.09208 -0.914632 1.27397
4.7247 -4.4573 1.14952
4.32933 6.49402 1.39291
6.58436 3.47298 1.34448
6.62391 3.68157 1.36153
-6.44169 -1.50064 1.18974
3.60776 -5.32475 1.17008
5.07759 5.61279 1.38602
-6.15591 -2.18355 1.1972
3.41197 -5.15684 1.15
3.38816 6.7723 1.41696
-1.69834 -5.78385 1.14503
6.44297 2.73118 1.33184
-2.14386 -5.72915 1.17596
6.30728 2.79522 1.3283
-2.78821 -5.37783 1.18707
-3.52343 5.3504 1.38804
4.47036 3.89318 1.3531
4.15079 -2.87853 1.17703
4.6287 -2.18631 1.23701
4.19914 3.29149 1.3218
3.70705 -2.92998 1.22383
4.0179 2.57434 1.3333
-1.44433 -4.12077 1.22256
-2.32249 -3.58177 1.21312
3.85961 2.36416 1.31147
-2.86133 3.52624 1.36149
-2.48219 -2.91825 1.19002
-2.37963 -2.93943 1.19496
1.84121 -2.8092 1.1811
1.86424 -2.78752 1.21113
1.99031 -2.52436 1.19753
-2.04335 2.8067 1.32028
2.80302 -0.555524 1.25898
2.78239 -0.336738 1.24073
-2.09063 -1.62014 1.21351
-2.07833 -1.45211 1.23856
-1.86354 -1.79707 1.28404
-1.99584 -1.13203 1.20498
-1.98732 -1.07093 1.2318
-1.94708 -0.880807 1.23201
-1.9314 -0.708748 1.22228
-1.93026 -0.701838 1.24949
-1.90656 -0.469906 1.22228
-1.87193 -0.345869 1.21948
-1.8568 -0.401361 1.22621
2.37747 -19.6836 -10.0046
-7.59972 -8.97246 0.464967
8.02514 -8.8073 -10.4765
8.27098 -8.63684 -10.5123
8.22245 -8.29727 -9.89418
6.96434 -11.9678 -11.42
8.52457 -8.98228 -9.75072
7.85723 -8.94501 -9.14328
5.85534 -12.8092 -10.7383
9.43725 -8.84351 -9.75506
6.15338 -14.1072 -11.5862
8.29515 -8.68723 -9.03087
8.02551 -9.17774 -9.11707
7.29853 -9.25398 -8.78089
5.91587 -14.1655 -11.2004
7.72565 -9.31473 -8.73233
7.8629 -9.12521 -8.67694
7.13489 -10.5895 -9.09112
6.82621 -11.0827 -9.22744
10.065 -9.20358 -9.57875
6.54531 -11.1851 -8.87199
8.04033 -8.63561 -7.85715
7.36713 -9.28905 -7.87875
8.52408 -8.68948 -8.09102
7.72783 -9.48201 -8.03616
6.49365 -12.7868 -9.36468
7.94076 -9.18942 -7.92117
5.00545 -16.0477 -10.812
-0.474538 13.9336 -8.91473
7.73473 -9.25286 -7.73344
7.34257 -10.8744 -8.35446
8.38571 -8.57416 -7.64081
10.8886 -9.63237 -9.2211
8.99817 -8.82741 -7.90555
11.7811 -10.0463 -9.70334
8.08039 -8.54395 -7.23491
4.043 -16.8487 -10.6195
4.25226 -15.3883 -9.80269
7.85215 -9.36799 -7.32544
3.95446 -15.6354 -9.61719
11.4943 -9.84035 -9.06246
6.87068 -11.0874 -7.74511
7.77798 -8.82614 -6.96904
5.49268 -14.0103 -8.89115
6.49473 -12.7184 -8.3575
8.36969 -8.60232 -6.99444
9.69852 -9.09116 -7.75124
2.79287 -11.8042 -6.95306
5.48601 -13.9161 -8.4695
9.60567 -9.1157 -7.486
6.62372 -11.08 -7.2686
3.34843 -20.6992 -11.7515
8.88785 -8.94822 -7.07012
12.2064 -10.2409 -8.92633
6.82978 -11.0158 -7.22071
4.68797 -14.6265 -8.48849
6.22844 -12.6351 -7.74935
0.895715 18.5921 -10.1324
14.6424 7.73722 -8.99778
4.20818 -14.2571 -8.02855
14.7462 -11.6689 -10.1367
14.997 7.45242 -8.91991
14.0328 7.73171 -8.51265
4.76975 -14.8611 -8.29311
12.096 -10.161 -8.31343
1.81399 -20.4871 -10.5813
11.4276 -9.86209 -7.73338
2.08171 -20.2155 -10.3126
13.9809 -11.0974 -9.02866
0.00363595 14.2799 -7.16752
-7.28347 15.1391 -8.41994
10.6047 -9.61004 -7.19114
7.52119 -9.43374 -6.01112
-8.4897 16.0941 -8.7947
11.6545 -9.78793 -7.36652
10.5048 -9.59437 -6.83163
14.8033 -11.3491 -8.99717
16.7349 15.8529 -10.9508
7.49168 -11.0729 -6.36974
15.0336 7.42814 -7.86753
13.9431 -11.0408 -8.31244
-11.9194 17.0683 -9.53904
15.8587 -12.0164 -9.09008
9.78285 -2.45286 -4.63285
-9.10706 -1.65566 -4.20927
18.7675 18.1101 -11.7672
3.91577 -9.10494 -4.49855
-10.1854 16.6386 -8.76159
-5.34107 4.44151 -3.12389
6.86515 -11.3023 -5.95335
9.43615 -9.09462 -5.78024
16.0407 7.31752 -7.77791
-6.61547 15.0246 -7.17093
1.50154 -18.7558 -8.1381
-11.1425 16.9537 -8.73576
9.58843 -3.3727 -4.35354
7.02446 -11.0566 -5.53764
15.8422 -11.9757 -8.31324
14.67 7.75485 -6.95976
18.8023 19.5622 -11.3389
1.02003 -22.6084 -9.42194
-4.52279 13.8338 -5.99738
-9.9293 -1.11059 -4.14073
14.1077 7.78994 -6.5797
20.5132 22.3137 -12.3537
-13.0577 2.44705 -5.41191
15.1355 7.1913 -6.77676
-5.20758 14.2707 -6.11041
3.63992 -8.81232 -3.79511
13.9574 -11.0207 -6.95013
19.3594 21.667 -11.2702
18.8358 5.80832 -7.64292
1.54113 19.2814 -7.49936
-8.70264 15.6811 -6.91478
11.4117 -10.0618 -5.85212
19.2985 22.3742 -11.3806
0.682576 15.3925 -5.90022
-1.66002 12.7381 -4.9423
2.7146 -12.2485 -4.81353
-8.76684 -1.25213 -3.36609
0.702722 -23.6384 -8.92368
15.2008 -11.6491 -7.22279
9.49713 -3.4654 -3.81355
-14.5244 17.906 -8.59405
-7.89035 -3.50507 -3.16662
1.096 -10.4591 -3.86775
7.03541 -11.2481 -4.85186
14.2165 7.93796 -5.87809
-8.29185 -2.8469 -3.1525
0.789558 15.3038 -5.46387
-3.94133 13.329 -4.91824
5.74216 -10.9961 -4.36569
15.8533 -11.9809 -7.03832
19.1102 5.90222 -7.0363
2.11745 20.6793 -7.28908
21.7123 26.2483 -11.8372
-14.8209 18.2954 -8.08303
2.97308 -13.3465 -4.70646
-8.8555 15.9974 -6.24982
18.5028 -13.1052 -7.77154
-5.02145 14.4274 -5.19558
1.35993 -22.2389 -7.38331
1.7623 19.6559 -6.51879
1.44828 -10.3195 -3.44401
39.2317 -20.0546 -14.4602
6.17246 -10.053 -3.77621
17.5868 -12.4179 -6.89578
2.12209 20.7213 -6.6286
-13.2979 17.7535 -6.99493
1.45079 -22.7182 -7.09295
-4.28695 14.6747 -4.75186
-10.9041 16.5222 -6.00084
-2.74617 -27.9482 -8.53173
3.06496 -9.47195 -3.02573
0.794086 -24.2664 -7.30161
19.1463 -13.5901 -6.96734
17.6252 5.5759 -5.42413
-7.85266 15.2023 -4.98245
4.22991 -10.4965 -3.28914
3.62231 -10.5732 -3.18114
4.24347 -10.9509 -3.29698
-13.2498 17.7105 -6.15389
-9.24278 15.8009 -4.9812
-13.2313 1.9834 -3.6685
-16.8428 19.3513 -6.96724
26.3473 -17.3449 -8.54773
-3.90676 -27.8563 -7.54432
3.78367 -9.14733 -2.64868
-9.75396 16.2149 -5.03797
47.3836 -13.8351 -13.0898
10.5411 -9.40161 -3.73903
-6.41459 14.8529 -4.22766
-14.3499 17.9919 -6.04029
-7.97217 -37.7193 -10.0422
4.95919 -9.57351 -2.7909
6.5611 -10.5005 -3.19452
-7.17201 15.2224 -4.27862
-10.5045 16.3616 -4.9692
-9.84711 -39.0221 -10.0086
-8.99305 -38.8227 -9.73131
10.9502 -9.65297 -3.58962
-7.92696 15.3855 -4.19801
-11.6702 16.963 -4.98535
14.6323 7.72924 -3.92769
4.04626 -9.25163 -2.39004
15.2364 7.5458 -4.00693
3.74653 -8.90814 -2.27187
-6.504 -32.4053 -7.6536
5.6266 -9.88493 -2.63642
44.8554 -10.8549 -10.7268
-12.7478 17.3647 -4.95961
14.8893 7.6253 -3.78463
43.8889 -9.49431 -10.1726
-9.74113 16.2266 -4.23722
3.71421 -9.25234 -2.16926
43.0495 -11.0438 -9.70046
15.1483 7.51505 -3.62113
-10.5854 16.5241 -4.20435
-21.8611 -34.3677 -8.75055
4.82099 -9.7512 -2.34694
45.1506 -10.5718 -9.92186
-14.7178 18.2351 -4.93119
-32.1586 -23.7359 -8.47196
41.7808 -13.9797 -9.32107
14.8739 7.85968 -3.50845
-35.3347 23.8951 -8.723
-8.33205 -34.0802 -7.10495
3.95248 -11.5078 -2.44612
44.6752 -9.63896 -9.29609
11.7879 -9.75752 -3.06903
43.0718 -11.088 -8.86324
-26.8762 20.2814 -6.6837
6.14473 -10.2849 -2.38547
46.0449 -10.7674 -9.23606
-12.7325 17.3729 -4.16335
-26.7493 20.963 -6.60446
16.0805 12.1635 -3.85374
-6.84618 15.0711 -3.17864
-33.0558 -23.9095 -7.80873
-31.565 -24.7175 -7.70464
-35.561 23.6963 -8.04748
-33.5651 -22.1417 -7.59874
18.0474 5.674 -3.53109
-34.0919 -20.57 -7.43589
-14.9855 -43.2046 -8.51921
3.77086 -9.82189 -1.98115
-24.4115 -60.7752 -12.1809
-16.7202 -45.0443 -8.78854
3.97569 -9.63628 -1.88042
13.0807 -10.2213 -2.99397
45.5228 -10.1301 -8.37733
-14.6777 18.2042 -4.17902
-26.8987 21.097 -6.03587
15.1118 7.99945 -2.97811
-30.235 -26.3476 -6.99012
42.9314 -10.9967 -7.60913
-7.89645 15.2121 -2.90411
-9.70166 17.8675 -3.43541
44.7909 -10.5439 -7.78141
-30.6339 22.3137 -6.38095
-30.2195 -23.2492 -6.3727
-20.7334 19.8245 -4.77301
-32.2406 22.7691 -6.58506
15.9416 -11.8945 -3.25963
-10.2883 16.334 -3.07171
-43.2236 25.4341 -7.95693
-31.5901 -23.7316 -6.32539
-33.4262 -23.0563 -6.39561
3.4335 -9.49607 -1.57931
-23.6891 20.2363 -4.81196
16.937 -11.9734 -3.21315
-11.1247 16.6499 -3.04277
46.184 -10.8238 -7.20007
-22.7865 -52.8061 -8.69046
-29.3945 22.0452 -5.49419
-38.2687 23.8614 -6.69417
-31.6107 -24.5374 -5.9701
44.791 -9.59845 -6.82101
-33.702 -24.3736 -6.07728
-49.782 27.7953 -8.19843
-35.5004 -23.6792 -6.14252
6.73833 -12.9311 -2.11755
-36.1816 -21.0289 -5.92272
-6.90892 15.2328 -2.32356
-13.0644 17.6361 -3.05418
-32.0708 23.0896 -5.5239
-24.5314 -54.6325 -8.2582
-16.0791 -47.0049 -6.83237
36.7993 -12.238 -5.3189
-23.1051 20.3037 -4.09295
-32.2394 -24.1437 -5.25853
-30.6021 -25.105 -5.23332
-33.8682 -23.3252 -5.2677
7.45045 -9.43686 -1.55483
42.9858 -11.0034 -5.69383
-33.4164 22.7392 -5.13902
-29.7596 -15.88 -4.29979
6.04289 -7.82596 -1.26306
44.937 -10.562 -5.85263
-30.9998 22.7831 -4.80081
14.525 -11.3162 -2.26233
-29.9285 22.5413 -4.53265
-32.5146 22.9848 -4.79429
-10.3171 16.4091 -2.23979
-31.4866 -22.6456 -4.5631
13.0077 -10.5205 -1.95855
35.8995 -11.8628 -4.37513
6.34795 -10.352 -1.39589
11.2057 -9.71046 -1.67074
16.4702 -12.2628 -2.3141
-11.0277 16.5357 -2.20101
6.76699 -12.6085 -1.56827
11.6141 -9.6989 -1.67583
42.8243 -10.9814 -4.85396
-38.9343 24.276 -4.92448
44.9988 -10.515 -4.9758
14.9377 -11.4705 -2.00385
-12.9136 17.4465 -2.22968
14.7967 7.83172 -1.67309
14.024 -11.0632 -1.78449
-13.9622 17.8571 -2.19872
6.40873 -12.2816 -1.33371
9.41241 -8.92806 -1.25402
17.0428 -12.4618 -2.06071
-28.8663 -13.7938 -3.01391
-14.9365 18.2906 -2.20146
-36.9004 -71.8887 -7.52204
-33.9444 -21.2405 -3.54566
16.162 -12.1107 -1.81757
38.6112 -12.8473 -3.64221
11.1249 -9.88909 -1.23019
43.2334 -11.0499 -3.72193
-16.1766 -42.0961 -3.62257
-39.8186 -77.8601 -6.81259
17.6454 -12.8582 -1.72448
-30.1266 22.8007 -2.88993
7.45229 -9.17996 -0.915334
-32.7951 23.2147 -2.9848
-16.5649 -40.9787 -3.30358
-36.6737 -69.011 -5.55821
-35.5592 -71.2194 -5.45353
12.5873 -10.4754 -1.10239
17.0966 -12.4522 -1.42994
-39.3817 24.5163 -3.03314
43.4901 -11.1345 -2.94698
-28.6651 -13.4791 -1.89702
-40.1892 -77.6441 -5.29519
14.529 -11.3267 -1.11017
31.2316 -20.5739 -2.04398
31.2006 -19.6645 -2.01609
15.3699 7.59089 -0.889452
14.808 7.85209 -0.861806
-12.8364 17.517 -1.10203
-24.6457 -54.3861 -3.06815
-42.1206 -79.3835 -4.38906
9.66452 -9.10211 -0.664107
13.4681 -10.7105 -0.845285
15.997 10.1765 -0.895732
16.2962 11.4221 -0.926586
6.83818 -12.5419 -0.679411
-20.0366 -5.91216 -0.896963
-29.8456 -53.1879 -2.6913
10.2458 -13.8324 -0.703686
18.0826 -13.0402 -0.91124
42.7053 -10.9086 -1.75412
-9.39167 -12.4216 -0.600772
44.2391 -10.3593 -1.78673
22.2498 26.749 -1.1868
-32.7005 22.3538 -1.37282
-36.4922 -20.4633 -1.36204
-18.2085 -45.3799 -1.57142
16.5066 -12.3148 -0.672048
14.405 3.90186 -0.440179
-25.8602 -59.424 -1.94372
-22.7884 20.2997 -0.871797
-12.3289 -37.3847 -1.05882
43.1215 -9.16031 -1.2328
-42.0183 26.1356 -1.33775
-54.4687 19.5861 -1.38663
43.8115 -10.1735 -0.967478
-30.9993 23.4275 -0.776562
-30.4532 9.68632 -0.668131
31.5571 55.2515 -1.16941
-30.2671 22.338 -0.720404
12.9866 -10.641 -0.290967
-34.6614 -21.5706 -0.632866
-30.5613 -61.4623 -1.0221
17.5156 -12.6319 -0.313829
-12.5987 -38.0888 -0.518024
-14.2397 18.0766 -0.234496
-20.0773 -46.1419 -0.547213
30.3186 -18.9896 -0.322727
-22.7789 20.3238 -0.207027
-9.92708 -12.7411 -0.0488366
7.02464 -11.7179 -0.0236531
14.6338 7.65271 0.000556653
-35.6699 -22.026 0.223392
-23.8878 -40.8276 0.348357
-53.5651 29.3435 0.624777
6.69494 -11.8787 0.141256
8.01105 -9.10852 0.121234
-41.2286 -21.9193 0.513301
-11.4807 -32.5127 0.384334
11.109 -9.68384 0.193222
-23.1659 19.7941 0.401362
-12.3995 -19.2383 0.332698
-31.2668 22.2493 0.684011
-35.328 -23.6845 0.761216
-34.8316 -25.7317 0.755642
10.6416 -9.56322 0.233476
7.79343 -9.6066 0.265843
7.8994 -9.22002 0.262
-71.3202 24.6964 1.76485
18.1226 -13.1553 0.545309
-28.7845 -8.64766 0.804552
-28.0477 21.9949 1.02724
11.5911 -9.93078 0.416352
17.2778 -7.48944 0.536258
-25.0638 21.2571 0.979025
-7.91702 -9.28394 0.388368
12.7046 13.8129 0.667556
6.14506 -12.6614 0.495239
8.91227 -8.76989 0.427306
24.5444 -4.34935 0.833779
18.5215 17.6877 0.924953
13.8435 23.9646 1.041
-57.0839 18.7633 2.16385
24.3522 -4.73061 0.939923
-25.5359 20.8598 1.24701
9.38176 -8.9251 0.500672
22.3756 -3.08271 0.853422
12.2077 14.1392 0.764895
14.7589 19.0702 0.98774
6.51912 -12.3603 0.573669
17.8909 41.3515 1.88153
7.6496 -11.0233 0.565679
-7.56391 -7.44572 0.469026
-8.29544 -11.4769 0.632809
-29.6647 -11.7433 1.5197
16.3722 10.6285 0.972985
-7.74059 -7.20226 0.50645
15.263 23.7125 1.45745
-6.96754 -8.20224 0.591704
14.525 19.8899 1.34997
-26.1771 20.1571 1.82747
14.3886 23.433 1.59265
-7.14 -9.20397 0.665739
6.81758 -13.5104 0.868744
9.88877 12.4387 0.940782
14.6785 19.5022 1.53066
14.9747 26.6513 1.88274
10.2996 28.885 1.95087
-7.32095 -9.99221 0.792516
9.46935 21.5799 1.5822
11.4052 10.0325 1.08293
11.4347 12.092 1.17508
13.6716 15.7978 1.49542
8.18516 -12.6174 1.0618
10.7452 8.96955 1.03007
12.8624 14.4265 1.44653
-14.4053 8.49507 1.26495
-11.1494 2.10038 0.85849
12.4002 16.1416 1.58002
11.5439 18.3975 1.68708
10.0867 -6.90288 0.95445
-7.68815 -8.13296 0.895423
12.7216 11.5158 1.39996
11.825 11.5683 1.3735
-7.02089 -6.17733 0.760013
-7.0733 -6.91656 0.820698
11.4363 11.9377 1.42585
10.6116 9.34783 1.28584
-11.4219 2.92472 1.08374
-7.63702 -7.1132 0.937737
11.6111 8.95924 1.40457
9.18278 12.9855 1.52753
7.15961 13.1741 1.46991
8.38532 13.0376 1.55486
-6.7578 -6.7341 0.948408
7.85696 -6.53093 1.0001
9.64755 12.0839 1.55003
9.90385 10.1169 1.46249
-6.89477 -5.41236 0.912278
9.58495 9.12713 1.41126
8.16372 11.0991 1.44455
6.72897 13.0476 1.56445
9.5607 8.34278 1.34339
9.15058 10.1918 1.49238
5.66111 12.4702 1.48284
-6.40116 -7.53873 1.06884
6.65847 11.3327 1.44646
5.21569 13.0687 1.55274
-6.83708 -3.98758 0.874168
-6.70924 -6.08915 0.99836
3.91679 -7.76248 0.962625
5.43535 -6.0895 0.917186
9.32791 7.50923 1.34613
9.03197 9.61198 1.48763
7.88751 11.2343 1.53473
6.74666 10.6474 1.4377
-6.89066 -4.57693 0.938306
4.70306 -7.67352 1.04
-10.6584 7.14512 1.48962
-7.09941 -2.13598 0.862913
8.9848 6.06955 1.29023
5.86005 11.9603 1.57434
4.95081 11.4493 1.47151
4.76816 -5.85666 0.889007
4.10885 -7.87807 1.08049
8.31586 3.85175 1.14892
10.927 5.45026 1.501
4.53157 12.6084 1.66805
-6.16876 -5.39714 1.00545
-9.15535 1.30503 1.15288
8.22701 7.52448 1.41129
-6.44802 -5.32904 1.05819
7.76096 8.15144 1.44725
-6.89755 -3.57851 1.00631
4.96298 -5.96034 1.00144
5.01815 -5.42157 0.963345
8.37165 6.88779 1.43629
7.91174 7.82333 1.48061
-7.21375 -1.72644 0.999605
-7.04141 -2.21269 0.989228
-6.49656 -4.38029 1.04104
4.82512 -6.0822 1.03324
8.35692 6.33364 1.42647
-6.86089 -4.22483 1.08585
-6.05864 -4.45179 1.01131
4.94476 -5.53204 1.01897
7.40402 -3.5167 1.14097
8.33757 4.23299 1.32832
8.30052 4.5612 1.34411
-6.95034 -2.91151 1.07765
7.47117 -3.72888 1.19244
7.01082 -3.0525 1.07877
4.93582 -5.78276 1.09758
8.18178 -1.73124 1.21127
-6.96979 -3.26274 1.14158
7.3626 5.5479 1.38483
5.7269 7.39397 1.41284
7.96139 3.90116 1.35488
7.88251 4.1803 1.35674
5.40656 7.76356 1.43861
5.05075 8.62764 1.51076
3.47403 9.50282 1.52672
-7.01889 -2.83103 1.15402
7.6721 -2.79105 1.25066
7.83634 -2.23321 1.25761
7.78622 -2.01436 1.24286
7.43963 4.19036 1.37702
7.04402 4.73652 1.39504
6.71834 4.89664 1.38255
5.35989 6.423 1.39239
-7.21739 -1.363 1.21639
4.96621 7.29324 1.47287
4.69951 7.19282 1.44257
-7.23215 -0.80562 1.21872
2.86473 -5.92732 1.10995
6.67879 4.07553 1.33699
6.48328 5.20791 1.41244
3.81214 7.88944 1.47086
-6.3888 -2.3042 1.15248
-6.2947 -2.686 1.16739
3.77082 -5.23816 1.09901
-6.98497 -1.79873 1.26066
4.23363 -4.64036 1.10402
6.6473 3.50034 1.35692
5.04036 5.5752 1.37382
3.63087 -5.35863 1.1789
3.34232 6.70222 1.39655
6.48035 3.04092 1.36012
6.4141 2.70838 1.32946
-1.65104 -5.71401 1.14181
-2.17322 -5.76926 1.20201
6.24105 2.37275 1.33478
3.93765 -4.57883 1.20135
-2.99227 5.586 1.35148
-3.61591 5.20157 1.3809
4.20808 -2.92717 1.20507
-4.27376 3.92542 1.41413
4.58706 -2.18727 1.23354
4.47891 -1.26935 1.15771
3.70806 -2.93507 1.23211
3.67801 -2.58424 1.19277
3.42447 -2.97741 1.22487
-2.3219 -3.61783 1.20753
-2.49991 -2.92785 1.19767
1.87094 -2.48998 1.13103
1.93257 -2.648 1.1957
-2.03985 2.79962 1.3128
-2.07226 -1.46422 1.1974
-1.82523 -1.83105 1.30283
-1.97669 -1.17211 1.20987
9.67147 -9.04676 -9.37433
9.23365 -8.9201 -7.65106
2.44641 -20.0607 -10.7325
3.67129 -9.29819 -4.50786
26.6102 33.0596 -14.2518
2.076 20.5743 -6.13143
-22.3857 -31.1822 -7.16722
9.50886 -8.77295 -1.61735
8.75841 -8.63007 -1.23298
8.90888 -8.78687 -0.927668
19.1646 -13.5694 -1.28418
43.5096 -11.6865 -2.33267
-31.454 -13.3028 0.344534
10.0533 6.91915 1.29597
-3.49022 5.31053 1.36513
7.97572 -8.23417 -10.2846
7.83677 -8.26036 -10.0241
8.3684 -8.45832 -9.85437
6.83247 -11.7968 -11.2009
7.96754 -8.22754 -9.0605
8.0075 -8.70659 -9.09126
6.20964 -14.1386 -11.6189
5.86056 -14.1605 -11.2222
9.07854 -8.82555 -9.2827
7.62332 -9.20101 -8.66077
7.85191 -9.10438 -8.59546
7.20964 -10.6829 -9.17127
10.2207 -9.30475 -9.68963
6.4194 -11.0648 -8.7408
8.16498 -9.06652 -8.18219
7.33153 -9.3189 -7.91476
7.95302 -9.19619 -7.99392
5.02839 -15.9503 -10.7891
-0.524905 14.3441 -9.21337
7.29768 -10.7803 -8.35138
7.60313 -9.12978 -7.60235
10.9897 -9.8062 -9.3514
7.0483 -10.9161 -8.09943
8.18734 -8.59513 -7.37499
0.110754 14.3545 -8.74785
7.75769 -8.72509 -7.03462
11.4848 -9.75038 -9.09168
8.97561 -8.90425 -7.4724
6.57291 -12.8357 -8.50751
