ply
format ascii 1.0 
element vertex 1862
comment /media/mkaihara/Seagate Backup Plus Drive/model_iterations/model_2.ply
property float32 x 
property float32 y 
property float32 z 
end_header 
-4.23189 -21.5271 -5.0222
15.1371 -11.76 -4.38315
-23.0602 17.819 -6.6231
-7.65171 -27.5722 -6.47892
46.6805 -10.207 -10.844
-25.6208 18.6099 -7.11689
-28.8242 -18.8865 -7.71723
-3.90219 -18.6402 -4.26118
46.0472 -14.2316 -10.816
6.0361 -10.4698 -2.6862
66.6215 96.5895 -26.1257
-11.5928 2.64864 -2.62211
45.9168 -13.454 -10.5674
48.3428 -13.7907 -11.0559
30.3212 42.7485 -11.5509
-4.66056 12.2538 -2.87656
14.4562 -11.6295 -4.07528
42.7128 -13.7234 -9.85768
46.6121 -12.0866 -10.5288
-20.0722 17.5026 -5.79416
-17.0082 -41.9345 -9.8185
4.88287 -10.966 -2.58842
13.7658 -11.3479 -3.90094
5.12067 -10.3409 -2.479
-12.7344 15.8779 -4.36314
-25.9733 18.8739 -6.87342
-26.6931 18.9497 -7.01549
-15.8488 -42.0544 -9.6336
-15.4352 -42.286 -9.61819
-13.0892 -41.2952 -9.24909
-9.37774 14.6689 -3.70681
-5.61423 -23.8714 -5.22785
3.67164 -11.098 -2.47656
4.55999 -11.273 -2.57655
52.3769 -12.1418 -11.4762
15.0714 7.55444 -3.59359
-13.1818 16.2394 -4.44488
5.74559 -10.0632 -2.42328
31.6209 -11.0792 -7.09971
28.1402 40.7814 -10.4187
45.7446 -15.1569 -10.0437
-32.5264 21.3768 -8.1775
-22.1672 -21.6893 -6.43571
15.1305 7.92362 -3.56608
-24.7498 -19.113 -6.48313
-17.7843 -45.6029 -10.1306
45.729 -12.3046 -9.79158
-16.5609 -39.5064 -8.89382
-10.0663 14.8455 -3.66087
-13.6248 16.1207 -4.31405
-29.25 19.6404 -7.17747
50.542 -11.0225 -10.5498
-8.69504 -27.994 -5.96504
4.73109 -11.1106 -2.44219
4.9515 -11.2611 -2.49107
12.4731 -10.366 -3.29328
-24.0594 -21.7916 -6.5161
-10.5163 15.106 -3.69037
-12.1432 -34.8593 -7.37995
-5.86374 -22.7198 -4.70506
-5.37585 -21.9947 -4.54998
-8.68674 -26.9984 -5.62151
4.66351 -11.3406 -2.41309
5.40279 -8.87729 -2.02344
-27.8258 -19.0242 -6.63963
40.2312 -12.903 -8.33492
-22.7733 17.8814 -5.71682
5.48608 -11.4745 -2.43907
-38.684 24.2766 -8.96025
-27.0191 -19.3243 -6.47004
5.56146 -8.50626 -1.89496
-5.98352 13.2448 -2.83382
-32.8633 21.189 -7.68691
-11.0608 -24.7224 -5.34803
-16.244 -38.1667 -8.05351
-27.5141 -18.3142 -6.36436
3.99871 -10.8653 -2.22042
16.4311 -12.3613 -3.8087
52.5675 -12.1774 -10.3615
-11.1945 15.297 -3.6406
4.59882 -10.7535 -2.21793
-29.7464 -18.0654 -6.58244
-16.0455 -26.0653 -5.81797
-45.453 -97.4706 -20.3101
-10.2096 -29.4668 -5.90408
10.0948 -9.36052 -2.69796
42.7487 -14.0995 -8.50521
-29.8033 20.0227 -6.73831
-27.5214 -19.0041 -6.27737
-26.6372 -19.4864 -6.18974
-13.6362 -33.7836 -6.85382
-11.0841 -30.1119 -5.9537
4.34998 -10.4571 -2.07987
48.4828 -13.0647 -9.32262
6.43873 -10.852 -2.30196
-22.8559 -29.178 -6.70793
-15.7663 -35.7521 -7.14887
-13.1778 -32.7074 -6.37642
10.0837 -9.67821 -2.62189
-42.4045 -89.2903 -17.746
-12.7727 15.9324 -3.63889
-25.2452 -20.3578 -5.75856
-16.1744 -21.5515 -4.81582
-15.2912 -39.9503 -7.5867
-32.302 20.3893 -6.75866
-40.4817 -78.666 -15.5372
-22.8548 17.9526 -5.07744
-20.6183 -17.9305 -4.76493
-42.253 -85.1766 -16.5334
-28.4364 19.4655 -6.00245
4.54819 -11.6632 -2.15648
5.36782 -9.68065 -1.91435
14.115 7.58481 -2.78333
14.2013 8.15399 -2.82506
-25.9403 18.871 -5.51837
14.8952 -11.9533 -3.24186
48.2264 -13.642 -8.53079
47.8186 -12.3824 -8.40853
50.5736 -11.736 -8.89304
-25.4119 -20.1787 -5.49812
-14.4467 -23.6438 -4.71254
-18.2143 17.3556 -4.24396
-23.2911 -19.1827 -5.13731
-13.2099 -32.8361 -5.97687
15.0116 7.52883 -2.83628
-42.1927 -80.7111 -15.2326
-26.6259 18.8572 -5.4692
7.53523 -12.543 -2.44778
17.5561 -13.0685 -3.60096
-14.7917 -35.2619 -6.31286
44.0811 -13.8969 -7.53055
-25.0991 -13.3276 -4.67833
64.556 -22.5344 -11.0519
49.9635 -13.4577 -8.40949
-9.11585 14.4872 -2.77924
-16.6093 -28.4234 -5.3317
-23.0318 -17.2622 -4.61507
-13.2973 -32.9875 -5.66783
-28.3792 -19.5871 -5.42606
-19.6714 17.2912 -4.12058
-21.4964 -13.4755 -4.00498
-20.7804 17.7474 -4.25505
-32.9274 19.9431 -5.98467
-9.87903 14.8001 -2.76474
4.13842 -11.3337 -1.85202
4.59575 -12.1282 -1.99362
-6.69187 13.5914 -2.33003
-26.1611 19.048 -4.96665
-25.8809 -19.9867 -4.96501
-22.5701 -21.1081 -4.67447
-14.3934 -33.4576 -5.54013
10.461 -9.08742 -2.0178
48.1774 -12.5225 -7.56677
51.4465 -11.2064 -8.02432
-5.73509 12.796 -2.1133
-22.6639 -20.1532 -4.50281
10.2234 -5.35711 -1.71591
42.6728 -10.4684 -6.60508
-27.29 -19.6799 -5.00273
-15.2961 -38.6655 -6.15813
9.97489 -9.56886 -2.05335
10.9815 -9.87124 -2.19669
51.7409 -11.9676 -7.88867
-29.7201 -19.781 -5.24564
-25.4585 -20.9953 -4.81897
-45.6556 -86.954 -14.3284
-8.13428 -26.9561 -4.14419
18.4781 -13.3655 -3.33411
-21.778 17.938 -4.12026
-33.1224 20.4367 -5.69797
-15.7549 -35.2952 -5.55997
-51.7801 -94.2718 -15.346
-6.69475 13.4282 -2.16189
-11.1913 15.2714 -2.71807
6.98577 -13.3351 -2.13858
9.08739 -9.49001 -1.92904
7.92333 -12.2994 -2.07633
-11.7697 15.7436 -2.78019
-28.9859 19.5869 -4.93859
-23.2775 -21.5507 -4.46117
7.66783 -12.5177 -2.04173
42.6288 -14.0663 -6.31151
-25.34 -20.3017 -4.52344
-23.5376 -21.3538 -4.41493
-27.5936 19.8374 -4.72846
-23.9769 -20.2929 -4.36484
-13.3426 -32.1523 -4.80073
51.9664 -11.6236 -7.34563
-14.1952 2.66007 -1.99962
-5.99576 13.2816 -2.00731
-13.6573 -35.6372 -5.17574
8.48104 -10.2597 -1.78146
9.96705 -9.81122 -1.92526
-12.3182 15.7397 -2.71372
14.3427 -11.4376 -2.47777
-19.2411 17.5098 -3.51866
48.1935 -12.4586 -6.6098
51.5997 -11.3005 -6.995
-7.1668 13.9696 -2.04557
-7.66761 14.2596 -2.10748
-19.5581 17.2197 -3.42767
-26.6334 -19.926 -4.33593
-13.0836 16.0322 -2.69539
-28.5446 19.0586 -4.47629
-31.9952 -13.5071 -4.47891
-26.8935 -14.3987 -3.91637
7.87667 -11.7094 -1.80303
9.58979 -9.85819 -1.79685
10.7169 8.7816 -1.79956
-27.6867 -19.0769 -4.29424
-26.4674 19.3291 -4.16666
-29.2071 -18.2224 -4.30657
-14.2517 -24.4479 -3.5704
-20.0468 -40.9526 -5.67683
48.0168 -12.4157 -6.2083
-30.2867 -16.9761 -4.24655
-43.0236 -81.7248 -11.4485
7.65957 -11.6809 -1.73778
-6.74338 13.5064 -1.88657
-21.5003 18.0608 -3.45916
-27.942 19.7 -4.23822
7.30165 -13.9904 -1.91108
51.5596 -10.9982 -6.46149
15.2001 7.96821 -2.08405
-12.0558 -29.1932 -3.80098
7.96413 -11.8317 -1.71002
-0.423684 -0.526419 -0.149872
-18.6114 8.25259 -2.42471
-9.20486 -27.8412 -3.44346
-32.2792 -12.8889 -4.09391
-25.9943 -20.0381 -3.82843
-25.4847 -20.3776 -3.80894
48.2391 -12.9198 -5.87086
12.1371 -10.4499 -1.8528
-25.306 19.1951 -3.67562
7.54366 -12.285 -1.64251
8.21782 -10.1147 -1.48689
-14.8778 -35.7368 -4.34581
12.5212 -10.5092 -1.85409
9.79711 -4.77791 -1.23886
15.1779 7.80423 -1.94394
-9.1588 14.5943 -1.96376
-23.779 -10.4967 -2.8641
-27.0042 19.7398 -3.76879
-13.8578 1.98118 -1.54402
44.4609 -14.6341 -5.24796
-31.9197 -20.3255 -4.20345
-41.4079 -75.6587 -9.48956
10.1193 -9.75629 -1.55291
-9.82173 14.7426 -1.94541
7.95629 -14.9681 -1.82459
51.8529 -11.2675 -5.75694
10.7567 8.8451 -1.52175
18.4193 -13.6796 -2.45751
48.5174 -12.5814 -5.37303
10.3923 -9.69862 -1.50418
-22.085 11.3722 -2.5508
-16.6887 8.2252 -1.93395
9.04913 -9.13889 -1.34588
-33.9723 18.4952 -3.96022
-25.2374 -20.1929 -3.35565
-19.1321 -38.3684 -4.45316
-19.1764 -39.8505 -4.49802
15.1935 7.62396 -1.75717
-25.9413 -19.9988 -3.35073
-11.3577 15.4942 -1.97108
-44.5632 -84.0068 -9.57117
-11.3508 15.2174 -1.9075
11.0106 -9.80073 -1.4427
-13.0308 -33.0837 -3.47287
-23.7885 -21.368 -3.08192
7.48781 -14.3349 -1.55482
10.2249 -9.65012 -1.32872
-43.1506 24.0429 -4.79348
18.2607 -13.3574 -2.17077
48.4792 -13.025 -4.81408
-19.1714 -38.7422 -4.08824
-12.7783 -33.5236 -3.39359
-20.1857 17.6637 -2.52919
52.94 -11.7752 -5.07025
10.4979 -9.70783 -1.32248
45.6675 -15.0627 -4.48048
-13.2696 16.2748 -1.92315
-17.1402 8.9125 -1.63378
-25.5105 -11.6287 -2.55207
-20.3821 -39.7268 -4.0928
17.3687 -12.9979 -1.96996
-21.8142 -39.966 -4.11039
9.35508 -9.4518 -1.20313
-29.9988 -17.0109 -3.0118
14.0307 -11.5794 -1.58181
52.4838 -12.1629 -4.61962
10.1794 -9.7726 -1.18526
11.8589 -10.4409 -1.3268
-28.7118 19.7237 -2.9211
18.4891 -13.48 -1.89181
47.1854 -12.159 -4.17871
-25.6832 -46.106 -4.22352
-11.1345 -28.9666 -2.47338
16.0615 -12.5568 -1.62305
-24.8361 -48.5249 -4.29672
-8.29901 -23.2361 -1.94025
-25.3325 19.2685 -2.48407
-27.8066 19.6623 -2.65163
-14.5151 -33.1427 -2.77604
8.40675 -10.287 -1.05813
-40.8978 22.2641 -3.54873
-18.649 17.5586 -1.88575
-28.1344 19.9053 -2.52076
18.0175 -13.4605 -1.64224
48.6465 -13.016 -3.67217
-23.4876 -44.4306 -3.59635
15.2688 -12.079 -1.39141
8.76803 -15.086 -1.12563
-23.6011 -14.6396 -1.90676
-10.4017 -27.5875 -2.02239
8.88963 -16.3446 -1.23461
11.6795 -10.4287 -1.07217
-20.2845 17.7674 -1.84382
14.0276 -11.573 -1.21601
19.8388 -14.3861 -1.6304
-15.0722 -34.7234 -2.48122
17.6581 -13.3546 -1.45953
-19.4965 -38.5136 -2.68997
-9.7451 -27.0135 -1.84532
51.0487 -13.2747 -3.30101
-19.6985 -39.9027 -2.68825
40.2712 -9.76782 -2.54915
49.7029 -11.3741 -3.13616
-24.7276 -11.6207 -1.65438
-23.2396 -44.8807 -3.08569
7.4416 -16.0807 -1.04964
36.3234 -24.0322 -2.59545
-8.72994 14.5869 -1.02055
-10.583 -27.6061 -1.66901
18.3096 -13.6814 -1.28103
-8.38776 -10.8714 -0.752169
15.2226 7.81352 -0.946093
15.1878 -12.0207 -1.03626
-11.4342 15.5024 -1.02853
-11.1375 -27.5968 -1.56538
15.1083 7.94837 -0.857805
-11.003 -28.1219 -1.46559
-12.5338 15.8963 -0.990582
-19.3027 -38.8401 -2.07437
10.3722 -9.7822 -0.654841
-15.1583 -34.7606 -1.69218
13.5638 -11.1494 -0.814023
-10.2167 -28.4662 -1.32617
-11.5242 -28.3838 -1.29418
8.24619 -15.2279 -0.761973
-52.5691 19.1882 -2.33789
-9.03554 -27.5427 -1.21901
-42.0264 22.8605 -1.96228
20.3679 -14.6312 -1.01562
-17.7893 -31.4078 -1.3995
18.5658 -13.7981 -0.899376
-99.3902 44.0393 -4.135
-23.4197 -45.4322 -1.89131
-11.6147 -30.4454 -1.18007
-28.5031 19.5892 -1.28872
49.395 -12.725 -1.84222
-76.7969 28.797 -2.98863
-31.1421 -17.5384 -1.22201
-20.637 -41.0317 -1.50372
-16.3308 -35.7771 -1.29729
21.6558 25.0576 -1.14101
-18.7577 17.5843 -0.861373
9.79602 -17.2881 -0.660356
10.2202 -9.75499 -0.459568
12.3013 -10.8278 -0.533534
20.6437 -14.5947 -0.829258
39.757 -14.9927 -1.41153
24.0356 29.1081 -1.25672
-23.649 -11.8593 -0.823845
-19.9655 17.7858 -0.838575
-26.9797 19.1143 -1.0556
-15.3349 -35.2363 -1.16372
-9.35899 -26.4782 -0.848382
-7.54856 -22.7112 -0.688079
-13.5039 -34.4447 -1.0948
-10.659 -28.8747 -0.862242
-28.3177 -17.1665 -0.870214
12.4361 -10.5485 -0.438276
18.0065 -13.3909 -0.591058
-33.8667 20.9581 -1.07459
-25.8281 19.6584 -0.827595
-26.6709 18.9566 -0.860764
-26.2971 19.2781 -0.795033
10.375 -9.76498 -0.332118
-35.2139 12.1741 -0.839421
-28.4519 -16.859 -0.685281
-16.0797 -25.8601 -0.696677
-21.5448 -36.0733 -0.916506
23.8308 -15.9358 -0.628313
35.5514 -21.5553 -0.932794
-80.3764 35.251 -1.93301
14.4675 4.00116 -0.323189
-74.1945 29.5346 -1.69251
-41.1348 14.8327 -0.871544
32.1918 56.3272 -1.26918
25.9268 -12.0683 -0.506356
55.5973 -12.8 -1.06856
-25.5447 -18.356 -0.560746
-23.6343 -23.209 -0.507555
-12.5446 -30.7768 -0.529835
-9.08132 -25.701 -0.376354
13.8788 -11.411 -0.296929
-22.5307 -10.6554 -0.378012
20.6402 -14.9128 -0.388153
-78.4321 35.1478 -1.23341
-94.0564 40.1057 -1.42814
-25.2906 -11.2383 -0.357598
-26.9259 -20.1476 -0.452701
-20.0362 -40.3716 -0.573057
-17.3953 -37.0105 -0.528985
-27.997 -19.1177 -0.42825
-25.8317 19.6588 -0.407087
18.8191 -14.0513 -0.278613
33.9969 -21.0765 -0.466073
-26.3551 19.3528 -0.388666
-31.3455 -17.5109 -0.390793
-12.9074 -29.5943 -0.322158
-8.1999 -24.6833 -0.244454
-21.836 -38.4655 -0.373334
-12.7841 16.2228 -0.182509
-23.1873 -11.6884 -0.203687
-13.3252 16.2518 -0.167603
-19.8244 17.7092 -0.161148
-21.4876 -41.0388 -0.218749
-18.4788 17.3383 -0.139471
-25.9066 -12.2716 -0.0880467
-9.10667 -11.7053 -0.0481944
15.0068 7.8868 -0.0417798
9.40826 -9.13002 -0.0717767
12.0997 -10.6381 -0.0110092
-78.9648 34.1727 0.0246388
-17.4955 -18.0232 0.0430898
-25.2655 -7.63506 0.0617867
-29.067 -15.9197 0.0624009
-7.74829 -23.0204 0.0966923
18.7532 -13.623 0.0996274
-12.7449 -29.2509 0.16682
20.9127 -14.7325 0.135546
8.48888 -14.5917 0.123688
28.7996 -11.8138 0.187026
40.0716 87.1029 0.61417
25.643 79.3235 0.642804
-45.2058 16.1447 0.439359
17.9484 -13.3001 0.211879
42.4391 -8.66219 0.39859
-25.5515 -7.20252 0.312793
-30.0742 -18.1497 0.402303
-7.87785 -22.5643 0.274391
-43.7756 23.9932 0.583734
-8.77976 -24.3248 0.328081
-7.11826 -21.8755 0.293451
7.81158 -15.9676 0.227647
8.30577 -12.795 0.19923
-24.368 19.1323 0.448964
12.3287 -10.7653 0.242855
-21.0879 18.0391 0.433123
11.8809 -10.6067 0.24665
14.2058 -11.6931 0.287233
41.1035 -8.79398 0.689339
-28.5339 -19.1141 0.640791
16.3462 26.6046 0.545323
30.2806 73.7513 1.40794
-26.799 19.1663 0.621842
7.60972 -15.8998 0.341858
8.10018 -12.7465 0.289067
8.85722 -10.3917 0.263109
8.65355 -8.98129 0.293419
22.5834 35.4304 0.875717
-79.2942 34.0807 1.72443
33.7955 69.6019 1.59549
8.56118 -10.4591 0.30193
10.9996 -9.96101 0.353827
-25.3013 -8.11106 0.643522
-20.4869 17.8863 0.710695
-23.8959 18.8467 0.791318
-25.4378 -7.63586 0.702959
9.98707 -9.66548 0.370951
10.4427 -9.70383 0.384067
-22.2705 18.7746 0.765711
27.4466 -5.55034 0.768714
-80.1555 27.6419 2.36731
-6.90031 -8.74187 0.311912
14.2168 -11.6611 0.544365
16.0247 26.1171 0.905604
-29.3283 20.8021 1.05479
-17.7937 -13.1118 0.702443
7.60926 -15.696 0.547252
8.63402 -13.4578 0.499438
18.2061 48.7251 1.57227
-56.1045 24.8217 1.88431
-25.0981 -7.07617 0.858167
-10.4362 -15.9769 0.639973
37.7744 84.0086 3.03638
-24.7816 -7.74303 0.900983
16.6399 11.3912 0.703506
-25.3296 -15.6937 1.05397
17.1432 29.8023 1.18351
-25.9577 -14.1557 1.10658
25.2419 -4.55586 0.915029
-23.5267 -16.7303 1.08324
-6.53842 -7.12695 0.365089
9.83552 -9.58917 0.50558
12.7812 13.9838 0.703389
32.1291 66.3741 2.71062
33.029 70.3826 2.84192
27.1393 79.5899 3.12807
-35.8633 -18.4746 1.67555
-10.3772 -8.21176 0.523558
9.47573 -9.41474 0.523134
-22.4114 18.4662 1.15316
23.1695 -3.13724 0.934564
14.8727 24.297 1.13912
-24.5952 -14.9371 1.19056
10.2242 -9.69259 0.572479
12.8802 14.8355 0.817391
7.92196 -15.0012 0.717461
15.7829 20.5104 1.1039
23.1476 31.9864 1.68285
-8.15184 -11.8521 0.638795
-8.43418 -13.1896 0.703333
8.6619 -12.4829 0.665619
9.37703 -9.47212 0.596789
25.9554 -3.97383 1.17297
16.4477 44.2805 2.05262
-26.2369 -7.64378 1.25112
7.81813 -12.851 0.688014
-7.4308 -7.31026 0.491294
25.8367 52.1748 2.71963
-24.3826 -15.0671 1.36698
-8.41354 -11.8009 0.696433
10.4848 -9.72596 0.668144
18.1743 22.2232 1.31536
18.6155 51.8132 2.60108
-26.2201 -11.6121 1.37706
-6.02736 -7.3463 0.46843
17.4588 40.6136 2.20343
-25.9349 -10.1542 1.40443
-6.8796 -6.32389 0.471841
-6.01178 -6.81314 0.459822
18.2144 33.0069 1.91173
22.5674 32.0403 2.04049
10.7242 12.5424 0.866571
15.0396 20.4711 1.33036
10.1512 -9.69329 0.746256
15.6831 20.4101 1.38768
16.6163 25.6696 1.64518
-24.1745 17.0248 1.59659
-6.2259 -7.31468 0.533735
-23.2081 17.8112 1.60133
7.54585 -15.931 0.981755
-6.28981 -8.10414 0.587229
10.1224 12.6453 0.927416
16.3105 27.4903 1.82737
7.92663 -15.9187 1.01908
14.9297 24.3633 1.65089
-7.42127 -7.29226 0.628088
11.6916 11.7764 0.964834
15.5402 20.673 1.52018
-6.49406 -8.78871 0.683081
8.09548 -12.8987 0.922938
12.2587 -10.5716 0.97578
6.88696 -12.6224 0.886204
-6.53083 -6.03433 0.55514
15.2957 21.707 1.64559
16.5506 7.34941 1.15424
2.32966 6.89137 0.504801
-6.41009 -5.59809 0.557473
7.98437 -16.607 1.22293
10.2622 23.1777 1.67598
10.5515 12.7223 1.10454
14.2131 19.1164 1.62964
13.1513 21.8114 1.7284
11.5465 12.1996 1.15394
7.45805 -11.1197 0.941527
11.7422 12.0137 1.19084
10.3948 -7.33521 0.897246
12.6472 12.2447 1.26758
10.6821 -9.01842 1.01706
-5.96905 6.47166 0.641738
10.4962 9.24464 1.02849
12.4322 18.5934 1.65199
12.0155 19.1477 1.67205
-6.22965 -6.90264 0.722392
11.4101 19.6978 1.71511
10.3231 -9.71668 1.08872
10.7153 14.3866 1.37953
-5.93055 -3.9713 0.560068
9.65345 19.3439 1.69699
10.6762 -7.3029 1.02736
12.6976 11.7835 1.37541
9.47289 10.468 1.08021
10.2698 19.9438 1.77505
-6.40811 -8.49804 0.870829
7.50417 -10.475 1.04113
12.4793 11.9406 1.39019
12.36 12.1593 1.41455
11.6222 12.1503 1.36695
-4.23872 -9.67498 0.895556
10.4985 13.1375 1.40528
-6.34289 -5.54006 0.725025
-6.18195 -6.07031 0.732125
-4.40107 -9.65396 0.909087
-6.56714 -6.96666 0.826173
9.88396 -7.72165 1.07535
-6.37953 -7.21721 0.845146
-6.30738 -6.91093 0.824571
9.50111 12.6856 1.38006
-6.20325 -7.4685 0.870034
10.9148 9.15982 1.27636
10.7055 13.7895 1.55108
10.5902 9.30362 1.26805
7.92318 14.3809 1.48442
-5.7924 -7.25019 0.852791
-6.11554 -7.98795 0.932184
11.352 10.9508 1.43143
11.3806 9.28669 1.35208
11.0242 10.9591 1.43332
6.71503 15.5153 1.56243
-10.825 2.77579 1.03773
-5.88616 -3.85672 0.656667
-6.19884 -5.73107 0.782912
9.60443 13.5473 1.57625
-5.86037 6.36956 0.837079
8.44467 -7.00815 1.06042
8.07592 13.4663 1.53457
-6.3588 -6.85054 0.943755
9.41758 11.7771 1.49679
7.10166 12.6089 1.44445
7.19308 13.2507 1.51238
9.58639 9.14432 1.34906
6.03047 14.3728 1.59056
9.32639 12.6834 1.61662
-5.63236 -4.10753 0.72876
6.11128 14.0401 1.58815
6.33549 13.8784 1.57894
-6.44552 -4.09175 0.814689
8.77601 9.02872 1.32053
9.20277 10.2531 1.47551
7.39194 11.0981 1.42611
5.90295 11.6221 1.39435
-5.65475 -6.65045 0.956412
10.3102 6.48126 1.3275
9.00038 8.14752 1.31717
7.37588 11.7905 1.51201
6.92929 11.775 1.48714
5.45843 12.1143 1.4554
4.99572 12.4077 1.47372
4.79116 13.9354 1.5967
9.89346 7.07553 1.33777
8.79239 9.347 1.4119
5.45527 11.6675 1.42769
-6.20262 -6.09366 0.969089
6.91276 10.7883 1.42071
4.50576 13.7306 1.61022
10.0263 -3.28239 1.16452
-5.57974 -4.9463 0.863046
7.70513 -6.46567 1.13185
10.4476 5.73468 1.34754
-6.98208 -0.929759 0.801051
-5.73002 -4.90243 0.867597
5.573 -5.89676 0.924176
5.13474 11.7727 1.46931
-6.35754 -4.2086 0.882023
4.93588 -8.04174 1.08013
10.4479 5.17057 1.34908
8.89429 7.89505 1.37523
-5.54051 -4.0298 0.796706
-5.94918 -4.83482 0.905178
4.64711 -8.92466 1.18456
5.31564 -6.25701 0.97412
10.1945 4.76906 1.33068
10.9616 11.0936 1.84002
8.51555 8.27017 1.41662
-5.27035 -3.4467 0.775623
5.3232 11.5942 1.53459
9.03524 6.26082 1.32628
8.00157 8.32813 1.42562
-5.93023 -5.24922 0.986289
4.21021 -8.5909 1.1855
8.65379 6.67414 1.35433
-5.928 -4.89594 0.97299
9.08431 6.01034 1.37122
8.16087 7.12184 1.36175
8.09106 7.48724 1.38706
6.09271 -5.63395 1.05439
-6.44853 -4.10706 0.980067
8.09313 7.99124 1.45434
-6.9589 -0.983179 0.902317
-6.4796 -2.64262 0.910438
8.96756 4.09931 1.27344
8.38339 6.61485 1.38203
5.35512 -6.45297 1.09104
5.28723 -6.65399 1.1141
7.1228 -4.43685 1.10564
-6.72381 -1.61686 0.922277
-6.58748 -2.08358 0.919548
-5.56108 -4.07905 0.920849
8.11141 6.63989 1.40125
8.59126 4.43164 1.29987
8.61301 5.15746 1.35249
8.00336 7.1168 1.43754
-6.3307 -3.46894 0.978106
8.8523 4.15705 1.32073
8.23635 5.81446 1.36142
7.63143 5.81032 1.28829
-5.9161 -4.00046 0.976031
-5.49248 -4.16942 0.940833
5.3376 8.99207 1.42336
3.67444 10.154 1.47893
-6.96756 -1.03086 0.969912
-6.41059 -3.64368 1.02159
5.26277 -5.89016 1.08011
5.53161 -5.70669 1.09166
7.68111 -3.63695 1.17656
3.42403 10.2558 1.4945
8.38111 4.58836 1.33337
7.59919 -3.78671 1.19253
7.79345 -3.4224 1.20139
7.97026 -3.39114 1.21691
8.9479 2.81959 1.33341
5.15217 -6.0012 1.12512
7.52873 -2.9181 1.16307
-6.49209 -3.07629 1.04472
8.10264 -2.84134 1.23931
8.82472 -1.85096 1.31018
4.98197 8.52631 1.43712
2.9883 9.53395 1.46684
7.86097 -1.91645 1.17934
7.18423 5.72189 1.34939
3.46053 9.56407 1.48301
3.21734 9.87691 1.51938
-6.97206 -0.984231 1.03864
-6.65692 -1.90091 1.02765
6.90639 6.25164 1.38706
-5.88522 -2.13188 0.935547
-6.83782 -1.2961 1.04567
7.90379 4.79756 1.39011
5.66199 7.29426 1.38111
5.24756 7.564 1.38109
5.01352 7.94268 1.3998
6.93408 -3.30546 1.14943
7.43371 -3.20246 1.22706
7.81075 -2.81544 1.25251
-6.93356 -0.691797 1.0584
-6.68146 -1.83722 1.06544
6.95971 -3.16729 1.17006
4.06045 -6.25663 1.1404
-6.63512 -1.95022 1.08037
-6.94869 -1.03103 1.0979
7.31223 4.74411 1.35827
-6.79825 -1.36056 1.0984
-6.87117 -1.2267 1.11511
-6.6794 -1.89732 1.12536
7.01605 4.72804 1.36269
-6.68625 -1.82902 1.13483
6.9595 4.83093 1.38873
6.55096 4.80598 1.33746
5.13896 6.16114 1.31739
4.61868 7.08555 1.39293
3.78778 7.85535 1.42984
-6.84806 -1.29475 1.15885
3.08606 -6.36795 1.17779
7.09186 4.39867 1.38767
6.4567 5.19269 1.37914
4.15274 -5.74378 1.18169
4.18975 -5.33654 1.13542
-6.87472 -1.1812 1.1786
-6.18506 -2.45802 1.12638
7.384 2.83718 1.32466
6.98017 3.86487 1.34191
-6.00704 -2.57546 1.10933
6.71807 4.06556 1.33014
5.85568 -3.62301 1.17255
-6.99931 -0.981111 1.21735
-5.9741 -2.14037 1.08768
5.71429 -3.76186 1.16663
5.50151 -3.89926 1.16928
3.55864 7.07837 1.37449
-6.41284 -1.63374 1.15821
4.69839 -4.67961 1.15412
-6.71934 -0.863782 1.20182
4.94447 -4.65919 1.18948
4.27057 6.402 1.3541
6.53107 3.44612 1.31609
6.56857 3.65207 1.33249
-6.08578 -1.41492 1.11951
3.87408 -5.70792 1.24095
5.00602 5.53249 1.34732
-5.78856 -2.05044 1.12225
3.65805 -5.51777 1.21708
3.34661 6.68076 1.37906
-1.43084 -4.88143 0.973901
6.39467 2.7123 1.30485
-1.846 -4.93758 1.01966
6.25708 2.7744 1.30066
-2.45939 -4.74362 1.05156
-3.52291 5.34714 1.37581
4.39773 3.82903 1.3128
4.26026 -2.94923 1.19304
4.70826 -2.21977 1.24327
4.1296 3.23625 1.28183
3.81359 -3.008 1.24297
-3.76724 6.67265 1.9379
3.95522 2.53394 1.2946
-1.25857 -3.6009 1.07555
-2.09551 -3.23131 1.09841
3.79914 2.32695 1.27306
-2.85268 3.51522 1.34927
-2.27082 -2.66784 1.09085
-2.17468 -2.68503 1.09458
1.90402 -2.88463 1.19855
1.92441 -2.85713 1.22724
2.04599 -2.57873 1.20922
-2.04293 2.8073 1.31538
2.80364 -0.551714 1.24069
2.7772 -0.33272 1.21988
-1.94589 -1.50565 1.13146
-1.94045 -1.35339 1.15837
-1.72434 -1.66153 1.19226
-1.87188 -1.05908 1.13171
-1.86609 -1.00297 1.15843
-1.83373 -0.826737 1.16195
-1.82419 -0.666454 1.15581
-1.82359 -0.660125 1.18206
-1.80786 -0.442387 1.16013
-1.77835 -0.325258 1.15961
-1.76209 -0.377621 1.16499
10.0566 -9.14374 -9.17571
2.18607 -17.7329 -9.02177
-6.74563 -7.96145 0.41391
8.0943 -8.85995 -10.5308
8.30766 -8.65167 -10.5248
8.28335 -8.33746 -9.93602
6.97083 -11.928 -11.374
8.64083 -9.0831 -9.85169
7.96107 -9.03903 -9.23143
5.84223 -12.7098 -10.6478
9.59137 -8.9699 -9.88608
6.09715 -13.8974 -11.408
8.43256 -8.81085 -9.15063
8.1593 -9.30714 -9.23636
7.42509 -9.38767 -8.89793
5.88231 -14.0012 -11.0634
7.8765 -9.47194 -8.86965
8.0089 -9.27109 -8.8063
7.23303 -10.6975 -9.17492
6.92466 -11.1998 -9.31506
10.3082 -9.41035 -9.78313
6.65312 -11.3241 -8.97195
8.2208 -8.80986 -8.00669
7.55312 -9.49898 -8.04593
8.71653 -8.86733 -8.24769
12.1181 -10.3801 -10.4177
7.93668 -9.71483 -8.22201
6.578 -12.893 -9.43224
8.14421 -9.4032 -8.09502
10.781 -8.79986 -8.89175
4.87278 -15.493 -10.4367
-0.430556 12.436 -7.95497
7.93564 -9.47038 -7.90491
7.53155 -11.1196 -8.53106
8.61094 -8.78771 -7.82121
11.205 -9.89744 -9.46415
9.22171 -9.0294 -8.07773
12.1825 -10.3756 -10.0088
8.331 -8.79285 -7.43472
3.87776 -15.9857 -10.0772
4.15911 -14.91 -9.49555
0.0872513 12.6702 -7.69525
8.10066 -9.6432 -7.52938
3.82933 -14.9828 -9.21601
11.9017 -10.1766 -9.35994
7.0731 -11.3755 -7.93422
7.98079 -9.03526 -7.12566
5.51691 -13.9835 -8.86613
6.61737 -12.9001 -8.46648
8.61813 -8.84112 -7.17931
10.0187 -9.37726 -7.98451
2.82132 -11.788 -6.93625
5.62806 -14.1953 -8.62551
9.95312 -9.43214 -7.73455
6.82594 -11.3778 -7.45234
3.06057 -18.6308 -10.5871
9.1825 -9.22923 -7.28214
12.681 -10.6268 -9.25061
7.03919 -11.3151 -7.40554
4.70144 -14.555 -8.43901
6.39121 -12.9066 -7.90415
0.769129 16.3254 -8.8987
14.5103 7.6749 -8.93541
4.23375 -14.2226 -8.00067
15.419 -12.1892 -10.5751
14.9017 7.41171 -8.88157
13.8993 7.66531 -8.45034
4.75058 -14.6845 -8.18856
12.5677 -10.5444 -8.61645
1.6608 -18.2617 -9.44179
11.8987 -10.2568 -8.03181
0.140366 9.72456 -4.88514
1.91029 -18.1218 -9.25343
14.6804 -11.6429 -9.45858
-0.00558191 12.5572 -6.30168
-6.38076 13.2775 -7.38663
11.0504 -10.002 -7.4733
5.28954 -13.0397 -7.06982
7.875 -9.85923 -6.26931
8.86921 -8.4158 -6.00189
17.8457 5.55667 -9.13228
-7.40089 14.044 -7.67732
12.2113 -10.2466 -7.69946
10.9614 -9.99946 -7.1093
15.5538 -11.9144 -9.4325
16.5153 15.6662 -10.8428
7.89087 -11.636 -6.67855
14.9877 7.41153 -7.86202
14.5899 -11.5411 -8.67832
-10.3633 14.8528 -8.30617
16.6964 -12.6399 -9.5495
9.90809 -2.48237 -4.6921
-8.49065 -1.54146 -3.9391
18.7825 18.1452 -11.8174
4.12824 -9.55069 -4.7062
-8.86504 14.4958 -7.63798
-5.06513 4.22295 -2.9809
2.4161 -19.6949 -8.92245
7.25945 -11.9196 -6.26313
9.85433 -9.48554 -6.01919
13.3688 -10.6089 -7.48191
16.0581 7.33122 -7.80497
10.451 -9.21397 -6.09715
-5.7739 13.1306 -6.2699
-11.5686 -85.7436 -37.9116
1.40467 -17.021 -7.39093
-9.6902 14.7576 -7.60999
9.76265 -3.43184 -4.43127
-8.71826 -1.62513 -3.82193
7.44573 -11.6914 -5.84099
16.6905 -12.6051 -8.73948
14.6098 7.73002 -6.95036
18.7301 19.5136 -11.3384
10.3695 -9.76629 -5.90534
19.6605 -14.0653 -10.1297
0.905238 -19.1085 -7.97763
-3.94573 12.0881 -5.24253
-9.25064 -1.03196 -3.87176
14.0395 7.75902 -6.56699
20.7201 22.566 -12.5277
-12.0928 2.27027 -5.02647
-12.6479 -78.3296 -32.4179
15.148 7.20247 -6.8007
-4.5343 12.4456 -5.33153
-0.798601 -16.4099 -6.74638
-7.10591 -71.6732 -28.7548
3.89382 -9.38129 -4.0268
13.0069 -10.768 -6.6023
14.7868 -11.6677 -7.34645
19.2291 21.555 -11.2412
-8.1356 -1.00442 -3.12805
19.082 5.88871 -7.75978
1.30513 16.5863 -6.45501
-7.60549 13.721 -6.05672
-11.8371 -67.6606 -26.5432
8.82705 -8.77847 -4.71343
12.0028 -10.5725 -6.13961
19.2621 22.3653 -11.4077
0.575948 13.2802 -5.09143
-1.42802 10.9632 -4.25185
2.71056 -12.0745 -4.74268
-8.2101 -1.17069 -3.1661
2.84563 20.1263 -7.71544
-16.3332 -80.1568 -31.01
0.613483 -19.2313 -7.27734
16.1904 -12.4004 -7.67605
9.69038 -3.53394 -3.89073
-12.5847 15.5274 -7.46113
-1.70756 -21.983 -8.28907
-7.32593 -3.25352 -2.95335
-10.0931 -64.7731 -24.1563
1.05933 -9.80523 -3.63293
7.50766 -11.9752 -5.15168
14.1802 7.92427 -5.88265
-7.72046 -2.64942 -2.94834
-1.84706 -19.279 -7.00432
0.663932 13.1292 -4.68858
-3.41026 11.5579 -4.26694
6.16193 -11.7641 -4.6564
16.9159 -12.7765 -7.49379
19.408 5.99852 -7.16335
1.84438 18.2329 -6.43845
22.1881 26.8573 -12.153
-8.74054 -1.26467 -3.03049
-12.8279 15.8479 -7.0116
-33.7436 -89.9582 -33.0183
3.06223 -13.5902 -4.78364
-7.72185 13.967 -5.46433
-33.2465 -93.6418 -33.911
19.9272 -14.1079 -8.35263
-4.33591 12.4808 -4.49834
-9.36191 -63.5011 -21.6816
14.7547 -11.8802 -6.34429
17.1862 7.7018 -6.25443
1.14879 -18.089 -6.02147
1.46997 16.645 -5.52467
1.43467 -9.99387 -3.3373
44.4548 -22.7166 -16.3606
-51.0813 -90.1003 -33.4158
-35.601 -92.9414 -32.2443
-2.60032 -19.3582 -6.31646
-8.78097 -1.12682 -2.96472
6.61435 -10.7484 -4.02581
18.9243 -13.3572 -7.40522
1.75496 17.3822 -5.56494
15.2627 -11.887 -6.09772
-11.5501 15.4341 -6.09168
27.542 -14.9712 -9.8597
1.18959 -17.9616 -5.62578
-3.64946 12.5169 -4.05611
-9.54365 14.476 -5.2684
-1.94816 -20.0904 -6.15599
3.32531 -10.2085 -3.24891
-33.188 -91.259 -29.1975
0.648244 -18.5807 -5.61018
18.5497 10.7263 -6.36059
-17.7552 -76.6643 -23.5361
20.8418 -14.7896 -7.56843
17.8746 5.65886 -5.51791
15.6273 11.4566 -5.62488
-6.86749 13.3149 -4.37307
4.61354 -11.3994 -3.5585
-31.1867 -88.0832 -26.485
3.98163 -11.559 -3.46323
-8.45923 -1.23094 -2.42598
4.6752 -12.0138 -3.60188
-11.5433 15.4431 -5.37834
-7.3092 -36.4245 -10.2172
-8.10971 13.881 -4.3872
-12.2872 1.84567 -3.41971
-14.5214 16.6966 -6.02443
29.2303 -19.2353 -9.46339
-24.3969 -86.3323 -24.0714
-2.69578 -19.3458 -5.26194
4.17519 -10.0568 -2.89927
49.8653 -16.1875 -14.0258
-8.52961 14.1969 -4.42235
33.9727 -16.1424 -10.0263
54.2317 -15.831 -14.9736
-20.4697 -24.1816 -8.38037
-53.0168 -97.87 -29.2886
11.2382 -10.0183 -3.97674
-5.57148 12.9239 -3.68753
-12.4881 15.6708 -5.27414
-21.9656 -29.8843 -9.67769
-5.31018 -25.1925 -6.72457
-45.6543 -100.47 -28.6112
5.4798 -10.5573 -3.0646
7.14515 -11.4162 -3.46135
-6.25237 13.2917 -3.74614
-9.20379 14.352 -4.37115
19.2322 -13.6956 -5.80872
-52.6325 -98.9065 -27.8902
-6.54657 -25.9829 -6.67911
51.4292 -13.029 -13.1574
-43.0838 -98.4478 -26.2345
-22.3656 -64.4023 -16.6045
-5.90005 -25.5165 -6.41195
11.7312 -10.3378 -3.83657
22.894 30.4011 -9.24838
-6.92759 13.4662 -3.68554
-10.2161 14.8643 -4.38191
20.4277 5.62386 -5.13842
14.7265 7.78351 -3.97283
-21.3319 -32.0724 -9.19144
-40.6387 -89.9498 -23.462
4.49381 -10.2441 -2.63448
15.3055 7.58634 -4.04477
4.19595 -9.94722 -2.52428
-4.43148 -22.1435 -5.24543
6.21252 -10.8973 -2.89471
16.1286 -11.741 -4.653
50.8878 -12.3122 -12.1674
-11.152 15.205 -4.35696
-19.2268 -52.1367 -12.9085
-25.8504 -77.7068 -18.8817
14.9844 7.67908 -3.8286
49.5748 -10.7224 -11.4906
-8.53465 14.2342 -3.73021
-6.4863 -23.2094 -5.35884
-25.1322 -21.7274 -7.2505
-19.9605 -49.0484 -11.4975
4.25405 -10.5704 -2.46367
48.7497 -12.504 -10.9827
15.2646 7.57774 -3.6687
-9.28905 14.5165 -3.7077
-16.5418 -26.0045 -6.61974
-15.4351 -42.6605 -9.83046
-11.3627 -35.5099 -8.03813
5.42003 -10.9441 -2.62119
12.7925 -10.5226 -3.62909
10.103 -9.54714 -2.92511
51.3796 -12.0283 -11.2899
-12.8433 15.9252 -4.32207
-26.251 -19.3732 -6.91105
11.1775 -9.71429 -3.23971
47.4633 -15.8772 -10.5819
14.9839 7.92271 -3.55461
-21.0151 -49.95 -11.2692
-29.2886 19.8133 -7.24939
50.1366 -13.9654 -10.5474
-5.59949 -22.9324 -4.79249
4.51373 -13.0862 -2.76637
7.77948 -8.56452 -2.33522
50.7295 -10.9433 -10.5568
8.09996 -9.21571 -2.41065
12.6722 -10.4873 -3.2925
48.871 -12.5787 -10.0551
-22.9876 17.3545 -5.73569
-28.4156 -17.9774 -6.64317
-22.5092 -21.4573 -6.14849
-7.94086 -24.8588 -5.19229
6.873 -11.4933 -2.65399
8.00068 -8.36945 -2.3264
52.6769 -12.3163 -10.5661
-11.1834 15.2723 -3.67595
-22.8117 17.8851 -5.65161
-14.4775 -34.1151 -7.16118
16.2879 12.3281 -3.93005
-5.96668 13.1578 -2.78779
-31.4825 20.2679 -7.17549
-26.9409 -19.4836 -6.35834
-25.6732 -20.1011 -6.26074
-29.5194 19.6773 -6.69962
-27.5713 -18.1851 -6.2364
18.4194 5.79447 -3.622
-28.1865 -17.0045 -6.14292
-9.94797 -28.6887 -5.65978
4.38127 -11.3831 -2.2816
-14.958 -37.24 -7.46027
-11.0728 -29.8346 -5.82198
17.7737 -12.9916 -4.00755
4.56758 -11.0457 -2.14303
14.0629 -10.9855 -3.21272
52.0031 -11.57 -9.57112
-12.8672 15.9701 -3.68331
-22.9625 18.0174 -5.17248
-44.8156 -87.2156 -17.3755
15.2357 8.07051 -3.02313
-24.448 -21.3024 -5.64526
-41.8203 -84.2634 -16.2896
-15.5988 16.8361 -3.97072
48.8658 -12.5149 -8.6607
-6.97167 13.4488 -2.58267
-8.36431 15.4238 -2.98079
-23.5831 -19.4878 -5.28321
51.1983 -12.0503 -8.89545
-25.8122 18.8097 -5.39662
-24.8557 -19.1208 -5.23546
-15.4898 -26.1608 -5.10004
-18.0027 17.2217 -4.16473
-27.0757 19.1288 -5.55022
-38.218 -21.5617 -7.17975
17.3037 -12.9069 -3.53097
-9.06863 14.4135 -2.72704
-35.2272 20.7346 -6.5048
-25.8827 -19.4417 -5.17558
-27.392 -18.8912 -5.23383
4.05693 -11.1927 -1.84863
-20.4359 17.4654 -4.17158
-11.901 -13.3534 -2.76569
18.4876 -13.068 -3.50067
-9.8103 14.6974 -2.70307
53.1492 -12.4542 -8.28738
-22.6818 -20.1931 -4.55598
-14.788 -34.2693 -5.6317
-24.9462 18.7162 -4.6834
-31.6741 19.7562 -5.56081
-25.7763 -20.0055 -4.86029
51.1755 -10.9646 -7.7964
-27.4405 -19.8418 -4.93974
-39.7091 22.1776 -6.56002
-28.9591 -19.313 -5.00214
7.85659 -15.0638 -2.45228
-29.7585 -17.292 -4.86388
-6.05839 13.3782 -2.05648
-11.506 15.5446 -2.71037
-26.956 19.4147 -4.66392
-28.8802 -13.7211 -4.42692
-22.4862 -19.2827 -4.07772
-15.8183 -35.2241 -5.31348
-10.2748 -30.0375 -4.36224
41.4845 -13.7939 -5.99431
-19.9867 17.5714 -3.56166
-13.0539 24.5911 -3.69127
-26.3696 -19.745 -4.2923
-24.9404 -20.4576 -4.25626
-27.7517 -19.1096 -4.30753
8.18721 -10.3666 -1.70315
49.1648 -12.5832 -6.51385
-28.1243 19.1446 -4.34619
-25.2985 -13.4968 -3.65128
6.59756 -8.54208 -1.37572
51.6386 -12.1352 -6.72808
-26.1853 19.2521 -4.07666
19.4326 -14.0954 -2.9927
15.7979 -12.3054 -2.45586
-14.1649 16.2103 -2.59551
-25.4524 19.1759 -3.87643
-27.3949 19.3725 -4.06085
-52.694 -93.5899 -12.9727
-9.15874 14.5802 -2.00894
-25.9119 -18.6323 -3.74668
-14.2256 -34.2299 -4.30074
14.0897 -11.3932 -2.1178
40.4205 -13.3547 -4.92565
7.19872 -11.7345 -1.57513
12.1048 -10.4874 -1.80198
18.0301 -13.4217 -2.52814
-9.79499 14.7001 -1.97578
-13.8794 -30.8377 -3.71992
7.90603 -14.7211 -1.81992
12.5465 -10.4759 -1.8078
49.0619 -12.5791 -5.56331
-32.2963 20.1432 -4.10644
51.8297 -12.1092 -5.73463
16.2723 -12.4927 -2.17887
-11.4503 15.4803 -1.99842
-39.0677 -73.2923 -8.50212
-12.9987 -20.7486 -2.45235
-18.1907 -37.908 -4.20776
14.9609 7.92326 -1.71238
-13.2026 -33.4894 -3.6322
15.2667 -12.0415 -1.93924
-12.3264 15.7763 -1.96271
7.55445 -14.4702 -1.56121
10.1573 -9.63235 -1.35176
18.6933 -13.6661 -2.2558
-24.8386 -11.867 -2.58976
-13.2044 16.1788 -1.96811
-22.3952 -43.6234 -4.5383
-39.0842 13.9593 -3.76146
-28.1345 -17.6022 -2.92929
17.705 -13.2646 -1.98727
44.082 -14.6657 -4.15811
-49.3027 26.1341 -4.59398
12.0589 -10.7172 -1.33182
49.7482 -12.7131 -4.28625
-10.9374 -28.4622 -2.43716
-23.1471 -45.2461 -3.92926
19.4699 -14.1861 -1.89882
-25.631 19.4049 -2.48167
8.23162 -10.1399 -1.00903
-27.7472 19.6475 -2.54826
-11.2507 -27.8256 -2.23081
-15.7958 -36.1327 -2.82897
-22.6032 -42.5241 -3.3961
-21.2608 -42.5682 -3.23107
13.6914 -11.3925 -1.19777
18.7819 -13.6771 -1.568
-32.7288 20.3809 -2.54358
50.1883 -12.8474 -3.40503
-24.7396 -11.6309 -1.63273
-23.5987 -45.5797 -3.07523
15.8654 -12.3664 -1.21068
-10.2904 -20.5733 -1.13594
36.5772 -24.092 -2.38337
36.2567 -22.847 -2.3337
15.611 7.71397 -0.92429
15.0165 7.96665 -0.895008
-11.4626 15.6509 -1.00679
-15.8465 -34.9594 -1.94899
-9.10922 -24.7808 -1.29651
-23.2701 -13.4368 -1.26902
-24.4734 -46.1077 -2.51343
10.4773 -9.86629 -0.720527
14.6663 -11.6615 -0.919998
16.3132 10.3825 -0.937452
16.7287 11.7284 -0.976807
8.16646 -14.978 -0.805057
-47.906 17.5735 -2.22851
-18.0609 -5.32677 -0.810881
-20.294 -36.1629 -1.80298
11.8245 -15.963 -0.806492
20.0125 -14.4301 -1.00644
49.2643 -12.5819 -2.02899
-8.13086 -10.7516 -0.519093
51.1998 -11.9872 -2.07434
24.1163 29.0087 -1.33275
-27.8822 19.0655 -1.19395
-55.8085 21.2576 -2.06801
-30.3561 -17.0199 -1.12121
-12.1172 -30.1948 -1.02488
18.1624 -13.5477 -0.738457
19.6692 -13.8393 -0.753332
14.642 3.96855 -0.464299
-15.7548 -36.1829 -1.15598
29.1305 48.1688 -1.60183
-19.9363 17.7653 -0.786443
-8.18562 -24.8124 -0.687477
49.6132 -10.5372 -1.42659
-34.6266 21.5448 -1.12702
-14.8856 2.06713 -0.317366
-44.49 16.0019 -1.15028
-25.6819 -11.6348 -0.597059
-31.1051 -18.668 -0.824969
-17.5322 -29.2392 -0.72187
50.7047 -11.772 -1.12709
-4.11451 8.85329 -0.189069
-26.3739 19.9387 -0.685498
-26.9606 8.57889 -0.605471
38.6665 67.7788 -1.52425
-25.9207 19.1365 -0.641134
14.1602 -11.6005 -0.318353
-27.0881 -14.2739 -0.396405
-28.7926 -17.9155 -0.512541
-19.1079 -38.4122 -0.605883
19.3281 -13.9364 -0.346082
-14.2878 1.80464 -0.196055
-8.39463 -25.3743 -0.327181
-12.7804 16.2293 -0.234436
-81.7754 35.11 -0.986024
-23.5172 -11.0733 -0.304661
-15.1512 -33.3665 -0.388845
-13.3806 -30.7413 -0.340015
-45.8416 16.0794 -0.591315
-8.25964 -22.2437 -0.141951
35.291 -22.101 -0.370403
-20.0283 17.8742 -0.206404
-8.59836 -11.0332 -0.0391897
8.19477 -13.6687 -0.0270391
14.8654 7.77732 -0.0205877
-27.3094 -15.793 0.135532
-29.6222 -18.2894 0.200159
-17.2222 -29.4262 0.276804
-43.2858 23.7147 0.478485
-21.3688 -6.74194 0.13589
7.87713 -13.9737 0.165849
8.79072 -9.99346 0.129698
-33.9608 -18.0526 0.438226
-8.05987 -22.8213 0.288038
12.0688 -10.5186 0.206574
-20.4057 17.4405 0.329242
-10.3053 -15.9896 0.286382
-26.8983 19.1454 0.563502
-29.1589 -19.5462 0.644843
-28.5111 -21.06 0.636638
11.5713 -10.397 0.250352
8.63984 -10.6485 0.291228
8.69187 -10.1433 0.28441
-55.7168 19.2978 1.35889
-20.9764 -12.1146 0.611217
-23.4833 -14.9627 0.665448
20.1342 -14.6132 0.604419
-25.3326 -7.60845 0.711075
-24.3535 19.1021 0.866296
-49.5911 18.7829 1.42487
12.6171 -10.808 0.449354
18.4448 -7.99296 0.565342
-21.9057 18.5835 0.830097
-7.02253 -8.23276 0.345699
13.0455 14.1861 0.658157
-23.5295 -16.7363 1.01049
7.52761 -15.5085 0.604405
9.67516 -9.5187 0.458889
26.3409 -4.66516 0.883027
19.5038 18.631 0.941152
14.9875 25.9537 1.08815
-71.9173 25.6687 2.78111
-46.8362 15.3973 1.75773
26.1732 -5.08209 0.998698
27.1506 37.1779 1.77733
-22.3809 18.2867 1.06759
-26.1149 -13.3657 1.16246
10.1797 -9.68219 0.53813
23.7579 -3.27051 0.893453
12.5537 14.5419 0.759036
15.6221 20.1879 1.01195
-25.2918 -12.0959 1.14417
-26.5564 -14.6108 1.22753
-9.45987 -14.1114 0.707507
7.83319 -14.8505 0.686374
20.4918 47.434 2.09663
8.71378 -12.5554 0.640704
-17.9034 -7.66306 0.887308
-6.82446 -6.71596 0.422853
-7.21749 -9.98355 0.55465
8.63574 -9.07366 0.46953
17.9453 21.8061 1.21794
-25.8709 -10.2396 1.33198
16.893 10.9682 0.978964
-7.00084 -6.51182 0.457606
16.4999 25.6421 1.53714
-6.21763 -7.31732 0.528943
15.334 21.0042 1.39128
-23.0293 17.7368 1.58272
15.5274 25.2958 1.68106
11.5603 19.5733 1.24131
-23.5571 -11.4778 1.47911
-6.32966 -8.15873 0.592312
8.36755 -16.5804 1.06234
10.0519 12.6453 0.931124
-22.0448 -10.0339 1.42026
15.5568 20.6725 1.58871
16.4311 29.2566 2.02481
-12.9996 1.78063 0.843261
-30.3388 -12.9407 2.04744
11.6282 32.6374 2.16083
-6.42337 -8.76483 0.698719
10.4119 23.7224 1.70483
11.5835 10.1898 1.07658
11.6636 12.3354 1.17339
14.283 16.5042 1.53279
9.51972 -14.672 1.23007
10.8389 9.04944 1.01699
13.248 14.8622 1.46217
-13.5013 7.96432 1.16973
-10.5431 1.98891 0.802238
12.8895 16.7806 1.61305
12.0709 19.2431 1.73301
10.6851 -7.30969 1.00265
-6.89586 -7.29272 0.804926
12.9721 11.7454 1.40262
12.0518 11.7921 1.37507
-6.39621 -5.62559 0.691775
-6.40406 -6.26029 0.743412
-12.4407 1.76439 1.02955
-6.24427 -7.90425 0.87114
11.6646 12.1775 1.42927
9.63918 -7.57161 1.05891
14.1635 11.4721 1.65028
10.7074 9.43412 1.275
-10.8133 2.77148 1.01577
-6.92529 -6.44891 0.851166
-11.8202 2.18884 1.06843
11.7571 9.07354 1.39985
9.33539 13.2034 1.52756
7.32603 13.4773 1.47884
8.54462 13.2854 1.55912
-6.12258 -6.09933 0.859955
8.32803 -6.91918 1.05071
9.78717 12.2606 1.54777
10.0036 10.2199 1.45416
-6.32265 -4.96099 0.835681
9.65236 9.19212 1.39905
8.23886 11.2015 1.43431
6.86522 13.3096 1.5712
9.56391 8.34896 1.32252
9.22942 10.2803 1.48225
5.76084 12.6859 1.48473
-5.73761 -6.7553 0.960209
6.73423 11.4587 1.43941
5.34099 13.3774 1.56542
-6.34074 -3.69548 0.808118
-6.10941 -5.5424 0.909292
4.46472 -8.83988 1.08469
5.8214 -6.51842 0.971586
9.35412 7.5314 1.32922
9.0855 9.66991 1.474
7.95905 11.3364 1.52506
9.67897 -7.9317 1.36422
6.78651 10.7088 1.42328
-6.36188 -4.22318 0.864562
5.23768 -8.53941 1.14664
-10.1588 6.81186 1.40491
-6.67241 -2.00479 0.806234
8.98908 6.07349 1.27141
5.92389 12.0887 1.56774
5.00087 11.5606 1.46314
-6.15382 -4.72906 0.935896
5.11094 -6.27247 0.941668
8.8285 8.95603 1.47463
4.65991 -8.92561 1.21229
8.30731 3.84881 1.13027
11.0239 5.49963 1.49492
4.69114 13.0385 1.70234
-5.64168 -4.93354 0.919203
-8.70596 1.2436 1.08791
8.20857 7.50901 1.38756
-5.90872 -4.88095 0.96934
7.7518 8.14217 1.4245
-6.41904 -3.3276 0.933826
5.31758 -6.38105 1.0613
5.32446 -5.74763 1.01048
8.35436 6.87488 1.41321
7.89821 7.81065 1.45725
-6.7981 -1.62422 0.937087
-6.61619 -2.07634 0.925145
-6.00468 -4.04616 0.960696
5.19023 -6.53704 1.0994
8.33223 6.31649 1.40259
-6.35378 -3.91 1.00391
-5.58893 -4.10414 0.931539
5.26014 -5.87982 1.07192
7.61887 -3.61552 1.1619
8.3204 4.22574 1.30761
8.283 4.55281 1.32302
-6.50059 -2.72039 1.00466
7.70517 -3.84255 1.21759
7.18249 -3.12388 1.09278
5.27208 -6.17134 1.15994
8.31218 -1.75563 1.21718
-6.50332 -3.0417 1.06252
7.31123 5.51048 1.3562
5.67919 7.33082 1.38075
7.93091 3.88802 1.33195
7.84682 4.16314 1.33265
5.36471 7.70108 1.40686
5.02127 8.57417 1.48069
3.46755 9.47713 1.50195
-6.56943 -2.64703 1.07697
7.8513 -2.85316 1.26695
7.98786 -2.27334 1.26866
7.92543 -2.04743 1.25169
7.40879 4.17359 1.35327
6.99012 4.70142 1.36596
6.66166 4.85598 1.35236
5.29768 6.34694 1.35657
-6.81871 -1.28496 1.14438
4.91288 7.21236 1.43669
4.64041 7.09983 1.40417
-6.85357 -0.760674 1.14942
3.17245 -6.54751 1.21153
6.62398 4.04302 1.30813
6.42031 5.15796 1.37994
3.77356 7.80341 1.43505
-6.00231 -2.16206 1.07917
-5.89684 -2.51347 1.09055
4.03621 -5.59826 1.1618
-6.58474 -1.69296 1.18431
4.46284 -4.88546 1.14989
6.59517 3.47414 1.32875
4.97027 5.49625 1.33557
3.89843 -5.74345 1.25028
3.30054 6.60977 1.35861
6.43014 3.01874 1.33232
6.36596 2.68962 1.30249
-1.38897 -4.81578 0.969994
-1.87034 -4.96909 1.04174
6.19575 2.35716 1.30827
4.14727 -4.81454 1.25027
-3.02545 5.64336 1.35447
-3.60457 5.18365 1.36469
2.55435 -2.31196 0.770577
4.32075 -3.00033 1.22225
4.68055 3.88961 1.4149
-4.2051 3.86301 1.38117
4.6637 -2.21942 1.23915
4.51403 -1.27572 1.15162
3.8147 -3.01326 1.25146
3.76366 -2.63838 1.20461
3.52684 -3.05902 1.24489
-2.09404 -3.26254 1.09286
-2.28752 -2.67721 1.0981
1.92806 -2.54941 1.14364
1.98921 -2.70732 1.20855
-2.03937 2.80012 1.30783
-1.93378 -1.36395 1.11903
-1.68726 -1.69165 1.20897
-1.85204 -1.09558 1.13537
6.9109 -6.9012 -8.85836
9.88941 -9.23422 -9.55837
8.62556 -8.22246 -7.8623
9.51055 -9.17217 -7.8574
2.25269 -18.1063 -9.69527
14.377 -11.8475 -8.87852
3.83349 -9.64973 -4.66802
-17.0437 -88.0575 -35.5427
-25.1167 -73.5299 -27.4447
27.2681 33.9301 -14.6746
-16.0865 -94.8826 -32.2325
13.8076 -10.3313 -5.59401
1.68895 16.9921 -5.06727
27.3504 -11.3146 -8.26843
-38.1073 -96.7988 -27.5916
43.1244 -17.2982 -10.5863
-17.3395 -24.1498 -5.54737
-22.8959 -21.2906 -4.81316
10.2183 -9.42483 -1.73552
9.46367 -9.32348 -1.33076
9.63894 -9.5051 -1.0033
21.2738 -15.0609 -1.42224
50.374 -13.5282 -2.70478
-27.1266 -11.4703 0.304182
10.0736 6.93581 1.27838
-3.49072 5.30881 1.35334
8.02762 -8.26635 -10.3179
7.90259 -8.30837 -10.0746
8.47539 -8.54696 -9.94887
6.83865 -11.7566 -11.1549
8.82427 -8.20778 -9.4963
8.08753 -8.33227 -9.16699
8.13371 -8.82244 -9.20325
9.67763 -9.01797 -9.97196
6.1385 -13.8954 -11.4141
5.81888 -13.9746 -11.0684
9.25241 -8.97667 -9.4323
7.76603 -9.34848 -8.78988
7.99707 -9.2491 -8.72294
7.3243 -10.8159 -9.27554
10.4852 -9.53055 -9.91312
6.53404 -11.2175 -8.85074
11.1562 -9.69821 -10.0069
8.38957 -9.29678 -8.37829
7.51556 -9.52789 -8.08131
8.14608 -9.39729 -8.15871
4.88736 -15.3749 -10.3989
-0.475155 12.778 -8.20578
7.47322 -11.0046 -8.514
10.6794 -9.79467 -9.37272
7.80474 -9.34939 -7.77479
11.3005 -10.0678 -9.59046
7.22397 -11.1508 -8.26235
8.42114 -8.82361 -7.56088
0.088958 12.7292 -7.75475
7.95901 -8.93104 -7.192
11.8757 -10.0695 -9.37755
9.28161 -9.19351 -7.7037
6.68289 -12.9911 -8.6006
5.51643 -13.8965 -8.77265
8.55045 -9.24508 -7.26772
7.25242 -11.3745 -7.72509
5.13601 -12.8128 -7.73844
9.14778 -9.27431 -7.29413
2.9793 -17.9267 -10.1891
6.82676 -11.4168 -7.43525
8.11326 -9.33273 -6.91847
12.6704 -10.6013 -9.22064
-0.444855 12.8326 -7.04922
10.0679 -9.84854 -7.70622
15.0335 -11.7541 -10.3799
13.8643 -11.104 -9.56282
14.9439 10.2453 -9.75582
14.9692 7.36162 -8.93152
13.7372 7.58144 -8.31563
11.8838 -10.2439 -8.04569
-0.0677575 13.5596 -6.86269
2.18188 -17.6111 -8.96999
11.1102 -9.94777 -7.48705
16.2912 -12.13 -10.3675
7.67282 -9.67217 -6.17704
14.8142 -11.7397 -9.49956
19.0151 -13.5844 -11.3507
18.8184 5.81478 -9.58622
2.43054 -17.5171 -8.59529
13.3758 -11.0363 -8.36914
16.2508 -12.3637 -9.88721
17.088 -12.7002 -10.3421
7.65773 -11.2611 -6.54034
8.74127 -8.80353 -5.7782
14.9792 7.34915 -7.78251
-8.44159 -1.39431 -3.93896
7.43183 -11.4024 -6.32578
6.55201 -11.1584 -5.97439
10.137 -2.54173 -4.80501
18.3878 -13.4247 -10.4425
-10.225 14.6896 -8.16478
3.70631 -9.39503 -4.56131
-8.85705 14.4931 -7.63905
16.0191 7.25143 -7.88607
12.7323 -10.5557 -7.33902
17.1338 -13.5329 -9.58374
-9.72925 14.8147 -7.65113
-6.5665 6.38123 -3.95692
-6.04719 6.04501 -3.65335
1.16597 -14.5341 -6.19872
18.4417 -13.1501 -9.55324
20.0313 20.7815 -12.1521
17.1601 -12.9579 -9.02526
15.1567 7.45509 -7.07667
13.7017 -10.8486 -7.27667
-5.34598 5.72094 -3.12757
-9.36956 -1.01984 -3.92787
-11.1183 -77.9888 -32.6086
20.1527 21.9644 -12.2814
5.60938 -5.35639 -3.16602
14.0659 7.77827 -6.56078
16.462 7.42147 -7.27295
15.0079 7.72923 -6.79025
-7.39881 -73.0288 -29.2881
-8.72693 -72.4995 -29.0437
17.4261 16.177 -9.38596
-11.0685 -74.9977 -29.6733
1.39099 -16.2536 -6.37466
9.0013 -9.09489 -4.97156
18.9545 5.8527 -7.69453
19.3937 21.6771 -11.288
0.64645 14.021 -5.39443
-8.61297 -1.24649 -3.38558
-12.7924 -73.2883 -28.5649
2.88727 20.3503 -7.78992
0.617918 -19.5424 -7.45376
-15.9355 -78.6819 -30.3101
17.9878 -13.2945 -8.35159
-7.27564 9.30344 -4.32639
-11.732 -74.1886 -27.5931
4.95639 -9.41846 -3.82085
14.1427 7.90405 -5.87561
-1.81649 -18.4424 -6.70868
0.471233 -18.152 -6.41813
2.0297 19.4856 -6.84947
-3.49063 11.7603 -4.3074
-9.2334 14.2051 -5.93988
-0.633215 -17.6606 -6.23578
5.26205 -6.57966 -2.9397
-12.9158 15.9505 -7.10956
-7.72756 13.9757 -5.48908
-28.5289 -81.7146 -29.8238
-4.32763 12.3486 -4.41572
-11.2852 -75.4534 -25.7294
16.6936 7.49753 -6.10199
1.06684 15.0375 -5.02763
-4.61981 12.3313 -4.34661
-55.7415 -99.8984 -37.9126
43.8678 -22.5324 -16.2579
9.26517 -9.10694 -4.13903
10.4776 -9.2467 -4.45557
13.2842 -10.9819 -5.54317
8.53205 -9.76453 -4.14339
15.5814 -12.1883 -6.32505
18.3046 16.9456 -7.76111
7.87935 -9.34813 -3.77399
-3.60022 12.1426 -3.81474
12.2922 -10.4201 -4.8538
16.1939 -12.0338 -5.99423
23.61 30.018 -11.5559
-35.0568 -95.342 -30.5037
-3.3366 -21.1075 -6.42412
22.5781 -16.0473 -8.2189
15.2239 9.58804 -5.17457
14.6331 -11.4218 -5.3158
-4.72581 12.6227 -3.80065
-11.6318 15.6238 -5.51014
-22.3789 -72.9673 -21.5075
-47.5954 -59.0878 -21.1331
19.2553 5.31387 -5.55798
15.8296 10.7064 -5.28745
25.0493 32.481 -11.349
-17.7117 -68.7893 -19.5384
-3.41595 -19.9666 -5.62074
16.1915 16.4718 -6.38129
50.5396 -16.1656 -14.3148
-58.5177 -98.7576 -30.8391
-8.36142 14.0682 -4.36146
-22.8275 17.6884 -7.55693
-20.3123 17.072 -6.87957
-63.0269 -100.139 -30.6416
-46.1688 -96.6169 -27.8546
-57.0194 -100.942 -29.7675
-6.19558 13.1722 -3.73269
-47.4065 -93.6537 -26.6619
33.7552 -15.2081 -9.50493
-38.9489 -94.583 -25.6576
49.1176 -12.2274 -12.6597
-8.87213 -1.04383 -2.21888
-31.9356 -82.7269 -21.8341
-6.90052 13.4086 -3.68917
-22.0778 17.4314 -6.87114
-12.7671 -16.7782 -5.1576
-4.22945 -11.8562 -3.20395
23.6509 31.3128 -9.5064
-2.75385 11.2972 -2.78851
-10.2154 14.8364 -4.31942
-22.9669 -51.3586 -13.5907
-46.2244 -96.1554 -25.2549
3.4767 -10.6194 -2.62838
14.8739 7.93974 -3.9999
-26.7042 -20.9613 -7.95712
6.03322 -12.9755 -3.35486
57.1165 -13.7724 -13.6522
-4.74918 -23.288 -5.47893
-8.48862 14.2527 -3.80606
15.199 7.45269 -3.85415
9.01901 -7.99795 -2.75049
-25.223 18.3461 -6.94108
-7.86761 -28.1823 -6.43732
4.27073 -10.7616 -2.53418
48.2747 -12.2295 -10.7568
-28.344 -18.6136 -7.22302
-15.5529 -37.3963 -8.64014
-12.8323 15.9357 -4.26535
14.7382 7.87795 -3.49066
-25.9114 -19.6038 -6.68431
10.0053 -9.90112 -2.9124
8.33138 -9.13301 -2.46532
49.3277 -12.5381 -10.4393
52.7419 -11.1834 -10.8825
10.1822 -10.5333 -2.85894
-24.1123 18.1042 -5.96542
-11.9689 -17.5008 -4.22405
-15.8373 -25.7408 -5.93951
-8.02611 -25.1834 -5.21406
6.1135 -11.4779 -2.48033
5.881 -8.8289 -1.95702
-26.9433 -19.4632 -6.27892
-28.2225 -18.6202 -6.30878
-15.6426 -32.9562 -6.90963
19.2929 5.99027 -3.73723
-14.8544 -36.9866 -7.39188
-6.75636 -27.3946 -5.23954
-12.8607 15.9984 -3.74576
14.7296 -11.4665 -3.33087
15.5251 7.6167 -3.06689
-4.55141 12.1705 -2.29876
-16.0256 17.1567 -4.16924
-19.4016 -43.3509 -8.42535
-44.7142 -90.3315 -17.4624
-14.1676 -33.7354 -6.3763
-16.6899 -26.9226 -5.46121
-28.2527 19.1476 -5.80828
-16.3181 -27.7729 -5.48485
9.86795 -9.70432 -2.34382
-6.78956 12.9114 -2.44059
-43.8088 -83.4949 -15.6204
-26.0778 19.0037 -5.27071
-26.1067 -19.6127 -5.20762
-12.4792 -33.2096 -5.66291
48.7582 -12.3777 -8.02493
-35.8114 21.1576 -6.57385
-38.6248 -73.9225 -13.1192
-30.0903 -18.8353 -5.49716
7.34049 -12.3832 -2.23753
-23.5483 -20.9875 -4.75842
-24.8383 -20.3774 -4.80824
-33.7517 -60.7921 -10.3261
-13.0069 -32.0404 -5.1316
7.56123 -14.4709 -2.42367
-26.9607 -19.3866 -4.7452
-25.2945 -19.9089 -4.56042
-26.9167 19.2784 -4.65065
-25.9271 -14.5713 -4.15759
-11.417 15.4267 -2.63119
-26.6911 -19.9518 -4.50376
-24.4209 -21.0071 -4.36416
-49.8654 -94.295 -14.3956
-44.1186 23.7503 -6.67766
-21.752 -20.0996 -4.03211
-26.4617 -16.4544 -4.08569
-27.5404 -18.9805 -4.40385
-28.0026 18.9999 -4.2847
-10.5083 18.8804 -2.79076
-25.7571 19.1774 -3.94776
-33.4083 19.7396 -4.78973
14.0458 -11.3541 -2.11473
10.4952 -9.82473 -1.65104
-24.4591 -11.1569 -2.93063
11.3648 -9.94002 -1.6613
-11.5262 15.5941 -2.06295
-14.1546 -31.3521 -3.6629
16.5081 -12.6919 -2.21911
-25.2345 8.8131 -2.67293
-52.881 28.0021 -6.07048
-25.2239 -19.9452 -3.25126
53.1763 -11.2997 -5.43972
18.8447 -13.7477 -2.29212
48.8235 -13.1204 -4.77023
-20.0279 -41.0731 -4.0293
-20.1094 17.6037 -2.36341
-24.9021 -11.1729 -2.36838
