ply
format ascii 1.0 
element vertex 1862
comment /media/mkaihara/Seagate Backup Plus Drive/model_iterations/model_69.ply
property float32 x 
property float32 y 
property float32 z 
end_header 
-37.6663 23.6396 -2.42403
-9.56662 -12.5407 -0.840232
-16.176 -41.0564 -2.38764
-14.4603 -40.979 -2.33061
-28.5872 -16.7451 -1.73202
-17.6084 -43.1612 -2.44706
-15.1192 -41.8719 -2.33472
-28.0265 -13.6842 -1.61431
37.8851 -8.08658 -1.99704
-42.856 -81.6985 -4.54171
17.8956 -12.8845 -1.07153
-27.7995 -13.9504 -1.48144
-16.7796 -41.6066 -2.06934
-26.5605 -16.4906 -1.34713
-37.7843 23.7335 -1.608
43.8286 -9.45919 -1.53464
-31.0231 -14.2407 -1.04421
-27.9275 -59.9713 -2.03804
-13.111 -38.083 -1.2425
-32.516 -24.515 -1.22069
-26.6963 21.7862 -0.930872
35.8982 -8.52928 -1.00022
-35.623 -22.1338 -1.02622
-35.2718 -22.3087 -1.01441
-35.3235 -70.2339 -1.80236
-19.2345 -43.9459 -1.01594
-35.565 -22.3088 -0.794608
16.8761 -12.3531 -0.402507
-35.0486 -22.1636 -0.568254
16.9989 -12.4464 -0.242678
13.0734 14.8728 -0.205902
-34.1936 -22.8064 -0.399009
11.1241 -9.61002 -0.132287
-36.389 -21.1347 -0.350918
-28.9335 -8.70683 -0.12563
-29.5845 -9.48983 -0.0848498
11.4893 -9.93737 -0.0032293
-13.0215 -20.0448 0.0348662
41.9896 -9.31399 0.13118
9.08627 -8.8831 0.103879
15.057 -11.5026 0.15187
11.3182 -9.78227 0.139295
13.2714 -10.6664 0.178672
18.1157 -12.9987 0.216352
-27.85 -13.4931 0.341301
-33.6723 -22.3726 0.464483
-35.1009 -18.8452 0.453018
-36.0583 -22.2059 0.527007
-13.6971 -20.7929 0.286268
-12.8866 -20.2222 0.31788
-13.3716 -20.0301 0.34496
14.9916 -11.498 0.278608
-30.3714 -13.1417 0.583232
-36.8398 -19.8421 0.808867
-14.1881 -22.2625 0.525257
-30.5379 -13.3955 0.704892
-36.1953 -20.1526 0.84418
18.1559 -13.0321 0.467004
10.4917 -9.22612 0.298425
10.3989 -9.23265 0.345353
-8.23206 -9.76654 0.360767
10.519 -9.26433 0.416173
13.5021 -10.7844 0.534759
10.3611 -9.44549 0.460999
13.2134 -10.6492 0.560092
-9.28303 -13.1024 0.597201
10.5025 -9.46168 0.527155
13.207 -10.5829 0.667507
-30.4819 -17.0062 1.41148
-32.3918 -18.7329 1.52187
9.53526 -9.10808 0.55721
-29.2685 -17.4754 1.4932
22.257 44.1245 2.19258
9.60206 -8.94139 0.582272
10.4685 -9.37248 0.666801
12.2749 -10.25 0.747855
-6.16373 6.63512 0.448117
-6.88716 -8.17764 0.535716
-7.14747 -9.27422 0.576727
-28.4711 -11.2313 1.60424
-6.84537 -8.47995 0.562898
11.8651 11.7109 0.886295
16.4039 24.4945 1.56608
15.8383 23.983 1.51107
8.87811 -8.62689 0.664779
8.66105 -8.56954 0.670748
14.6586 25.1489 1.61845
-28.8035 -8.63834 1.67718
-7.54262 -8.03805 0.619852
10.3821 -9.36886 0.803911
-6.77508 -8.22183 0.638425
-6.73525 -8.46132 0.650433
-7.57736 -7.97309 0.68252
-6.91223 -8.24493 0.673682
9.54818 -8.87826 0.816627
10.461 -9.35868 0.880854
10.4544 12.222 1.04688
-7.35019 -9.5222 0.79345
12.4516 18.9042 1.52839
12.9749 20.7113 1.64539
9.14524 22.746 1.7069
-7.11 -8.31676 0.759394
-7.11318 -7.63106 0.74159
9.51059 -8.84836 0.92213
11.3177 11.8984 1.21672
11.7371 16.6851 1.53511
12.5351 11.4675 1.30634
12.8093 11.4092 1.33684
12.2157 11.5188 1.30775
11.9941 11.6468 1.32421
-7.23128 -9.39636 0.939866
11.5599 11.8967 1.33609
-7.37413 -6.14423 0.758937
-7.06947 -8.11081 0.866212
-6.77018 -8.31726 0.863888
-7.28034 -6.25537 0.764907
9.24562 -7.57641 0.990741
-7.37214 -8.11687 0.913157
-7.4042 -9.91133 1.03386
-7.29722 -7.88504 0.903656
9.18428 -6.95812 0.97575
11.6029 11.8729 1.41193
-6.36311 -4.3375 0.659553
-7.08736 -8.37168 0.945343
-6.84346 -8.42243 0.964154
8.98433 -6.85223 1.00804
8.20623 -7.1258 0.977332
5.93159 -5.90629 0.772994
10.7825 11.0608 1.48012
-7.03507 -5.73556 0.866754
10.7407 9.28059 1.37998
-7.16888 -5.72021 0.894648
7.73213 -6.56588 0.998314
11.0326 9.79945 1.4592
10.8893 9.06432 1.4235
9.55656 11.4976 1.49758
-6.51014 -6.50534 0.922719
-6.87571 -4.51763 0.833301
-6.98206 -7.32155 1.02515
10.7488 9.06363 1.45494
10.1027 9.43161 1.41726
9.27192 10.087 1.43189
-6.86038 -4.45804 0.862174
-7.14368 -5.67762 0.975928
-7.11497 -5.71743 0.97476
-6.92086 -4.63119 0.909198
-7.06588 -5.50698 0.973972
8.66743 10.2484 1.49151
-6.89906 -3.43123 0.86367
-6.97225 -4.34995 0.916629
-6.84549 -3.49125 0.863249
-6.88864 -3.57564 0.870311
-6.89491 -4.23412 0.910322
-6.91603 -4.40504 0.925636
-6.91599 -4.49077 0.928349
8.72632 8.79407 1.40334
-6.95361 -3.85421 0.911989
-6.91813 -4.07165 0.909777
-6.91761 -4.15537 0.917488
5.84776 -5.77458 0.949873
-6.93038 -3.41691 0.900464
-6.94155 -4.37327 0.952114
-6.91113 -4.44486 0.95374
-6.90469 -2.83032 0.875105
-6.88623 -3.61766 0.910773
-6.97113 -4.13567 0.953865
-6.91756 -4.20447 0.948563
8.49915 8.03884 1.38835
-6.92039 -2.98331 0.909211
-6.89867 -3.97087 0.956008
-6.88177 -3.6567 0.946253
-6.92555 -4.12751 0.987385
-6.91136 -4.31125 0.998676
-6.47213 -5.36122 1.0275
6.00317 -5.95225 1.03306
-6.91015 -3.75289 0.97497
-6.90846 -3.91763 0.986539
-7.01448 -4.7421 1.05634
-6.93788 -4.38935 1.03614
-6.8702 -3.47935 0.975707
-7.08174 -2.17094 0.946672
-6.88734 -3.08325 0.968103
-6.90606 -3.16086 0.977285
-6.14764 -5.48876 1.07397
-6.9272 -3.2313 0.999594
-6.38236 -4.3642 1.01867
-6.79927 -3.78516 1.03134
-6.88635 -4.18574 1.06935
-7.05285 -2.13571 0.984482
-7.00306 -2.33643 0.993393
-6.90962 -3.26732 1.02108
-6.90889 -3.54028 1.03933
-6.91655 -3.3944 1.05249
-7.0342 -2.16185 1.02271
-6.93283 -3.18039 1.05615
-6.90272 -3.26405 1.05571
-6.8504 -3.65064 1.07151
-6.90631 -2.9462 1.04958
-6.87174 -3.41137 1.07085
-6.88705 -3.75537 1.10356
-6.93622 -3.23683 1.08253
-6.00534 -4.49207 1.06715
-6.89089 -3.5854 1.11572
7.67969 6.33421 1.43909
5.19041 8.32304 1.41905
-6.89458 -3.49361 1.11913
7.29694 -3.52103 1.17612
-6.88657 -3.27996 1.11302
-6.88305 -3.39172 1.11911
-6.86678 -3.20112 1.11469
-7.16782 -1.75399 1.08774
-6.9182 -2.94267 1.11662
-6.92366 -3.03008 1.1211
7.11876 5.60434 1.40296
-6.37816 -2.28543 1.05116
7.05255 5.16588 1.39533
-7.01577 -2.41136 1.19355
-6.46423 -2.82105 1.15052
3.78106 7.92386 1.44751
-6.31176 -2.26209 1.11315
-6.48072 -2.29032 1.17097
-6.14987 -2.28059 1.14257
2.55523 7.3867 1.48263
7.82935 -8.51946 -10.1706
7.95679 -8.80234 -10.3849
7.68874 -8.74628 -10.1333
8.18769 -8.31965 -9.99928
6.93835 -11.4607 -10.9779
8.13975 -8.26701 -9.51952
6.94209 -11.8757 -11.1693
8.01762 -8.4041 -9.23138
7.96249 -9.15685 -9.448
8.23259 -8.69219 -9.30936
7.85124 -8.97782 -9.09672
8.29265 -8.70135 -9.12113
6.31806 -13.9682 -11.4433
7.48249 -9.41259 -8.98723
7.91922 -9.07385 -8.91692
6.21461 -14.3307 -11.5054
6.25682 -12.8542 -10.5064
9.22148 -8.82517 -9.34704
9.20658 -8.98127 -9.36123
5.95414 -12.7115 -10.1863
5.89141 -13.083 -10.2748
9.35398 -8.98227 -9.27937
9.21038 -9.02424 -9.15961
6.90864 -11.1864 -9.32764
5.60442 -12.9387 -9.97888
6.50257 -10.9879 -8.78243
8.44269 -8.82711 -8.34318
11.7459 -9.96717 -10.3419
8.24034 -8.62409 -7.89476
7.4303 -9.26938 -7.83536
8.24492 -8.78046 -7.94607
9.15908 -8.78321 -8.35544
7.60431 -9.32412 -7.85936
12.0881 -10.0958 -10.2509
4.66382 -15.7901 -10.6461
9.17956 -8.8208 -8.18701
5.00736 -15.3473 -10.4078
7.7569 -9.30174 -7.75292
8.25029 -8.47164 -7.56166
0.353561 15.6961 -10.0131
4.73642 -15.1262 -10.092
10.8827 -9.57095 -9.21688
7.91595 -9.07725 -7.63387
8.1623 -8.49563 -7.43533
4.71796 -15.7603 -10.3359
-0.392228 13.6126 -8.51535
8.83662 -8.80264 -7.70307
4.22561 -18.6805 -11.8284
7.91896 -9.0567 -7.42801
8.26897 -8.57212 -7.35505
4.26042 -15.4046 -9.78964
8.22081 -8.64256 -7.29366
4.24788 -18.1543 -11.3719
0.156075 15.0636 -9.17553
3.75652 -17.8484 -11.0396
4.17462 -15.7589 -9.85812
7.04839 -10.8224 -7.75186
8.05347 -9.21156 -7.35016
4.19698 -16.5779 -10.1922
8.29333 -8.66931 -7.14797
9.40967 -9.00065 -7.76051
7.01703 -11.0661 -7.79356
7.73071 -9.26608 -7.16316
9.06132 -8.81475 -7.49149
7.99978 -9.16656 -7.12016
8.58088 -8.77483 -7.16439
9.69767 -9.15445 -7.7737
6.77073 -13.3299 -8.63158
9.24427 -8.97579 -7.44194
5.79404 -13.3675 -8.40901
6.88595 -10.8691 -7.4165
9.55823 -9.10719 -7.51846
11.932 -10.2337 -8.87561
10.7856 -9.47959 -8.07859
6.88345 -11.1059 -7.33489
9.14072 -9.08586 -7.22783
9.25605 -9.02365 -7.22846
12.6072 -10.5242 -9.17368
4.65233 -14.3667 -8.44192
10.1985 -9.38512 -7.74811
8.52879 -8.70754 -6.78502
2.74403 -17.3165 -9.67238
14.747 7.54214 -9.05585
2.71014 -19.8808 -10.9139
2.42607 -8.7929 -4.94728
2.9747 -19.8887 -10.8666
14.7175 7.66535 -8.91119
2.36354 -20.1991 -10.8005
10.9548 -9.60764 -7.75198
9.78092 -9.0333 -7.05153
14.9083 7.48088 -8.82739
2.36161 -8.81103 -4.82135
1.65663 -19.8196 -10.2732
2.38655 -20.8537 -10.7665
13.9233 -11.1249 -9.13349
-9.3023 -2.60713 -4.918
11.3346 -9.81577 -7.61596
2.17256 -20.2793 -10.2789
0.853893 17.5025 -8.71439
10.9894 -9.64131 -7.28871
-8.8735 -1.95195 -4.45695
2.21144 -20.2219 -9.98855
3.85175 -9.18832 -4.89397
11.2537 -9.65682 -7.26043
1.99609 -19.9044 -9.77807
-8.43039 16.1795 -8.84756
2.50335 -11.2015 -5.49208
1.99526 -21.1233 -10.1036
14.8706 7.60135 -7.88506
17.3049 16.2073 -11.2135
17.6599 16.9206 -11.3634
14.3345 -11.3356 -8.47499
9.80283 -2.6094 -4.70247
17.2353 16.2215 -10.9365
9.75037 -2.46784 -4.65326
-10.3223 16.9495 -9.04733
-9.57617 -2.07491 -4.44399
9.85189 -2.60672 -4.62597
10.1823 -2.39773 -4.73857
9.75869 -2.97688 -4.61807
-5.40295 4.4541 -3.15732
8.08333 -8.31957 -5.23067
17.7961 17.3398 -11.1562
17.6676 17.5111 -11.1822
19.1675 5.83075 -8.98809
7.13746 -10.8945 -5.80299
20.2949 5.32857 -9.32374
9.5591 -3.42073 -4.51429
-9.97219 16.3922 -8.52175
-5.35415 4.9067 -3.21767
19.2699 5.5669 -8.86685
-11.3877 17.362 -9.13846
17.941 17.795 -11.0797
-6.57658 15.0791 -7.223
9.58643 -3.59868 -4.46259
20.0347 5.42936 -9.00024
18.0802 18.3433 -11.1042
17.8723 18.4919 -11.0842
14.8371 7.59305 -7.10448
3.85807 -9.3457 -4.28617
-11.3257 17.2298 -8.71363
-13.4997 3.30651 -5.85922
1.26435 -21.4764 -9.01536
3.25031 -10.1876 -4.47419
14.1591 7.62685 -6.72465
18.6501 19.4687 -11.2781
3.86583 -9.1768 -4.14732
14.7827 7.70763 -6.91592
18.3273 19.5366 -11.1238
13.9946 7.73009 -6.57525
3.99912 -8.46876 -3.83965
6.77057 -10.8474 -5.23809
-13.4301 2.5262 -5.59362
14.9418 7.48856 -6.81274
-8.07672 15.6279 -7.15322
1.19033 -10.6055 -4.33483
0.757285 -21.7571 -8.81704
-12.9883 2.35252 -5.31119
-9.32583 -1.43989 -3.76779
-5.084 5.64201 -3.01165
2.83367 -11.7541 -4.7694
14.1815 -11.1887 -7.06244
1.52098 19.1083 -7.44853
3.94043 -13.1507 -5.30787
18.9562 5.79502 -7.63972
0.884318 -26.2921 -10.0446
4.74761 -8.67174 -3.75282
11.7083 -10.1368 -5.88531
19.3145 5.56167 -7.61907
20.0736 23.7978 -11.6264
19.9042 5.40578 -7.69588
20.3704 23.7427 -11.657
3.26165 -10.8413 -4.22441
-13.1773 17.7475 -8.15708
11.8747 -10.0775 -5.72694
20.2957 5.18121 -7.67931
20.9573 25.0537 -11.8653
-8.1836 -2.82179 -3.13626
19.2354 5.7066 -7.22394
2.28114 -13.2329 -4.83175
0.810964 15.7534 -5.65365
-4.31547 14.0702 -5.24881
-8.23769 -2.80498 -3.10508
6.73588 -10.5189 -4.43502
-16.1366 18.6461 -8.71835
15.9293 -12.0287 -7.07228
-11.1922 16.874 -7.07961
19.2767 5.87712 -6.9983
3.71648 -8.66774 -3.25298
-8.88557 16.16 -6.27632
2.98632 -13.4757 -4.70826
18.8846 -13.5089 -7.94422
33.928 -21.0206 -13.5668
-15.0708 18.4631 -8.04549
20.0162 5.43858 -6.95422
36.7984 -20.7805 -14.1143
40.3928 -19.8793 -15.0055
16.4087 7.36007 -5.991
3.44947 -10.2642 -3.61074
1.34823 -10.9229 -3.6382
-6.31807 15.0756 -5.33232
-12.8115 17.5729 -7.07929
15.7386 -12.0955 -6.45834
6.04182 -9.84387 -3.71267
3.34092 -10.1372 -3.42289
-1.14026 -23.8744 -7.63374
2.3248 -11.0302 -3.59114
3.2326 -10.0616 -3.34921
2.82666 -9.0409 -2.98737
13.6038 -10.7569 -5.45143
-18.1237 19.5913 -8.35775
-8.71489 -2.65445 -2.85343
28.5308 -15.65 -10.2099
1.36924 -21.5 -6.65243
19.6548 25.4464 -9.69071
3.22399 -9.86862 -3.13028
3.451 -8.97958 -2.89548
-14.4906 18.124 -6.94283
-21.5787 20.1242 -8.74005
-8.02066 15.5987 -5.16179
4.77216 -11.9883 -3.78022
4.15085 -8.92346 -2.89344
2.07287 20.4823 -6.04471
-4.3721 14.7083 -4.49608
4.05775 -8.95938 -2.87585
-15.4184 18.5507 -6.95693
-32.74 -46.7869 -16.3344
7.12899 -11.1008 -3.76415
2.54526 -9.47747 -2.78229
-8.41443 -2.20411 -2.45229
4.43587 -11.0108 -3.3471
-2.48002 -25.0055 -7.0408
-9.35339 16.1303 -5.13623
4.35844 -11.247 -3.32584
8.57095 -8.36007 -3.29003
-13.1969 17.584 -6.01871
45.2413 -14.9997 -12.9935
-8.73387 -2.44297 -2.45572
-24.6582 20.6964 -8.70846
3.24405 -9.97154 -2.83408
3.39593 -9.97617 -2.84663
-4.29362 -30.8606 -8.36477
-27.0878 20.7749 -9.10041
42.365 -13.9774 -11.7909
45.6112 -13.2033 -12.5638
-8.63163 -38.8461 -10.4836
-8.40918 -39.6507 -10.6831
-14.5795 18.2708 -6.06686
9.82635 -8.93598 -3.47162
11.2981 -10.0322 -3.92526
-10.7297 16.7431 -5.14549
-4.32292 -28.3338 -7.44544
3.25985 -9.85551 -2.68376
3.51714 -10.2919 -2.81488
-26.4993 21.008 -8.67434
4.27216 -11.041 -2.9956
4.39927 -9.67183 -2.68037
9.46059 -9.14907 -3.31786
6.90166 -11.3403 -3.33216
-27.4885 21.2104 -8.6755
43.6275 -12.6993 -11.3384
-11.6196 17.1205 -5.13594
11.7877 -10.1508 -3.84522
3.36228 -10.2275 -2.64937
-24.7726 20.8097 -7.91528
9.95646 -8.9917 -3.2278
-7.91646 15.4454 -4.16723
4.04205 -11.9427 -3.03844
15.0359 7.5519 -4.02598
3.37703 -11.0997 -2.7819
3.16356 -9.86692 -2.46975
-6.82882 -39.051 -9.43425
-11.3587 -43.6313 -10.6886
3.96581 -9.08584 -2.34502
-29.2021 21.8237 -8.61306
14.8463 7.59859 -3.90555
-9.52377 16.4525 -4.46554
3.92056 -11.3041 -2.81678
-12.9466 17.6517 -5.11657
-26.7113 21.1953 -7.91948
3.47813 -10.304 -2.49395
11.0194 -9.46021 -3.35167
15.6076 -11.766 -4.47783
-37.9049 26.8197 -10.619
-12.7167 -44.2686 -10.4972
10.8895 -9.5214 -3.30929
-11.9946 -43.1094 -10.1507
-6.2253 -31.5669 -7.32122
40.4245 -12.4975 -9.58866
-27.3258 21.1102 -7.79169
14.6656 -11.381 -4.17451
-31.108 22.5969 -8.6284
4.44571 -5.8001 -1.64033
5.28806 -9.16697 -2.36811
-28.8829 -74.5096 -17.6685
-9.72967 16.2891 -4.17993
-13.174 -45.2373 -10.3663
4.10127 -9.76427 -2.3309
13.4208 -10.8263 -3.80199
4.0032 -9.16651 -2.1999
40.7983 -12.0652 -9.31782
-23.7381 20.6921 -6.86796
3.38969 -10.0869 -2.28362
4.39204 -9.88679 -2.34107
14.92 7.49982 -3.58688
-29.2458 21.8833 -7.85251
-21.4621 -34.0272 -8.64292
-8.44532 -35.7659 -7.85949
-24.6721 20.809 -6.87794
-31.3909 22.8004 -8.25737
3.24385 -9.91733 -2.227
4.86783 -8.85283 -2.14257
14.7332 7.69317 -3.5173
4.22493 -10.4765 -2.40418
41.4658 -10.8061 -9.08114
-10.6327 16.6566 -4.16979
4.33315 -9.13759 -2.12135
3.15152 -9.12404 -2.00024
5.15126 -9.03721 -2.17953
14.7396 7.41666 -3.43735
-38.5313 25.3729 -9.60377
-27.4143 -25.4193 -7.72766
3.02364 -9.4619 -2.06491
-28.9437 -30.5211 -8.66638
-19.9979 -31.2255 -7.63508
3.84998 -9.3202 -2.0809
3.73403 -8.72845 -1.9486
-15.7632 18.6406 -4.99741
-25.3724 -67.2517 -14.7527
3.98441 -8.77324 -1.97048
-14.0097 3.06486 -2.93017
-33.7547 -23.8558 -8.42887
-28.3077 -78.1927 -16.9262
-11.4151 -36.7587 -7.82715
43.6014 -9.52222 -9.06585
14.8908 7.60739 -3.35016
-17.8764 -23.6813 -5.96222
12.3173 -10.0657 -3.19907
-19.2195 -54.9803 -11.6233
4.17494 -10.7414 -2.29869
-12.143 17.4129 -4.21776
-26.4083 20.7794 -6.66135
-35.6854 -21.1253 -8.24429
-32.4149 -25.3152 -8.15105
-9.32435 -36.1455 -7.43222
14.4964 -11.4291 -3.65772
4.02511 -9.8132 -2.09101
3.22154 -9.84758 -2.03135
-35.9746 23.7705 -8.37979
-23.5824 -56.7825 -11.8832
-16.2061 -46.7939 -9.44349
3.4849 -8.89742 -1.8301
-20.3992 -33.0379 -7.3716
-32.2094 -25.1373 -7.70387
-29.2242 -25.9501 -7.35686
-22.3183 -55.1503 -11.2548
3.88089 -9.07973 -1.88071
-16.9243 -46.1599 -9.20042
3.43848 -9.21204 -1.81557
-32.6817 -24.3933 -7.42393
-31.4901 -27.0003 -7.55984
-33.3025 23.4459 -7.34207
-20.5347 -50.805 -9.77678
-31.4612 -25.3437 -7.1055
-24.7969 -64.204 -12.1235
-34.5797 23.012 -7.2733
-16.8201 -47.4321 -8.82363
3.40004 -9.55752 -1.77318
14.054 7.79984 -2.78705
-35.3616 24.2314 -7.43535
-29.0667 -25.4758 -6.72214
3.47021 -9.50428 -1.75476
4.79408 -8.6498 -1.7139
-27.096 21.2732 -5.95349
-31.0139 22.557 -6.61478
-31.2599 -28.7927 -7.33312
3.88362 -9.99419 -1.8502
13.9059 7.49642 -2.71414
-23.9942 -55.1314 -10.2248
-20.8178 19.8074 -4.84918
-31.7154 -25.2083 -6.86981
-20.0392 -49.6829 -9.08331
5.59728 -11.7283 -2.1945
42.0209 -11.868 -7.40284
-18.4712 -49.2968 -8.86258
41.1567 -10.7083 -7.15397
4.99241 -10.7133 -1.96777
6.67728 -11.095 -2.18787
-10.4372 16.5942 -3.18115
-30.5184 -23.6242 -6.28921
42.4013 -11.3869 -7.14501
-22.3058 20.2626 -4.88832
-20.7413 -51.3139 -8.78943
-23.103 20.3133 -4.85264
-24.3314 20.742 -4.97477
-33.2254 23.4045 -6.28825
3.80837 -10.0881 -1.65718
-32.3089 -24.9814 -6.2425
-13.9615 -42.1195 -6.81584
-31.3699 22.8294 -5.89825
-23.1268 -55.6598 -9.17845
-7.71114 15.615 -2.62648
-33.5614 -23.5856 -6.18021
-32.8282 -24.1347 -6.1738
-27.96 -26.2339 -5.76986
-33.4222 -24.055 -6.17627
-31.5746 -25.2749 -6.04591
-35.0269 -23.3954 -6.25267
-25.0424 21.0219 -4.82036
-33.3466 -24.9543 -6.13791
-32.3072 -24.4653 -5.98448
-25.7159 21.1908 -4.87512
-12.671 -41.9892 -6.42878
-12.6898 17.3588 -3.09809
-7.72458 15.4547 -2.46437
3.50285 -9.5448 -1.44678
38.2931 -12.594 -5.73378
-33.684 -24.8127 -5.91822
-30.8049 -24.4826 -5.53781
-30.2842 -25.5426 -5.57881
-20.8208 -50.168 -7.56901
-6.88832 15.2636 -2.27397
-14.0866 17.9978 -3.10076
-11.8659 -41.5362 -5.882
-7.46923 15.1384 -2.26734
-24.7224 -64.3569 -9.32736
-22.5535 20.5105 -4.06029
-25.0404 -56.7563 -8.24268
-31.5359 -24.3441 -5.25872
45.1709 -10.4088 -6.09622
44.5451 -9.7924 -6.00846
-13.6016 -42.2697 -5.83573
6.62002 -10.9103 -1.67857
-15.1081 18.5052 -3.10944
-22.9625 20.2244 -3.96693
-32.8488 -24.5231 -5.27747
10.6965 8.77303 -1.7855
-33.9246 23.326 -5.28624
-29.9336 22.778 -4.74189
-31.1498 -24.3879 -4.99094
-12.8916 -36.6781 -4.91591
9.64903 -9.03068 -1.64924
12.7557 -10.4247 -2.0741
-34.0539 23.8892 -5.20175
-36.325 -22.6306 -5.3303
-30.815 -25.4701 -4.96768
6.76195 -10.2839 -1.53618
-33.153 -23.4336 -5.03097
-13.7685 -42.9553 -5.54832
13.1462 -10.9592 -2.10113
41.631 -10.8199 -5.31142
-16.2871 18.7501 -3.03609
-16.0805 -38.9766 -5.15428
-8.80753 15.7459 -2.19785
43.4942 -10.0192 -5.40469
14.9616 7.81034 -2.02685
9.39456 -8.91415 -1.54613
-33.9634 -23.6966 -4.9108
-17.9787 19.5402 -3.10732
-20.8594 9.23082 -2.70304
-31.9484 -24.734 -4.76533
-26.0462 -59.0111 -7.57885
11.2585 -9.68502 -1.73893
41.9786 -11.2378 -5.11715
14.6578 -11.3811 -2.13322
14.8889 7.65314 -1.90303
-30.1556 22.9331 -4.32216
7.24745 -11.0056 -1.49556
-10.3243 16.484 -2.17875
9.42536 -9.29212 -1.47347
12.7347 -10.4595 -1.83774
13.9258 -10.9915 -1.97361
9.42933 -9.09334 -1.45402
7.03961 -10.4249 -1.3781
44.4646 -9.71117 -4.95413
-10.9773 16.4898 -2.13653
-33.4429 23.5821 -4.44438
11.6789 -9.81215 -1.64724
6.15865 -12.6647 -1.4816
7.53488 -11.5338 -1.43387
9.82192 -8.88208 -1.39333
-15.5407 -44.9078 -4.98246
16.4965 -12.2164 -2.15314
-30.9903 -62.2608 -7.21444
14.8319 7.46853 -1.69698
-31.2418 -24.8985 -4.10379
13.7806 -10.9034 -1.80111
-32.0093 -24.7601 -4.09476
14.8188 7.74251 -1.67959
-12.753 17.0549 -2.09303
-20.6402 -52.3316 -5.45157
-33.2282 -67.1245 -7.17114
-23.5727 20.6206 -2.95924
-31.102 -25.479 -3.82212
-31.0814 -25.8177 -3.85123
-21.9867 -57.5327 -5.80791
-14.1747 18.1381 -2.15511
-31.363 -24.5369 -3.71656
-15.8625 -43.2057 -4.28794
-14.0697 -43.7308 -4.28541
9.79176 -9.0758 -1.24074
-33.7639 -65.77 -6.81177
8.54077 -8.63779 -1.10306
16.4299 -12.2418 -1.87476
-15.0805 18.4993 -2.1415
-36.0127 -22.3992 -3.83814
-33.3907 23.5752 -3.60037
-31.1604 -25.1392 -3.53838
13.989 -11.1262 -1.58693
-32.2781 -19.6697 -3.22536
11.0147 -9.66635 -1.24801
-26.8556 21.7839 -2.90471
-11.4518 -35.6426 -3.16409
9.37147 -8.98571 -1.09022
-34.1168 23.4565 -3.44028
8.66319 -8.66479 -1.00654
16.6915 -12.1732 -1.68785
-16.8818 -43.867 -3.77799
-21.6745 -49.581 -4.23621
-15.4187 -38.0644 -3.25565
-13.4281 -37.6764 -3.17818
9.17535 -8.91664 -1.00535
11.2485 -9.75108 -1.16724
14.8021 -11.5778 -1.48802
-30.1664 23.0043 -2.95239
-29.3533 -13.7015 -2.51674
11.8169 -10.011 -1.2006
-23.4545 -52.2358 -4.38623
12.7288 -10.5654 -1.25345
-41.7674 -79.2405 -6.48354
9.91878 -9.10331 -0.975842
10.8711 -9.70371 -1.01579
-33.3761 -20.7197 -2.7179
11.9105 -10.0101 -1.07741
14.6498 -11.5346 -1.29612
-15.6731 -39.6033 -2.89903
-15.284 -40.4333 -2.96361
18.4808 -13.3559 -1.514
-23.4695 20.5488 -2.07046
-25.1952 -58.1204 -4.18962
12.8243 -10.5495 -1.11029
-14.8012 -41.0632 -2.83714
15.2092 -11.4835 -1.23857
-32.9311 -66.6747 -4.67083
-15.1818 -47.0571 -3.07305
-33.1042 23.3858 -2.48066
-33.3785 -66.0075 -4.50288
-17.1678 -41.8191 -2.75688
30.6982 -20.3528 -2.24255
41.742 -10.8853 -2.61911
36.2776 -8.74649 -2.26114
-15.3035 -41.0869 -2.6495
-27.1846 22.0626 -1.985
-29.082 -14.3178 -1.87333
-16.0147 -41.7206 -2.49311
16.8181 -12.5491 -1.17572
-27.2463 -16.3959 -1.71198
42.3245 -9.42776 -2.23018
-9.41275 -12.577 -0.79755
-15.5999 -41.5161 -2.20957
5.68746 -12.4128 -0.678497
-14.2965 18.1235 -1.12574
-15.3278 -48.1773 -2.48352
14.8349 7.78278 -0.806893
-16.5231 -42.3527 -2.16115
-14.7813 -48.0735 -2.3737
18.6268 -13.2158 -1.09476
-17.4689 -50.6609 -2.50032
36.5639 -8.98032 -1.76434
-28.9825 -14.8202 -1.45666
-24.7621 -56.7396 -2.74606
-16.7304 -41.1647 -1.97852
9.6302 -9.08748 -0.590387
12.5575 -10.3069 -0.729228
43.9435 -10.0548 -2.00488
-14.2349 -43.2997 -1.94054
-33.0285 23.3483 -1.6843
-54.2 29.4357 -2.45994
-34.084 23.4561 -1.51792
-19.1368 -50.0448 -2.01151
-34.7856 -21.9051 -1.46959
9.71706 -9.04304 -0.488061
6.5859 -10.7994 -0.438955
-13.2242 -39.4228 -1.37685
7.43024 -13.042 -0.512717
18.5219 -13.1186 -0.766723
-27.0844 -59.3193 -2.14779
-13.5106 -38.3295 -1.31721
20.9492 24.1616 -1.02651
-23.2909 20.677 -0.9807
-21.1763 -54.2233 -1.80572
20.9186 -14.2651 -0.769794
-27.7264 -14.2683 -0.945297
-13.1937 -42.2248 -1.31569
-24.2628 20.616 -0.914269
-24.0783 -55.4138 -1.71918
-17.817 -48.2214 -1.4834
22.4482 -10.1021 -0.743028
-34.6407 -21.1066 -1.1221
-9.80719 -12.867 -0.462131
-23.2674 -54.8709 -1.68281
17.9435 -13.3675 -0.569632
29.9369 49.9587 -1.50833
-30.3235 23.1363 -0.980338
-31.4926 23.0343 -0.964675
-27.336 -13.1348 -0.743273
9.53776 -8.97542 -0.316995
-21.0161 -33.8507 -0.929328
-40.5049 14.0501 -0.937121
21.1176 -14.1299 -0.539542
18.3501 -13.2295 -0.424455
12.7678 -10.4891 -0.27529
-7.30148 15.8047 -0.304765
-33.3229 10.5382 -0.57747
-28.4041 -13.526 -0.498104
-37.2819 -21.2316 -0.651867
-18.3575 -45.0021 -0.752305
-7.95702 16.7338 -0.251649
-32.7254 -24.4469 -0.566512
-34.0866 -23.2371 -0.528116
-35.4971 -71.7239 -0.992302
17.2188 -12.8468 -0.260642
18.1391 -13.06 -0.283433
28.752 -17.7292 -0.450821
-21.7651 -55.7451 -0.726449
-30.5089 23.2601 -0.408887
-28.2049 -60.1833 -0.708154
-18.8521 -43.2397 -0.505292
-53.8726 29.5238 -0.510731
-34.2156 -60.3578 -0.639792
-20.3643 -53.408 -0.543399
37.2561 -9.00064 -0.352287
-14.4072 18.2864 -0.163355
-36.1221 -80.4406 -0.604173
-18.1502 -44.0228 -0.324616
9.54523 -8.98176 -0.0407866
14.7333 7.75605 -0.0281474
-29.5323 -13.1744 -0.0585372
-11.7158 -17.0578 0.0251008
-12.9252 -19.4544 0.0443397
-18.9151 -43.4194 0.195127
9.41181 -8.96079 0.0592604
-33.0589 23.3958 0.210807
-22.1588 -55.9411 0.290828
-30.3392 -14.0809 0.200808
16.7501 -12.2214 0.11593
-13.1785 -20.2061 0.157263
14.6417 -11.4055 0.146066
-53.6369 19.2172 0.504632
7.05372 -12.1198 0.117717
15.9167 -11.7945 0.168184
-36.6842 -22.1987 0.449703
37.9367 -7.79727 0.403305
-35.5151 -22.2565 0.477323
-12.7035 -35.0867 0.435104
-13.184 -35.453 0.457937
-11.3178 -32.59 0.419426
-9.72794 -30.0987 0.382489
25.2789 51.1853 0.74434
9.55715 -8.9893 0.169651
-12.8558 -19.921 0.322658
-11.0076 -33.4144 0.481517
8.54226 -8.48603 0.182571
6.25591 -12.7984 0.207458
7.1209 -10.9729 0.199684
9.31381 -9.02906 0.187377
8.00337 -9.08115 0.193607
9.6921 -8.97421 0.217604
37.4199 -8.01715 0.627951
-24.1295 20.6924 0.569795
-33.4242 -22.4878 0.693062
-34.7459 -25.4928 0.754574
12.8552 -10.5605 0.27261
13.1639 -10.6176 0.316953
-9.93424 -12.5957 0.302794
6.79841 -11.1418 0.254519
7.95884 -9.35369 0.241515
25.8052 53.0941 1.18389
6.94715 -10.9197 0.260205
9.14815 -8.6558 0.267593
11.478 -9.8656 0.331693
17.1621 -7.66563 0.378431
7.1805 -10.8945 0.295329
-9.46919 -12.2244 0.391044
-12.8629 -19.7461 0.562804
7.61905 -9.27604 0.27346
7.80198 -9.3303 0.28239
-25.9337 21.7968 0.88042
-29.0818 -9.32602 0.76642
9.58516 -8.91843 0.336838
17.3815 -12.6975 0.542706
18.2068 -13.1099 0.558006
-23.2241 20.3331 0.804642
-28.0552 22.1723 0.933966
-29.0942 -8.73217 0.795285
-33.3726 -17.7944 1.02708
-13.4303 -20.2803 0.646317
14.677 -11.404 0.495971
22.5988 -3.28808 0.642754
-12.26 -19.1168 0.656838
24.8071 -4.69946 0.73497
16.1246 25.0236 0.892663
-28.2199 -20.7892 1.03702
7.19181 -11.2655 0.401333
6.9349 -10.6496 0.387095
14.5325 23.6737 0.853287
-7.63008 -8.81672 0.356537
12.9633 -10.6073 0.511528
-7.32733 -9.52338 0.368008
-28.7187 -8.10602 0.993117
-11.9461 -17.4626 0.708364
7.84084 -9.31336 0.402879
16.0293 10.9515 0.69552
10.8099 -9.41267 0.520763
11.8347 -9.99911 0.564598
22.2167 44.7374 1.87663
-7.45581 -8.14 0.412601
9.61221 -8.92293 0.489696
22.6664 -3.18239 0.878824
25.8784 53.4949 2.30177
-7.4569 -9.8976 0.484689
10.3841 -9.47076 0.551383
12.6608 -10.4566 0.663507
21.4342 -2.62698 0.880524
-29.3399 -17.7999 1.40311
8.70561 -8.66648 0.507747
-6.9298 -8.47333 0.470527
9.39903 -8.89121 0.540959
12.561 14.4193 0.844862
-29.0611 -8.52894 1.33102
14.5529 18.9552 1.07438
14.784 25.4549 1.3121
21.0919 41.4756 2.0585
6.13035 -13.6585 0.667652
10.7938 -9.46948 0.649469
18.3819 -1.63135 0.844405
19.0028 36.182 1.91737
14.7204 25.9362 1.39877
-11.2196 2.78284 0.556902
-7.25265 -9.55988 0.578672
9.13057 -8.94921 0.605592
11.3455 -8.70441 0.669737
19.9884 -2.29059 0.969319
11.5426 11.7634 0.818711
15.6475 37.6307 2.00403
7.7286 -9.41947 0.599805
10.1394 -9.23466 0.67923
14.3492 24.3322 1.41492
19.6194 38.0457 2.17336
20.87 -2.59983 1.06956
-7.41394 -8.51767 0.585874
9.34691 -8.89931 0.672117
16.4574 24.1337 1.53495
16.1958 29.3611 1.7506
12.935 -10.6618 0.890747
10.4701 12.2396 0.861725
14.047 19.0676 1.27258
11.0227 -9.55785 0.788987
14.8252 19.3159 1.34319
-26.5676 20.3656 1.83001
-6.97554 -8.18379 0.594924
10.1672 12.292 0.89361
-7.27207 -9.38778 0.665098
9.90558 12.3396 0.917975
-28.0325 19.7357 1.94738
6.06686 -12.8128 0.811779
11.0933 11.992 0.939197
-6.88852 -6.79845 0.561376
11.1828 11.9247 0.962857
-6.81635 -8.4229 0.64853
6.21247 -12.488 0.815106
14.4626 19.2427 1.44776
13.9091 22.7412 1.59056
13.1043 30.2847 1.98076
-6.16674 6.56809 0.55354
-8.1795 -7.75041 0.681639
-7.12574 -8.17454 0.666039
5.68686 -12.3677 0.823274
-7.48983 -6.89579 0.633429
6.9701 -11.1053 0.810845
6.95519 -10.5115 0.786787
11.2844 -9.74076 0.920763
12.0662 -10.0939 0.974989
16.1169 7.13783 1.12331
14.7091 19.0547 1.52327
-7.2448 -6.31391 0.623384
10.2192 -9.33346 0.893297
-7.38656 -6.2665 0.635496
11.3837 12.0122 1.12784
9.38124 21.119 1.57373
-7.28436 -9.66926 0.808833
11.5394 12.5155 1.16803
-6.96141 -4.46121 0.56884
-6.76121 -8.21177 0.725456
-6.70509 -4.4373 0.554712
9.23712 -8.8313 0.88978
9.96244 -7.81622 0.892094
12.5793 15.8544 1.46355
-6.67647 -6.66893 0.65576
9.77517 -8.25469 0.935669
11.3316 16.9435 1.53259
11.2546 17.9429 1.5824
9.46358 18.0121 1.53451
8.87597 19.1821 1.58981
7.18982 21.4286 1.69925
10.629 18.3463 1.61548
9.98063 -7.57242 0.95802
-7.03674 -7.19803 0.771402
-17.2577 -6.25954 1.43557
9.44186 -7.65456 0.952939
9.20072 18.3765 1.62215
-6.3854 -4.26366 0.608847
-6.83943 -8.23162 0.848477
4.83073 -5.72854 0.595864
8.8758 19.5271 1.7014
7.63823 18.6755 1.62241
5.02361 -5.78989 0.617684
12.6846 11.4459 1.38461
11.6893 11.7418 1.35686
6.70755 -9.3574 0.935976
12.144 11.6154 1.38152
6.55495 19.2425 1.66399
-6.36156 -4.39154 0.630123
-7.1746 -9.4956 0.976857
11.4578 12.0038 1.37317
10.4093 9.1063 1.17783
-5.05131 -11.5246 1.06291
6.11811 -6.03831 0.750433
9.1902 -7.15948 1.00207
-6.80288 -6.70046 0.811326
10.3476 12.2629 1.40086
8.77213 -7.30945 0.992673
10.7442 12.1116 1.41711
-7.31997 -7.77543 0.936276
8.16893 -7.27244 0.971174
10.1244 12.375 1.43753
-7.08124 -7.7524 0.931035
-6.94846 -8.35293 0.975175
10.5148 12.2228 1.46422
10.4094 13.4275 1.53943
-7.1278 -8.341 0.999502
11.1425 10.7628 1.4251
-6.31953 -4.23459 0.699639
-6.87195 -8.60691 1.00774
-6.33349 -4.39794 0.710901
11.0229 8.50668 1.30677
10.5781 9.27325 1.3118
6.40635 15.2181 1.55304
10.4342 11.2252 1.45037
-11.2655 2.88678 1.09916
6.14975 -5.95778 0.816394
7.98702 -6.62131 0.996588
10.6783 9.14416 1.36494
9.45055 12.435 1.51246
9.63523 12.365 1.54456
7.60144 12.1568 1.42436
7.83896 13.1043 1.52009
11.1662 8.01848 1.40119
7.07412 12.5881 1.45739
8.99498 11.2725 1.46754
6.92692 13.4103 1.5448
5.8006 13.7831 1.53522
9.13694 10.4165 1.43223
8.96048 12.2073 1.57348
11.3313 7.61971 1.42463
9.19425 9.94321 1.41016
4.96972 -5.81543 0.821325
-6.85307 -4.66097 0.874407
5.51147 13.7311 1.57051
-7.06675 -4.51159 0.894288
8.86741 10.625 1.48604
-6.77481 -6.78451 1.02571
5.90332 -5.82679 0.896064
9.64004 8.48748 1.38459
8.90939 9.30553 1.38578
9.19836 10.254 1.49367
4.72143 13.6834 1.56225
4.23001 -8.04482 0.984685
6.41656 10.7348 1.37634
-6.80835 -3.92893 0.86543
6.29238 11.7983 1.48368
-6.90246 -3.86715 0.876703
9.66719 7.17293 1.34629
6.61664 11.2924 1.45775
9.76248 6.99955 1.34966
5.38594 11.4816 1.43405
5.38838 11.9813 1.48389
4.65474 12.1132 1.46833
9.79354 6.65642 1.3497
-6.89948 -4.56871 0.947894
7.39499 -6.22023 1.10157
-7.34109 -0.786581 0.846854
-6.28142 -5.3962 0.953896
5.24627 -5.565 0.882597
8.8343 7.85385 1.3773
4.41505 -7.17827 0.976367
10.3768 5.13714 1.35612
8.91824 7.75837 1.38967
5.19775 -5.60869 0.903514
8.5628 7.88193 1.38109
8.85545 9.00889 1.47811
-7.05678 -5.65829 1.07042
10.1074 4.73276 1.32987
-6.92629 -3.85605 0.955391
9.10713 6.12215 1.33108
5.16676 11.3253 1.50908
-6.90073 -3.06893 0.917903
-6.88506 -3.25512 0.921219
4.87891 -5.95011 0.939273
5.9686 -6.12363 1.04126
9.34113 5.60293 1.34667
8.42769 7.19502 1.37023
-6.95836 -4.31548 1.00886
-6.88971 -4.54022 1.01716
8.21844 8.54343 1.47088
4.98922 11.2203 1.52483
-6.55818 -5.62459 1.07542
3.70658 -7.57 1.05049
8.46609 7.70898 1.43286
6.07311 -5.61301 1.03693
9.13415 6.03946 1.38782
-6.14134 -5.41909 1.0337
8.51705 6.58882 1.37337
8.05402 7.47782 1.39818
-7.10923 -1.785 0.937846
-7.02145 -2.30864 0.944258
-6.45296 -5.32493 1.06764
8.79931 5.6413 1.34012
8.11803 8.009 1.46992
-7.27256 -1.2548 0.946674
-6.9057 -4.12363 1.04011
7.40527 6.19899 1.25093
8.0463 7.013 1.38418
7.93242 8.08808 1.46816
-6.91781 -2.82928 0.973333
-6.91909 -2.96932 0.97371
4.51858 10.0063 1.44294
8.97186 4.09908 1.29848
-7.25619 -1.60805 0.977062
6.83317 -4.2552 1.06994
4.92669 -5.94182 1.02344
-7.34209 -1.11852 0.994478
-7.02182 -2.20174 0.984715
-7.05902 -2.27108 0.991002
-6.00021 -4.40212 0.994801
5.18483 -6.56033 1.11452
6.90376 -4.17209 1.08607
8.04014 7.14061 1.4569
-7.15933 -1.72016 0.990232
-7.09034 -1.95785 0.989661
8.76652 4.83983 1.3602
8.30292 5.85266 1.3813
-6.92862 -3.62302 1.0657
8.84158 4.14959 1.33978
3.31461 10.4172 1.49652
-7.32142 -1.20137 1.01599
-6.01549 -4.44545 1.02899
-5.99598 -4.54436 1.03023
7.14086 -3.93028 1.12042
8.04157 6.46147 1.42683
5.32442 8.99923 1.44801
-6.38847 -4.32569 1.05796
4.93197 -5.52479 1.02891
7.17841 -3.82608 1.13221
7.55146 -3.68237 1.16259
3.58961 9.95811 1.47393
3.40332 10.2402 1.50438
-7.37805 -1.08343 1.04146
-7.08112 -2.00591 1.02597
4.97144 -5.28675 1.01458
7.23996 -3.73415 1.14455
7.35599 -3.66876 1.16598
7.86367 -3.35278 1.2154
-7.16235 -1.87672 1.05336
-7.01525 -2.94887 1.10312
-6.0133 -4.37736 1.07
7.89818 -2.77984 1.22519
8.21016 4.60809 1.37955
4.9661 8.50732 1.44383
8.34733 4.49508 1.40133
7.82388 -2.33882 1.20386
7.1244 5.6714 1.36377
2.93776 9.37682 1.46912
-7.10102 -2.02155 1.10692
7.47867 -3.10756 1.221
8.20699 4.53562 1.4215
5.76279 7.41133 1.42569
5.26864 7.60086 1.40936
5.1037 7.90724 1.42961
5.05675 8.01446 1.43433
7.32936 -3.16791 1.21965
7.67404 -2.75424 1.24171
-6.76225 -1.68432 1.05008
7.82584 -2.25516 1.24903
7.2152 5.41131 1.38503
-7.11058 -1.95437 1.14474
-6.92647 -2.78854 1.16089
6.79601 5.51237 1.3727
-7.36376 -1.097 1.1633
-7.15152 -1.82601 1.15638
-7.05341 -2.06954 1.15215
-7.1281 -1.87437 1.15703
-6.90156 -2.93703 1.17784
4.791 7.42868 1.40591
3.44633 -6.03205 1.10939
-7.28378 -1.30086 1.18573
3.5282 -5.70792 1.08108
3.56515 -5.6134 1.07049
7.06284 4.76082 1.3881
4.64528 7.35212 1.41547
-7.07818 -2.02554 1.20027
-7.1003 -1.94893 1.20863
6.95834 4.82175 1.40022
3.80227 7.89895 1.45143
6.05256 -3.31894 1.14997
6.62675 4.86817 1.37115
4.64818 7.14415 1.42183
3.83652 -5.30073 1.09984
7.0995 4.42092 1.40837
7.47105 2.85678 1.3519
6.31319 5.27758 1.39477
-7.28738 -1.25717 1.25977
6.74865 4.0802 1.35451
-6.45602 -2.7742 1.19937
5.50946 -3.62969 1.13342
5.69068 -3.51853 1.14879
2.7425 7.81559 1.43196
-7.38144 -1.0408 1.29284
5.3338 -3.78344 1.14
-6.31591 -2.26146 1.16371
-6.27622 -2.41862 1.17813
4.28128 -4.66485 1.10728
4.49417 -4.47736 1.11287
4.59181 -4.44915 1.12175
-6.80775 -1.73429 1.23798
4.32308 6.48584 1.39054
-7.16796 -0.929382 1.29248
-6.14873 -2.25945 1.16726
6.63637 3.69023 1.36134
6.09598 4.35895 1.35945
3.60907 -5.32802 1.17037
5.14115 5.678 1.40115
2.50631 7.1719 1.42708
6.48321 3.0513 1.35493
-1.70643 -5.78274 1.14142
6.42648 -1.386 1.24745
6.27205 2.7774 1.32078
6.2177 2.38124 1.32849
-4.46515 3.95133 1.4025
4.32319 3.53281 1.33548
4.20905 3.29064 1.32274
4.66516 -1.67774 1.24493
4.81861 -1.38092 1.25403
-2.15379 4.82668 1.32124
3.72772 -2.95354 1.22268
3.67383 -2.55005 1.19391
3.40747 -2.96246 1.22615
4.00104 2.56734 1.32856
-2.59384 -3.53343 1.25092
-2.32521 -3.56939 1.21619
3.75194 2.05619 1.30081
3.72869 1.97864 1.30027
-2.85073 3.49605 1.39231
-2.29535 -2.4183 1.18723
1.95704 -2.78337 1.21383
-2.12823 2.77404 1.32883
-2.03292 2.76205 1.335
2.25217 -1.87082 1.22609
2.38142 -1.499 1.223
-2.01841 1.8798 1.29875
-2.0634 -1.44235 1.22835
1.45104 -2.07204 1.24674
-1.99144 -1.08729 1.21447
-1.92408 -0.707389 1.22014
-1.92584 -0.703187 1.24574
-1.9552 -0.344247 1.22927
-1.89213 -0.564479 1.23011
-1.89175 -0.530701 1.23521
8.21144 -8.69042 -7.45771
12.0933 -10.2599 -8.77688
-8.83843 15.7788 -7.01863
20.3663 24.8002 -11.5271
-8.81795 -2.52533 -2.58462
-34.792 -23.2412 -7.729
-34.3807 -22.4841 -6.06123
-34.1113 -23.1815 -6.12461
-31.4382 -20.1625 -2.80862
9.26638 -8.826 -0.391015
-7.79106 16.7937 -0.456706
-29.6454 -11.4718 0.732412
-6.9299 -8.28241 0.461353
16.5085 23.7054 1.56969
11.2995 15.8912 1.61293
-6.7029 -6.6759 0.88473
4.18659 12.1479 1.48071
8.69127 9.0532 1.46806
7.97069 -8.76216 -10.3774
8.82978 -8.53752 -10.4947
6.95528 -11.9346 -11.5116
6.87095 -11.3478 -10.8935
8.15068 -8.26296 -9.53068
7.02063 -12.027 -11.3244
7.06461 -10.9708 -10.4542
8.00043 -8.37592 -9.20193
6.72626 -11.2828 -10.2872
6.44403 -11.6952 -10.2115
7.75592 -8.84902 -8.97057
6.20427 -14.314 -11.8062
8.29658 -8.69886 -9.0992
6.29878 -11.9074 -10.1739
6.1465 -12.0865 -10.1114
7.48959 -9.44332 -8.99933
7.90798 -9.05443 -8.92525
10.4602 -9.44341 -10.4812
6.11972 -14.1135 -11.3706
6.10145 -13.6691 -11.0059
6.1303 -12.5752 -10.2899
9.19179 -8.82132 -9.34587
9.27957 -9.06789 -9.46307
5.86407 -12.5038 -10.0329
9.35542 -8.98463 -9.25716
6.85954 -11.1228 -9.27452
5.61495 -12.969 -10.0027
9.68519 -9.07481 -9.40616
7.60734 -9.34217 -8.47071
9.9899 -9.18 -9.53163
10.9091 -9.48636 -10.1443
11.4303 -9.68978 -10.0636
8.38262 -8.60591 -7.95392
7.42929 -9.29692 -7.86333
8.1654 -8.71625 -7.8945
7.62626 -9.34984 -7.89396
7.83508 -9.39993 -7.84309
8.3185 -8.53327 -7.61814
0.360618 15.8808 -10.1347
7.52593 -9.32201 -7.62442
10.9012 -9.59882 -9.23528
7.22349 -10.6985 -8.17029
8.15337 -8.49553 -7.42601
4.61296 -15.4069 -10.1148
8.71161 -8.69878 -7.61699
7.91967 -9.03055 -7.40904
4.04846 -18.0207 -11.3774
8.19593 -8.62567 -7.27417
4.08652 -17.3107 -10.8532
0.146429 14.8863 -9.05769
6.65259 -11.2595 -7.96252
7.74096 -9.26617 -7.32614
10.1171 -9.30459 -8.3405
6.81877 -11.2485 -7.89688
8.05839 -9.20209 -7.34242
11.2571 -9.68672 -8.87935
5.39996 -13.8555 -8.81974
7.73318 -9.2641 -7.15664
9.34633 -9.02906 -7.70049
6.90025 -11.1123 -7.74188
7.98136 -9.12575 -7.11389
9.74656 -9.18171 -7.80375
14.8203 7.40548 -9.62137
8.66385 -8.82756 -7.14722
6.93082 -10.9615 -7.45358
2.63963 -11.2113 -6.62431
7.8578 -9.0693 -6.87278
9.59873 -9.1341 -7.52686
10.7838 -9.48742 -8.10272
3.27999 -20.6033 -11.7326
6.79927 -10.9796 -7.24009
10.0983 -9.28406 -7.68214
12.3232 -10.3402 -9.02144
9.23533 -9.00261 -7.20691
4.61443 -14.2895 -8.37175
8.0011 -9.21322 -6.77719
14.7424 7.53702 -9.08947
9.69076 -9.10081 -7.30132
0.837562 17.4689 -9.54991
2.74199 -19.8611 -10.9325
11.1193 -9.63571 -7.98888
4.23123 -14.4154 -8.1327
14.656 7.66431 -8.90802
15.0393 10.3834 -9.81173
13.9929 7.71953 -8.53846
10.9394 -9.60808 -7.74263
13.243 -10.7844 -9.08522
3.04428 -19.3368 -10.2907
11.3429 -9.8139 -7.63209
2.16881 -20.3865 -10.3478
10.2507 -9.33259 -6.971
14.244 -11.2665 -9.11862
13.7805 -11.1462 -8.87319
10.9948 -9.64369 -7.28637
7.50435 -9.3326 -5.93063
3.56242 -8.46664 -4.52691
-8.71547 -1.91361 -4.38716
2.22401 -20.1704 -9.95296
4.53094 -9.29728 -5.05822
0.40434 13.6576 -6.6882
7.60328 -9.26461 -5.84852
-8.54441 16.3069 -8.91669
-9.21752 -2.43677 -4.59397
14.9627 -11.5547 -9.08516
19.3227 5.52858 -9.61101
-10.3351 -2.55883 -5.03606
1.90962 -20.5609 -9.81898
17.1406 16.1073 -11.1393
7.57586 -11.2003 -6.38051
19.9714 5.3906 -9.74129
14.0024 -11.086 -8.30543
2.92724 -17.3228 -8.16926
19.3001 5.71043 -9.29789
17.7947 -12.9683 -10.1712
9.8512 -2.48827 -4.69454
20.2252 5.12628 -9.62618
17.2649 16.235 -10.9198
1.81042 -20.2331 -9.29689
9.66209 -9.03497 -6.05742
-9.22755 -1.6749 -4.27714
9.43979 -3.46376 -4.57957
6.70612 -11.3052 -5.97899
9.89837 -2.61449 -4.64362
19.1931 5.85253 -9.03314
17.6451 17.5018 -11.1716
9.35613 -3.08201 -4.43391
15.3926 -11.8445 -8.71623
7.02924 -11.5492 -6.04756
7.1439 -10.9056 -5.81127
9.54577 -3.39993 -4.51558
-10.0724 16.5096 -8.61044
17.604 -12.8477 -9.68479
19.4787 5.61126 -8.98428
16.0628 7.28575 -7.81001
17.751 17.9292 -11.1573
16.3846 -12.1856 -8.99985
-11.3399 17.2445 -9.07211
-6.60587 15.0973 -7.22576
-5.2503 4.92459 -3.13658
20.074 5.45041 -9.04279
9.54471 -3.4002 -4.37269
18.1412 18.3867 -11.1008
15.7831 -12.1459 -8.57001
14.8266 7.41314 -7.07415
3.83625 -9.29655 -4.27298
-11.2618 17.1286 -8.6787
6.93647 -10.8942 -5.446
-13.6312 3.34065 -5.91314
0.74337 -22.4088 -9.44845
15.7701 -11.9406 -8.27258
-5.1809 5.70514 -3.22448
0.999026 -22.2725 -9.34579
1.23179 -20.79 -8.72495
14.1375 7.58224 -6.70948
18.4677 19.2454 -11.1436
3.78066 -8.94994 -4.0517
14.7385 7.71244 -6.92373
17.8408 19.0539 -10.8315
-9.53142 -1.09395 -3.96042
4.00575 -8.49924 -3.84962
14.0044 7.73274 -6.56676
6.83593 -10.9742 -5.28604
-13.6691 2.55346 -5.68861
-8.03245 15.5617 -7.11695
19.1616 20.8209 -11.4626
15.0399 7.22661 -6.72262
-5.31462 14.5151 -6.19785
13.9229 -11.0073 -6.95187
1.53015 19.2126 -7.48497
-8.82662 15.9419 -7.08166
18.9408 5.77625 -7.67217
-1.75993 13.3378 -5.21105
5.29157 -9.38676 -4.15563
-2.39501 13.5619 -5.28972
19.4835 22.5384 -11.4227
4.65803 -8.51096 -3.68467
19.3655 5.55556 -7.66601
0.877838 -26.5927 -10.1113
14.8705 -11.4592 -7.06536
19.9223 5.39732 -7.72486
9.43059 -3.4359 -3.75248
0.533933 -22.7399 -8.47633
3.24527 -10.784 -4.2075
20.0776 23.3583 -11.4375
0.909951 -8.725 -3.25314
13.9977 -11.0854 -6.58422
20.3287 5.17037 -7.71214
17.8059 17.5941 -9.14696
-13.0806 2.29159 -4.82811
20.7202 24.743 -11.704
2.28491 -13.2475 -4.84322
13.0089 -10.5201 -6.02044
0.796106 15.4249 -5.52612
-8.21249 -2.80256 -3.10382
0.410158 -21.8994 -7.8295
-4.25279 13.9588 -5.19084
0.638621 -21.9669 -7.80952
15.8165 -11.9456 -7.02537
-15.9079 18.3908 -8.57006
5.92303 -11.3282 -4.49483
-11.1423 16.8149 -7.04582
0.0933449 -18.5508 -6.52086
14.2337 -11.2805 -6.3507
20.2836 5.34188 -7.32104
0.658078 -23.0931 -7.97833
-5.06344 14.7001 -5.32765
3.63765 -8.4445 -3.16507
4.8735 -9.02753 -3.51558
-14.6691 18.212 -8.00494
2.2742 -10.8828 -3.81014
-8.98373 16.2973 -6.34402
3.02345 -13.68 -4.77685
-15.1496 18.5945 -8.13146
20.1021 5.46546 -7.00167
21.8965 27.0871 -11.64
35.8563 -20.2411 -13.7604
-5.36081 14.2197 -5.04771
1.91062 20.6961 -6.89582
1.26732 -10.2484 -3.41439
-5.30722 14.6145 -5.05056
-12.73 17.4276 -7.00162
18.5066 -13.1876 -7.37991
3.55892 -8.67059 -3.00502
6.21406 -10.1036 -3.80147
2.31307 -11.0065 -3.57914
-4.60195 -34.5641 -11.0821
-1.14474 -23.9751 -7.63992
14.9757 10.3139 -5.73825
-13.3613 17.7797 -7.03032
-18.2059 19.6369 -8.41819
6.95319 -11.0811 -4.04462
1.38682 -21.9343 -6.79881
-2.59374 -27.6209 -8.51512
7.13721 32.9574 -10.2892
0.771164 15.015 -4.56638
-11.2623 16.9931 -6.14502
-2.72319 -26.7346 -8.09226
-14.5114 18.1438 -6.93269
-5.34691 -35.0571 -10.5584
0.840208 -25.1438 -7.52199
-5.45334 15 -4.74821
2.07606 20.6459 -6.11303
-21.5303 20.0754 -8.68544
18.1651 5.78053 -5.61083
-4.34125 14.5829 -4.47428
-8.01678 15.5534 -5.13418
4.25324 -9.13783 -2.96247
4.63237 -11.6073 -3.65441
-12.6574 2.22977 -3.69384
-33.4834 -47.4295 -16.7054
-15.3729 18.4937 -6.9137
6.94962 -11.0687 -3.76278
2.56274 -9.54231 -2.80739
12.9117 -10.4512 -4.72742
-8.46298 -2.46299 -2.49926
20.9352 26.9993 -9.67894
-8.59085 -2.26423 -2.51047
-2.57693 -26.2917 -7.41303
-13.0656 2.00214 -3.681
4.38366 -11.3187 -3.36906
-9.41718 16.1955 -5.14383
-13.2085 17.6161 -6.04805
-5.45505 14.5599 -4.25025
-8.62654 -41.8904 -11.7011
-21.7248 20.2733 -7.98869
-9.84229 16.3209 -5.10808
-27.0344 20.7673 -9.06954
11.4016 11.4753 -4.26798
4.32268 -11.2845 -3.2014
46.7797 -13.5989 -12.9059
-8.32634 -39.2913 -10.5558
4.08676 -8.65157 -2.51945
11.1551 -9.92194 -3.90555
-14.6187 18.304 -6.09156
6.53043 -10.4143 -3.18172
3.17631 -9.64093 -2.6242
-30.5633 -44.7632 -13.9956
-4.4133 -28.9455 -7.57489
3.53828 -10.3641 -2.82394
4.06552 -9.38101 -2.62793
15.5718 -11.7089 -4.9712
-7.24046 15.4257 -4.3137
-31.9968 -42.6717 -13.5244
4.30766 -11.1337 -3.02153
4.25308 -7.70073 -2.23893
6.52925 -10.6504 -3.1156
44.4917 -13.4516 -11.589
-28.6106 21.5855 -8.86102
-11.6617 17.1332 -5.10972
-27.967 -40.7976 -12.1613
-10.0452 -39.5368 -10.0615
-24.766 20.8015 -7.94838
4.34603 -10.3226 -2.75189
-12.2009 17.4765 -5.16829
-7.93492 15.4609 -4.18909
10.2619 -9.25632 -3.30907
40.0277 -13.2962 -10.0934
15.0806 7.54193 -4.01388
-6.40425 -36.6739 -8.86761
3.96311 -9.08172 -2.34794
46.6525 -12.4861 -11.4624
-12.3713 -45.5499 -11.1805
4.19764 -8.98147 -2.36515
3.85323 -11.0517 -2.75858
4.90486 -8.68698 -2.3469
-12.9236 17.6119 -5.08423
10.992 -9.63281 -3.34054
-6.26597 -31.7736 -7.38894
-27.4677 21.2147 -7.86755
41.2536 -9.02186 -9.58325
-30.8614 22.407 -8.55093
-35.7619 -23.4357 -9.58017
40.4553 -12.506 -9.50767
5.44936 -9.4652 -2.43853
-12.4461 2.83992 -2.80109
40.3287 -11.8182 -9.28535
42.2853 -12.0652 -9.67459
-5.44346 14.2829 -3.34256
13.3651 -10.7547 -3.77614
37.8247 -12.1556 -8.73442
-23.6513 20.6134 -6.80558
-30.3789 -74.8959 -17.5363
4.305 -9.68954 -2.29934
4.53476 -9.17143 -2.20998
-14.7413 18.3662 -5.02971
-31.3054 22.7397 -8.2623
-32.1968 22.8488 -8.4398
-29.0215 -76.9974 -17.6363
-10.8102 16.8919 -4.25282
-8.56561 -36.3594 -7.94275
3.18694 -9.67511 -2.17226
3.96162 -9.81792 -2.25743
45.4424 -10.5358 -9.95789
14.9133 7.46985 -3.53588
-15.3235 18.8634 -5.14582
5.15922 -9.04647 -2.18802
26.3346 38.102 -9.67803
14.9524 7.82529 -3.50356
-30.4072 -23.4836 -7.96985
-34.1368 -87.5277 -19.4488
-11.5743 17.0535 -4.18862
-15.7896 18.6685 -4.97795
-35.6081 23.9027 -8.71493
44.0985 -9.61877 -9.20445
-13.4965 -43.4276 -9.2419
4.13108 -9.72307 -2.14944
11.5849 -9.6302 -3.06518
-12.1268 17.4029 -4.23458
-20.3906 -58.5206 -12.3842
-13.1801 -40.9423 -8.5149
4.06503 -9.90978 -2.1208
-34.4198 -23.5359 -8.21975
-27.0209 21.2071 -6.76066
-33.4419 -23.9215 -8.01481
-6.96845 15.3989 -3.28122
-27.2148 -63.9456 -13.4979
-33.8493 -22.5345 -7.83606
3.43207 -9.35204 -1.92371
45.5223 -10.5472 -8.97312
-12.8803 17.5859 -4.16744
3.98489 -9.33494 -1.93703
-36.7678 -22.3338 -8.14332
-21.5221 -34.9621 -7.80765
-15.8755 -45.8065 -9.1723
37.6583 -12.4226 -7.49653
-36.3807 24.4343 -8.20187
-33.9896 -23.474 -7.75981
-32.9331 -24.0952 -7.65985
-21.7582 -53.9036 -10.9369
-17.1958 -46.7082 -9.23191
3.81733 -9.19997 -1.83982
42.2721 -11.3931 -8.13015
5.75133 -9.70218 -2.06713
-25.0589 -56.8216 -11.369
-20.8482 -51.7463 -10.0897
-14.7081 18.334 -4.16801
-31.3734 -25.3033 -7.1643
-20.4744 -27.2829 -6.09971
-39.8498 25.1457 -8.31397
-27.0311 21.2245 -5.98201
-34.4692 23.587 -7.25206
3.90476 -10.0378 -1.86768
4.76804 -8.60567 -1.70978
13.9718 7.50323 -2.73505
14.0443 8.05922 -2.77302
-31.1563 22.6564 -6.6043
41.9537 -11.8696 -7.4231
41.7545 -10.814 -7.34269
-31.5304 -25.0411 -6.83026
-21.2712 20.258 -4.93287
-20.8021 -51.7056 -9.41639
14.8256 7.43055 -2.78103
-32.0374 22.6806 -6.55701
-24.0729 -57.3935 -10.2835
43.2614 -11.6542 -7.28256
-10.4541 16.5967 -3.16556
-21.0986 -52.3423 -9.00016
-35.2017 -24.2999 -6.7402
-22.9935 20.2017 -4.79289
-24.4115 20.8392 -4.9747
-40.5603 24.5579 -7.3476
-11.3305 16.9583 -3.14879
3.46826 -9.51844 -1.56683
3.86409 -10.2183 -1.6916
-7.69978 15.6174 -2.65998
-31.3902 22.8466 -5.93493
-32.0345 -24.7425 -6.15496
-28.1844 -26.3633 -5.84642
41.941 -10.9033 -6.58718
44.5585 -9.7077 -6.94789
-6.61015 14.7235 -2.41525
9.82286 -5.14891 -1.64602
-33.7821 -24.3655 -6.20273
10.1806 -9.15345 -2.0403
44.6971 -10.3401 -6.81335
-36.9812 -24.6179 -6.5382
-31.79 -26.2217 -6.02807
-12.9007 -42.7446 -6.56905
16.876 -12.2097 -3.0513
-25.6345 21.1056 -4.82567
-25.2259 -56.5215 -8.91868
-7.69609 15.4148 -2.46399
-12.8301 17.4932 -3.09323
6.02543 -11.5116 -1.85677
-13.5385 18.0955 -3.17476
-35.0748 23.6937 -5.95097
6.74986 -11.0256 -1.80697
37.3779 -12.3354 -5.5362
-31.4184 -25.1756 -5.61884
-33.3569 23.9719 -5.69058
-20.9866 -50.5812 -7.5633
44.8467 -10.0327 -6.33703
-6.94372 15.3567 -2.30355
-23.1902 -60.5232 -8.80424
7.74327 -9.37076 -1.6314
-14.1342 18.0471 -3.09037
13.1923 -10.5219 -2.28336
-22.4317 20.4043 -4.0777
41.8629 -10.8237 -5.74066
44.5741 -9.76352 -6.03989
-22.8138 20.0763 -3.97395
-32.968 -24.6695 -5.37824
-15.0335 18.4092 -3.07332
-34.3811 22.9475 -5.36655
-38.6443 -16.3172 -5.4161
7.00748 -10.4216 -1.61139
10.7491 8.80055 -1.78357
-34.0915 -23.4936 -5.29832
-31.7625 23.1873 -4.97465
-35.8828 -22.3912 -5.3014
41.729 -10.7918 -5.39412
6.78712 -10.3541 -1.54706
-7.73354 15.4687 -2.14167
-25.255 21.206 -4.03816
-33.7478 23.7844 -5.09295
6.28443 -12.0528 -1.65605
44.5269 -9.49971 -5.57678
14.9668 7.84124 -2.03127
-18.2591 -44.2227 -5.76892
7.07723 -10.5183 -1.52653
-20.6402 9.14743 -2.67211
-14.5809 -44.1067 -5.46196
-32.1199 -24.7639 -4.74237
-31.6021 -25.2737 -4.73523
41.81 -11.1997 -5.08744
11.2148 -9.65796 -1.71475
-30.1833 22.8863 -4.35805
6.63336 -10.8082 -1.45188
7.48149 -9.21111 -1.35744
11.566 -9.70937 -1.71526
9.44158 -4.60603 -1.18958
14.9455 7.68006 -1.89356
-10.4475 16.6323 -2.21688
-32.5204 23.7628 -4.51221
38.6655 -12.7282 -4.56517
9.34566 -9.01236 -1.43643
-11.1683 16.7501 -2.18869
6.78033 -12.7652 -1.56584
44.667 -9.70771 -4.95551
10.7468 8.83122 -1.49891
16.7313 -12.4285 -2.23708
42.0037 -10.8939 -4.64991
9.6073 -8.96772 -1.39242
8.37067 -8.45571 -1.24648
-31.1592 -24.9346 -4.1555
-30.8272 -61.8333 -7.20758
14.9425 7.49385 -1.70772
-32.0592 -24.7197 -4.15361
-12.9744 17.6867 -2.22742
-12.8897 17.2691 -2.14207
10.1944 -9.07628 -1.3372
-21.2909 -54.071 -5.69705
6.30488 -12.0741 -1.31847
16.6015 -12.1459 -1.97742
41.893 -11.2572 -4.15832
-31.3887 -63.4485 -6.7292
-21.2823 -55.8513 -5.6761
-23.5247 20.5767 -2.92181
45.359 -10.0906 -4.34041
9.7045 -8.97594 -1.22376
39.4876 -13.026 -3.87489
-15.1556 18.5783 -2.17139
-29.8776 -13.6221 -2.99314
-33.0313 -64.3919 -6.67065
15.8204 -11.8413 -1.79777
8.62673 -8.7176 -1.11064
12.8675 -10.6214 -1.45301
44.9481 -10.4181 -3.95273
9.3905 -9.01705 -1.09443
10.9356 -9.63018 -1.22488
-34.5059 23.6968 -3.48336
16.8008 -12.2518 -1.72241
-17.2202 -44.8101 -3.84503
14.6508 -11.456 -1.48317
-11.8777 -33.2521 -2.78702
-30.1142 22.8974 -2.92563
-33.4295 23.6292 -3.16033
-23.1514 -52.8841 -4.45688
-51.7879 28.1852 -4.4648
-21.581 20.311 -2.15583
-33.659 23.808 -2.98792
16.3387 -12.2083 -1.49218
41.9187 -11.2175 -3.16164
-40.3049 -76.2607 -6.22501
13.9461 -11.0342 -1.2728
-15.8041 -41.9242 -3.09242
10.7505 -9.60088 -0.987594
-23.5489 20.6192 -2.11396
12.8459 -10.5998 -1.11497
17.9041 -12.9857 -1.47468
16.0026 -12.1041 -1.32526
-14.9018 -41.3167 -2.84125
43.662 -11.3554 -2.82018
-32.5686 -65.9893 -4.49083
35.6818 -8.65641 -2.2535
42.8436 -9.80618 -2.69846
6.03538 -13.0462 -0.8593
30.7484 -20.3461 -2.2066
-9.93239 16.5807 -1.13635
-15.8007 -41.2175 -2.51362
16.5684 -12.3823 -1.16151
-9.71184 -12.5899 -0.871351
14.9331 7.66119 -0.907306
