ply
format ascii 1.0 
element vertex 1860
comment /media/mkaihara/Seagate Backup Plus Drive/model_iterations/model_67.ply
property float32 x 
property float32 y 
property float32 z 
end_header 
-26.6716 21.766 -0.930052
35.9191 -8.53425 -1.00078
-35.598 -22.1183 -1.02552
-35.2471 -22.2931 -1.01371
-35.2444 -70.0766 -1.79829
-19.2078 -43.8848 -1.0145
-35.5402 -22.2932 -0.794066
16.8816 -12.3571 -0.402626
-35.0244 -22.1483 -0.567873
17.0044 -12.4505 -0.242746
13.0808 14.8812 -0.20605
-34.1699 -22.7906 -0.398743
11.1262 -9.6118 -0.132308
-36.3636 -21.12 -0.350687
-28.9199 -8.70272 -0.125595
-29.5702 -9.48524 -0.0848323
11.4915 -9.9393 -0.00322646
-13.0157 -20.0358 0.0348526
42.0184 -9.32039 0.131292
9.08752 -8.88432 0.103894
15.0612 -11.5058 0.151919
11.3204 -9.78415 0.139325
13.2746 -10.6689 0.17872
18.1221 -13.0033 0.216439
-27.8364 -13.4865 0.341118
-33.6496 -22.3575 0.464161
-35.0781 -18.833 0.452709
-36.0329 -22.1903 0.526625
-13.6906 -20.7832 0.286138
-12.8808 -20.2129 0.317739
-13.3657 -20.0212 0.344809
14.9958 -11.5012 0.278693
-30.3555 -13.1348 0.582907
-36.8147 -19.8286 0.808301
-14.1807 -22.2509 0.524991
-30.5218 -13.3884 0.704501
-36.1708 -20.1389 0.843595
18.1623 -13.0367 0.467178
10.4935 -9.22768 0.298477
10.4006 -9.23419 0.345412
-8.23089 -9.76515 0.360706
10.5208 -9.26589 0.416245
13.5054 -10.7871 0.534894
10.3628 -9.4471 0.461079
13.2166 -10.6518 0.56023
-9.2809 -13.0994 0.59706
10.5043 -9.46333 0.527248
13.2102 -10.5854 0.66767
-30.4649 -16.9966 1.41068
-32.3723 -18.7216 1.52094
9.5367 -9.10945 0.557295
-29.2525 -17.4659 1.49237
22.2964 44.2025 2.19642
9.60348 -8.94271 0.582359
10.4703 -9.37408 0.666916
12.2776 -10.2523 0.748021
-6.16133 6.63254 0.447908
-6.88653 -8.17689 0.535656
-7.14664 -9.27315 0.576651
-28.4576 -11.2259 1.60346
-6.84471 -8.47913 0.562832
11.8706 11.7163 0.88669
16.4194 24.5176 1.56754
15.8531 24.0052 1.51245
8.87925 -8.628 0.664865
8.66212 -8.57059 0.670831
14.6736 25.1747 1.62009
-28.79 -8.63429 1.67637
-7.54185 -8.03723 0.619777
10.3838 -9.37045 0.804049
-6.77447 -8.22109 0.638356
-6.73463 -8.46053 0.650361
-7.57658 -7.97227 0.682438
-6.91158 -8.24416 0.673607
9.54957 -8.87956 0.816747
10.4628 -9.36028 0.881006
10.4596 12.2281 1.04739
-7.34928 -9.52102 0.793342
12.4612 18.9188 1.52956
12.9859 20.7289 1.64677
9.15587 22.7725 1.70887
-7.10931 -8.31594 0.759308
-7.11256 -7.63039 0.741512
9.51196 -8.84964 0.922264
11.3231 11.904 1.21729
11.7451 16.6964 1.53614
12.5408 11.4727 1.30692
12.8151 11.4143 1.33743
12.2213 11.524 1.30833
11.9996 11.6521 1.32481
-7.23042 -9.39524 0.939744
11.5654 11.9023 1.33672
-7.37356 -6.14376 0.758862
-7.0688 -8.11004 0.866118
-6.76956 -8.3165 0.863797
-7.27977 -6.25489 0.764832
9.24672 -7.5773 0.99086
-7.3714 -8.11605 0.913053
-7.40322 -9.91002 1.03371
-7.29653 -7.88429 0.903557
9.18529 -6.95889 0.975858
11.6083 11.8785 1.41259
-6.36281 -4.33729 0.659502
-7.08666 -8.37085 0.945238
-6.84281 -8.42163 0.964051
8.98527 -6.85294 1.00815
8.20698 -7.12645 0.977421
5.93169 -5.90639 0.773007
10.7873 11.0658 1.48077
-7.03459 -5.73516 0.866677
10.7447 9.2841 1.3805
-7.16837 -5.7198 0.894567
7.73269 -6.56636 0.998387
11.037 9.80333 1.45977
10.8934 9.06768 1.42402
9.56114 11.5031 1.4983
-6.50973 -6.50493 0.922644
-6.8753 -4.51736 0.833231
-6.98149 -7.32095 1.02506
10.7528 9.06699 1.45547
10.1066 9.43525 1.4178
9.27582 10.0913 1.43249
-6.85997 -4.45777 0.862102
-7.14317 -5.67722 0.975841
-7.11447 -5.71703 0.974674
-6.92043 -4.6309 0.909121
-7.06541 -5.5066 0.973887
8.67121 10.2528 1.49216
-6.89863 -3.43101 0.863594
-6.97181 -4.34968 0.91655
-6.84507 -3.49104 0.863174
-6.88821 -3.57542 0.870235
-6.8945 -4.23386 0.910246
-6.91561 -4.40477 0.925558
-6.91556 -4.49049 0.928271
8.72956 8.79733 1.40386
-6.95318 -3.85397 0.91191
-6.9177 -4.07139 0.9097
-6.91719 -4.15511 0.91741
5.84784 -5.77466 0.949887
-6.92994 -3.41669 0.900384
-6.94112 -4.373 0.952034
-6.91071 -4.44458 0.953661
-6.90424 -2.83014 0.875023
-6.88581 -3.61744 0.910694
-6.97069 -4.13541 0.953783
-6.91714 -4.20421 0.948484
8.50206 8.04158 1.38882
-6.91994 -2.98312 0.909127
-6.89825 -3.97063 0.955927
-6.88135 -3.65647 0.946172
-6.92512 -4.12726 0.987302
-6.91094 -4.31099 0.998593
-6.47178 -5.36093 1.02742
6.00329 -5.95237 1.03309
-6.90972 -3.75266 0.974887
-6.90803 -3.91739 0.986456
-7.01403 -4.7418 1.05625
-6.93745 -4.38908 1.03606
-6.86978 -3.47913 0.975624
-7.0812 -2.17078 0.946574
-6.8869 -3.08305 0.968016
-6.90561 -3.16066 0.977198
-6.14736 -5.48851 1.0739
-6.92675 -3.23109 0.999506
-6.38205 -4.36399 1.0186
-6.79886 -3.78493 1.03125
-6.88593 -4.18549 1.06926
-7.05232 -2.13555 0.984382
-7.00256 -2.33626 0.993295
-6.90918 -3.26711 1.02099
-6.90846 -3.54006 1.03924
-6.91612 -3.39419 1.0524
-7.03367 -2.16169 1.0226
-6.93238 -3.18018 1.05606
-6.90228 -3.26385 1.05562
-6.84998 -3.65041 1.07143
-6.90586 -2.94601 1.04948
-6.87132 -3.41115 1.07076
-6.88663 -3.75514 1.10347
-6.93577 -3.23662 1.08244
-6.00511 -4.49189 1.06708
-6.89047 -3.58518 1.11562
7.68183 6.33597 1.4395
5.19263 8.32659 1.41966
-6.89415 -3.49339 1.11903
7.2973 -3.52121 1.17618
-6.88613 -3.27976 1.11293
-6.88262 -3.3915 1.11902
-6.86634 -3.20092 1.11459
-7.16723 -1.75384 1.08762
-6.91774 -2.94248 1.11652
-6.92321 -3.02988 1.121
7.12055 5.60574 1.40332
-6.3778 -2.2853 1.05108
7.05419 5.16709 1.39566
-7.01526 -2.41119 1.19343
-6.46387 -2.82089 1.15043
3.78287 7.92765 1.44822
-6.3114 -2.26196 1.11306
-6.48033 -2.29019 1.17087
-6.14954 -2.28047 1.14248
2.55658 7.39063 1.48344
7.83013 -8.52031 -10.1716
7.95756 -8.8032 -10.3859
7.68948 -8.74713 -10.1343
8.18854 -8.32051 -10.0003
6.93898 -11.4616 -10.9788
8.14058 -8.26785 -9.52048
6.94275 -11.8768 -11.1703
8.01843 -8.40495 -9.23231
7.96333 -9.15781 -9.44898
8.23346 -8.6931 -9.31033
7.85203 -8.97872 -9.09762
8.29355 -8.70229 -9.12212
6.31854 -13.9692 -11.4441
7.48329 -9.41358 -8.98818
7.92002 -9.07475 -8.9178
6.21512 -14.3317 -11.5063
6.25741 -12.8553 -10.5073
9.22266 -8.8263 -9.34822
9.20773 -8.98239 -9.36239
5.95471 -12.7127 -10.1872
5.89197 -13.0842 -10.2757
9.35516 -8.98339 -9.28053
9.21151 -9.02534 -9.16072
6.90942 -11.1877 -9.32866
5.60492 -12.9398 -9.97971
6.50322 -10.989 -8.78328
8.44379 -8.82826 -8.34426
11.7479 -9.96889 -10.3437
8.24123 -8.62503 -7.89561
7.43109 -9.27036 -7.83618
8.24591 -8.78151 -7.94702
9.16017 -8.78426 -8.35644
7.60512 -9.3251 -7.86018
12.0903 -10.0977 -10.2528
4.66414 -15.791 -10.6467
9.18061 -8.8218 -8.18794
5.00789 -15.3488 -10.4087
7.75774 -9.30274 -7.75374
8.25119 -8.47256 -7.56248
0.353348 15.6954 -10.0126
4.73679 -15.1272 -10.0927
10.8844 -9.57244 -9.21831
7.9168 -9.07822 -7.63467
8.16318 -8.49655 -7.43613
4.7184 -15.7615 -10.3367
-0.392376 13.6114 -8.51464
8.83761 -8.80361 -7.70392
4.22576 -18.6808 -11.8286
7.91979 -9.05764 -7.42878
8.26987 -8.57305 -7.35585
4.26073 -15.4055 -9.79021
8.2217 -8.64349 -7.29444
4.24818 -18.1552 -11.3724
0.155879 15.063 -9.17521
3.75685 -17.8496 -11.0403
4.17495 -15.7599 -9.85873
7.04916 -10.8236 -7.75269
8.05438 -9.21259 -7.35099
4.19723 -16.5787 -10.1927
8.29426 -8.67027 -7.14876
9.4109 -9.00183 -7.76151
7.01786 -11.0673 -7.79444
7.7316 -9.26714 -7.16398
9.06246 -8.81587 -7.49243
8.00068 -9.16759 -7.12095
8.5819 -8.77586 -7.16523
9.69905 -9.15574 -7.77479
6.77167 -13.3317 -8.63271
9.24549 -8.97697 -7.44291
5.79488 -13.3694 -8.41016
6.88672 -10.8703 -7.4173
9.55954 -9.10844 -7.51948
11.9343 -10.2357 -8.8773
10.7873 -9.48102 -8.0798
6.88419 -11.107 -7.33565
9.14191 -9.08704 -7.22876
9.25726 -9.02483 -7.2294
12.6096 -10.5262 -9.17538
4.65282 -14.3681 -8.44272
10.2 -9.38654 -7.74927
8.52977 -8.70854 -6.7858
2.74405 -17.3162 -9.6722
14.7511 7.54425 -9.05845
2.71004 -19.8793 -10.9131
2.42618 -8.79328 -4.94749
2.97475 -19.8885 -10.8665
14.7216 7.6675 -8.91376
2.3635 -20.1979 -10.7999
10.9566 -9.60923 -7.75325
9.78228 -9.03455 -7.0525
14.9125 7.48298 -8.82993
2.36171 -8.8114 -4.82155
1.65656 -19.8176 -10.2722
2.38648 -20.8522 -10.7657
13.9266 -11.1276 -9.13564
-9.30104 -2.60677 -4.91732
11.3366 -9.81745 -7.61726
2.17253 -20.2782 -10.2783
0.853728 17.5033 -8.71485
10.9913 -9.64298 -7.28996
-8.87234 -1.95169 -4.45636
2.21136 -20.2203 -9.98777
3.85203 -9.18898 -4.89432
11.2556 -9.65844 -7.26165
1.99607 -19.9033 -9.77753
-8.4257 16.1702 -8.84244
2.50345 -11.2018 -5.49224
1.99526 -21.1222 -10.103
14.8749 7.60358 -7.88743
17.3126 16.2146 -11.2187
17.6682 16.9285 -11.3688
14.3379 -11.3382 -8.47694
9.8039 -2.60969 -4.70301
17.2432 16.229 -10.9416
9.75143 -2.46811 -4.65379
-10.3158 16.9386 -9.04146
-9.5748 -2.07461 -4.44335
9.85298 -2.60701 -4.62651
10.1835 -2.39802 -4.73915
9.75974 -2.97721 -4.61859
-5.4017 4.45305 -3.15654
8.0842 -8.32048 -5.23123
17.8048 17.3484 -11.1618
17.6761 17.5197 -11.1878
19.1737 5.83262 -8.99102
7.13835 -10.8958 -5.8037
20.3016 5.33034 -9.32687
9.56009 -3.42108 -4.51478
-9.96642 16.3826 -8.51666
-5.35281 4.90544 -3.21681
19.276 5.56868 -8.86973
-11.3801 17.3504 -9.13224
17.9498 17.8038 -11.0853
-6.57293 15.0704 -7.21878
9.58743 -3.59906 -4.46307
20.0413 5.43114 -9.00325
18.0893 18.3527 -11.11
17.8815 18.5014 -11.09
14.8415 7.5953 -7.10664
3.85835 -9.3464 -4.28648
-11.3184 17.2185 -8.70787
-13.4958 3.30557 -5.85754
1.26446 -21.4765 -9.01539
3.2505 -10.1882 -4.47444
14.1631 7.62906 -6.72666
18.6601 19.4792 -11.2843
3.86607 -9.17739 -4.14758
14.7871 7.70992 -6.91804
18.3371 19.5472 -11.1299
13.9987 7.73233 -6.57722
3.99921 -8.46896 -3.83974
6.77144 -10.8488 -5.23874
-13.4265 2.52552 -5.59209
14.9462 7.49077 -6.81482
-8.0716 15.6178 -7.14853
1.19035 -10.6055 -4.33485
0.757339 -21.7555 -8.81642
-12.9849 2.35191 -5.30979
-9.32451 -1.43969 -3.76725
-5.08252 5.64033 -3.01071
2.83376 -11.7544 -4.7695
14.1849 -11.1914 -7.06413
4.09688 -9.44532 -4.03596
1.52115 19.1131 -7.45047
3.94098 -13.1524 -5.30855
18.9623 5.79689 -7.64223
0.884143 -26.2828 -10.0411
4.74786 -8.6722 -3.75302
11.7105 -10.1387 -5.88641
19.3208 5.56348 -7.62159
20.087 23.8138 -11.6343
19.9108 5.40758 -7.69847
20.3837 23.7583 -11.6648
3.26208 -10.8427 -4.22494
-13.1677 17.7345 -8.15102
11.877 -10.0794 -5.72806
20.3025 5.18294 -7.68192
20.9718 25.0711 -11.8736
-8.18275 -2.8215 -3.13593
19.2417 5.70846 -7.22634
2.28133 -13.2339 -4.83207
0.810915 15.7561 -5.65468
-4.31289 14.0614 -5.24546
-8.23682 -2.80469 -3.10475
6.7367 -10.5201 -4.43555
-16.1244 18.6319 -8.71162
15.9338 -12.0321 -7.07425
-11.1841 16.8617 -7.07437
19.2831 5.87906 -7.00066
3.71668 -8.66821 -3.25316
-8.87906 16.1481 -6.27159
2.98688 -13.4781 -4.70907
18.8913 -13.5137 -7.94702
33.9498 -21.034 -13.5754
-15.0593 18.449 -8.03927
20.023 5.44041 -6.9566
36.8227 -20.7942 -14.1236
40.4216 -19.8934 -15.0161
16.4139 7.36242 -5.99296
3.4498 -10.2652 -3.61107
1.34829 -10.9232 -3.63832
-6.3136 15.0647 -5.3284
-12.8019 17.5596 -7.07386
15.7431 -12.0989 -6.46016
6.04239 -9.84478 -3.71301
3.34114 -10.1378 -3.42311
-1.13962 -23.863 -7.63016
2.32487 -11.0304 -3.59122
3.23289 -10.0625 -3.34949
2.82675 -9.04118 -2.98746
13.607 -10.7594 -5.45271
-18.109 19.5754 -8.35091
-8.71389 -2.65414 -2.8531
28.5458 -15.6583 -10.2152
1.36911 -21.4964 -6.65131
19.6692 25.4652 -9.69798
3.22426 -9.86941 -3.13053
3.45101 -8.97959 -2.8955
-14.4793 18.1098 -6.93732
-21.561 20.1076 -8.7328
-8.01445 15.5865 -5.15769
4.77281 -11.9899 -3.7807
4.15109 -8.92399 -2.89361
2.07343 20.4898 -6.04703
-4.36906 14.6976 -4.49276
4.05794 -8.95982 -2.87599
-15.4062 18.536 -6.95135
-32.6974 -46.726 -16.3132
7.13012 -11.1025 -3.76473
2.54531 -9.47764 -2.78234
-8.4135 -2.20386 -2.45202
4.43646 -11.0123 -3.34753
-2.47815 -24.9875 -7.0358
-9.34601 16.1175 -5.13208
4.35898 -11.2483 -3.32623
8.57199 -8.36107 -3.29042
-13.1865 17.57 -6.01388
45.2749 -15.0108 -13.003
-8.73285 -2.44268 -2.45544
-24.6373 20.6788 -8.70102
3.24434 -9.97242 -2.83432
3.39625 -9.97712 -2.8469
-4.28934 -30.8305 -8.35669
-27.0644 20.7569 -9.09248
42.3941 -13.987 -11.7989
45.645 -13.2131 -12.5731
-8.62148 -38.8008 -10.4715
-8.39781 -39.5975 -10.6689
-14.5676 18.2558 -6.06183
9.82789 -8.93739 -3.47216
11.3002 -10.034 -3.92598
-10.7211 16.7296 -5.14126
-4.3186 -28.3059 -7.43819
3.26009 -9.85623 -2.68395
3.51747 -10.2928 -2.81513
-26.4762 20.9897 -8.66675
4.27266 -11.0422 -2.99593
4.39967 -9.67272 -2.68061
9.46197 -9.1504 -3.31834
6.90271 -11.3421 -3.33265
-27.4642 21.1917 -8.66781
43.6583 -12.7083 -11.3464
-11.6101 17.1066 -5.13169
11.79 -10.1528 -3.84596
3.36261 -10.2285 -2.64963
-24.7512 20.7916 -7.90839
9.95795 -8.99304 -3.22828
-7.90984 15.4324 -4.16365
4.04293 -11.9453 -3.03908
15.0407 7.5543 -4.0273
3.37754 -11.1013 -2.7823
3.16378 -9.86759 -2.46991
-6.82014 -39.002 -9.42251
-11.3421 -43.5679 -10.6732
3.96601 -9.08628 -2.34514
-29.1755 21.8038 -8.60517
14.8511 7.60101 -3.90684
-9.5156 16.4383 -4.46162
3.92128 -11.3062 -2.81728
-12.9359 17.6371 -5.11229
-26.6876 21.1765 -7.91242
3.47829 -10.3044 -2.49406
11.0213 -9.4619 -3.35226
15.612 -11.7693 -4.47907
-37.863 26.79 -10.6072
-12.6973 -44.2013 -10.4814
10.8913 -9.52305 -3.30986
-11.9757 -43.0417 -10.1349
-6.21847 -31.5326 -7.31333
40.4512 -12.5057 -9.59496
-27.3017 21.0915 -7.78477
14.6694 -11.384 -4.17556
-31.0786 22.5755 -8.62022
4.44564 -5.80002 -1.64032
5.28848 -9.16769 -2.3683
-28.8099 -74.3216 -17.6241
-9.72144 16.2753 -4.17632
-13.1564 -45.1773 -10.3526
4.10163 -9.76511 -2.3311
13.424 -10.8288 -3.80289
4.00352 -9.16725 -2.20007
40.8253 -12.0732 -9.32394
-23.7174 20.6742 -6.86196
3.38991 -10.0876 -2.28376
4.39247 -9.88776 -2.34129
14.9248 7.50221 -3.58807
-29.2189 21.8632 -7.84527
-21.4426 -33.9964 -8.63514
-8.43575 -35.7257 -7.85071
-24.6506 20.7908 -6.8719
-31.3609 22.7785 -8.24945
3.2442 -9.91839 -2.22724
4.86812 -8.85336 -2.1427
14.7379 7.69563 -3.51847
4.22551 -10.4779 -2.40451
41.4935 -10.8133 -9.08718
-10.6237 16.6424 -4.16619
4.33343 -9.13818 -2.12149
3.15146 -9.12383 -2.0002
5.15166 -9.03791 -2.1797
14.7441 7.41898 -3.43847
-38.4899 25.3457 -9.59346
-27.3957 -25.402 -7.72243
3.02365 -9.46192 -2.06492
-28.9205 -30.4968 -8.65949
-19.9818 -31.2005 -7.62901
3.85023 -9.3208 -2.08104
3.73417 -8.72878 -1.94868
-15.75 18.6249 -4.99317
-25.3138 -67.0965 -14.7188
3.98459 -8.77364 -1.97057
-14.0057 3.06398 -2.92933
-33.7304 -23.8386 -8.42282
-28.2268 -77.9693 -16.878
-11.4023 -36.7177 -7.81849
43.632 -9.52892 -9.07219
14.8956 7.60985 -3.35129
-17.8662 -23.6677 -5.95882
12.3199 -10.0678 -3.19973
-19.1832 -54.8767 -11.6015
4.17547 -10.7428 -2.29897
-12.1326 17.398 -4.2141
-26.3851 20.7611 -6.65548
-35.66 -21.1103 -8.23844
-32.3913 -25.2968 -8.14513
-9.31178 -36.0969 -7.42231
14.5003 -11.4321 -3.65867
4.02546 -9.81404 -2.09119
3.2218 -9.84838 -2.03151
-35.9381 23.7463 -8.37127
-23.5387 -56.6773 -11.8613
-16.1802 -46.719 -9.42847
3.4851 -8.89792 -1.83021
-20.3813 -33.009 -7.3652
-32.1861 -25.1192 -7.69833
-29.2036 -25.9319 -7.35172
-22.2782 -55.0514 -11.2347
3.88122 -9.08053 -1.88087
-16.898 -46.0883 -9.18623
3.43867 -9.21255 -1.81568
-32.6584 -24.3759 -7.41866
-31.4664 -26.98 -7.55419
-33.2695 23.4227 -7.33479
-20.5008 -50.7213 -9.76074
-31.4386 -25.3255 -7.10043
-24.7428 -64.0638 -12.0972
-34.5456 22.9893 -7.26612
-16.7922 -47.3535 -8.80908
3.40027 -9.55815 -1.7733
14.0585 7.80236 -2.78799
-35.3256 24.2067 -7.42776
-29.0464 -25.4581 -6.71749
3.47047 -9.50501 -1.7549
4.79437 -8.65032 -1.71401
-27.0717 21.2542 -5.94814
-30.9843 22.5355 -6.60847
-31.2355 -28.7702 -7.32743
3.88399 -9.99515 -1.85037
13.9103 7.49878 -2.71503
-23.9516 -55.0336 -10.2067
-20.8 19.7905 -4.84502
-31.6925 -25.1901 -6.86489
-20.0064 -49.6016 -9.06852
5.59821 -11.7302 -2.19485
42.0499 -11.8762 -7.40791
-18.4421 -49.2192 -8.84869
41.1841 -10.7154 -7.1587
4.99307 -10.7147 -1.96803
6.67847 -11.0969 -2.18825
-10.4278 16.5793 -3.17824
-30.4976 -23.6081 -6.28496
42.431 -11.3948 -7.14996
-22.2864 20.245 -4.88407
-20.7059 -51.2262 -8.77447
-23.0829 20.2956 -4.84842
-24.3099 20.7237 -4.97038
-33.1923 23.3812 -6.282
3.80877 -10.0891 -1.65736
-32.2856 -24.9634 -6.23803
-13.9414 -42.0589 -6.80608
-31.3396 22.8074 -5.89255
-23.0844 -55.5578 -9.1617
-7.70335 15.5992 -2.62377
-33.5376 -23.5688 -6.17584
-32.8049 -24.1175 -6.16944
-27.9404 -26.2155 -5.76585
-33.3982 -24.0378 -6.17187
-31.552 -25.2568 -6.0416
-35.0016 -23.3784 -6.24817
-25.0201 21.0031 -4.81605
-33.3223 -24.9361 -6.13346
-32.2842 -24.448 -5.98026
-25.6928 21.1717 -4.87073
-12.6524 -41.9277 -6.41942
-12.6788 17.3436 -3.09536
-7.71689 15.4393 -2.46187
3.50307 -9.54537 -1.44687
38.3176 -12.602 -5.73743
-33.6594 -24.7945 -5.91392
-30.7837 -24.4657 -5.53402
-30.2626 -25.5244 -5.57486
-20.7867 -50.0857 -7.55665
-6.88096 15.2473 -2.27149
-14.0743 17.982 -3.09803
-11.8478 -41.4729 -5.87309
-7.46168 15.1231 -2.265
-24.6662 -64.2107 -9.30625
-22.5336 20.4924 -4.05671
-24.9942 -56.6516 -8.22752
-31.5139 -24.3271 -5.25507
45.2043 -10.4165 -6.10069
44.5772 -9.79947 -6.01277
-13.5808 -42.2052 -5.82687
6.62109 -10.9121 -1.67883
-15.0948 18.489 -3.10669
-22.9425 20.2068 -3.96349
-32.8253 -24.5055 -5.27371
10.7001 8.77596 -1.78614
-33.8909 23.3028 -5.28099
-29.905 22.7562 -4.73735
-31.1283 -24.371 -4.98751
-12.8763 -36.6346 -4.91011
9.65045 -9.03201 -1.64948
12.7585 -10.427 -2.07456
-34.0194 23.8649 -5.19649
-36.2985 -22.614 -5.32643
-30.7931 -25.452 -4.96417
6.76288 -10.2853 -1.53639
-33.1298 -23.4172 -5.02747
-13.747 -42.8881 -5.53969
13.1492 -10.9617 -2.10161
41.6593 -10.8273 -5.31501
-16.2729 18.7337 -3.03344
-16.0614 -38.9305 -5.14821
-8.79911 15.7308 -2.19572
43.5251 -10.0263 -5.40849
14.9666 7.81296 -2.02756
9.39586 -8.91539 -1.54634
-33.9392 -23.6797 -4.90732
-17.9628 19.5229 -3.10458
-20.8489 9.22617 -2.70169
-31.9258 -24.7165 -4.76198
-25.9972 -58.9001 -7.56463
11.2606 -9.6868 -1.73925
42.0074 -11.2456 -5.12063
14.6618 -11.3842 -2.13377
14.8938 7.65567 -1.90369
-30.1264 22.9109 -4.31799
7.24865 -11.0074 -1.4958
-10.3147 16.4687 -2.1767
9.42678 -9.29352 -1.47369
12.7376 -10.4618 -1.83814
13.9293 -10.9942 -1.97409
9.43071 -9.09467 -1.45423
7.0406 -10.4263 -1.37829
44.4965 -9.71814 -4.95765
-10.9674 16.4749 -2.13459
-33.4094 23.5585 -4.43995
11.6812 -9.81412 -1.64756
6.16004 -12.6676 -1.48192
7.53621 -11.5358 -1.43411
9.82338 -8.88339 -1.39354
-15.5158 -44.8357 -4.97449
16.5016 -12.2202 -2.15379
-30.9288 -62.1375 -7.20017
14.8367 7.47098 -1.69757
-31.2198 -24.8809 -4.10092
13.784 -10.9061 -1.80154
-31.9866 -24.7426 -4.09188
14.8238 7.74509 -1.68018
-12.7419 17.0401 -2.09121
-20.6033 -52.238 -5.44185
-33.1566 -66.9798 -7.15571
-23.5517 20.6023 -2.95663
-31.0798 -25.4609 -3.81942
-31.059 -25.7992 -3.84848
-21.9423 -57.4165 -5.79621
-14.162 18.1219 -2.15318
-31.3411 -24.5198 -3.71398
-15.8393 -43.1424 -4.28168
-14.0471 -43.6605 -4.27854
9.79325 -9.07718 -1.24093
-33.694 -65.6339 -6.79769
8.54181 -8.63883 -1.10319
16.4349 -12.2455 -1.87533
-15.0671 18.4829 -2.1396
-35.9869 -22.3831 -3.83541
-33.3573 23.5516 -3.5968
-31.1384 -25.1215 -3.53591
13.9926 -11.129 -1.58733
-32.2578 -19.6574 -3.22336
11.0167 -9.66811 -1.24823
-26.8307 21.7637 -2.90204
-11.4374 -35.5978 -3.16013
9.37282 -8.987 -1.09038
-34.0826 23.4329 -3.43686
8.66427 -8.66587 -1.00666
16.6967 -12.177 -1.68836
-16.8568 -43.8022 -3.77241
-21.6401 -49.5025 -4.22951
-15.3999 -38.0181 -3.2517
-13.411 -37.6284 -3.17415
9.17662 -8.91788 -1.00549
11.2506 -9.75291 -1.16745
14.8062 -11.581 -1.48842
-30.1371 22.9819 -2.94955
-29.3382 -13.6944 -2.51546
11.8193 -10.0131 -1.20084
-23.4149 -52.1475 -4.37883
12.7317 -10.5678 -1.25372
-41.6622 -79.041 -6.46722
9.92032 -9.10472 -0.975991
10.873 -9.70547 -1.01597
-33.3541 -20.7061 -2.71613
11.9129 -10.0122 -1.07763
14.6538 -11.5377 -1.29647
-15.6529 -39.5523 -2.89531
-15.2634 -40.3786 -2.95962
18.4873 -13.3607 -1.51452
-23.4487 20.5306 -2.06865
-25.1467 -58.0087 -4.18157
12.8272 -10.5519 -1.11054
-14.7803 -41.0052 -2.83314
15.2135 -11.4868 -1.23891
-32.8607 -66.5322 -4.66084
-15.1551 -46.9746 -3.06766
-33.0713 23.3626 -2.47823
-33.3086 -65.8693 -4.49345
-17.1445 -41.7624 -2.75314
30.718 -20.3659 -2.24396
41.7705 -10.8928 -2.62088
36.2988 -8.75159 -2.26244
-15.2823 -41.0299 -2.64582
-27.1591 22.042 -1.98317
-29.0669 -14.3104 -1.87237
-15.9923 -41.6624 -2.48963
16.8235 -12.5532 -1.17608
-27.2323 -16.3874 -1.71112
42.3539 -9.4343 -2.23171
-9.41067 -12.5742 -0.797381
-15.578 -41.458 -2.20647
5.68881 -12.4158 -0.678652
-14.2836 18.1072 -1.12475
-15.2998 -48.0894 -2.47898
14.8399 7.78542 -0.80719
-16.5001 -42.2937 -2.15813
-14.754 -47.9845 -2.3693
18.6335 -13.2206 -1.09515
-17.437 -50.5685 -2.49575
36.5857 -8.98566 -1.76537
-28.9675 -14.8125 -1.45592
-24.7156 -56.633 -2.74088
-16.7081 -41.1097 -1.97587
9.63167 -9.08887 -0.590476
12.5603 -10.3092 -0.729385
43.9754 -10.0621 -2.00631
-14.2126 -43.232 -1.9375
-32.9958 23.3252 -1.68267
-54.129 29.3972 -2.45678
-34.0502 23.4329 -1.51647
-19.1037 -49.9581 -2.00801
-34.7617 -21.89 -1.46859
9.71854 -9.04442 -0.488133
6.58693 -10.801 -0.439021
-13.2058 -39.3679 -1.37492
7.43216 -13.0454 -0.512843
18.5286 -13.1233 -0.766984
-27.0324 -59.2054 -2.14363
-13.4929 -38.2795 -1.31548
20.9669 24.1821 -1.02743
-23.2702 20.6587 -0.979866
-21.1377 -54.1245 -1.8024
20.9272 -14.271 -0.770094
-27.7128 -14.2613 -0.944847
-13.1729 -42.1583 -1.3136
-24.2413 20.5978 -0.9135
-24.0344 -55.3126 -1.71601
-17.7869 -48.1398 -1.48087
22.4567 -10.1059 -0.743297
-34.6173 -21.0924 -1.12136
-9.80491 -12.864 -0.462031
-23.2251 -54.771 -1.67972
17.9498 -13.3722 -0.569818
29.9903 50.0477 -1.51111
-30.2939 23.1138 -0.97943
-31.4619 23.0119 -0.963786
-27.3229 -13.1285 -0.742935
9.53915 -8.97672 -0.31704
-20.9971 -33.8201 -0.928481
-40.4713 14.0385 -0.936393
21.1263 -14.1357 -0.539748
18.3567 -13.2342 -0.424593
12.7707 -10.4915 -0.275347
-7.29265 15.7857 -0.304413
-33.3004 10.5311 -0.577124
-28.39 -13.5192 -0.497874
-37.2554 -21.2165 -0.651418
-18.3305 -44.9359 -0.75117
-7.94732 16.7134 -0.251363
-32.7025 -24.4297 -0.566123
-34.0628 -23.2209 -0.527758
-35.4157 -71.5593 -0.989974
17.2245 -12.8511 -0.260717
18.1454 -13.0646 -0.283521
28.7684 -17.7394 -0.451055
-21.723 -55.6372 -0.725001
-30.479 23.2374 -0.408541
-37.7737 -21.1155 -0.477982
-28.1513 -60.069 -0.706766
-18.8265 -43.1809 -0.504578
-53.8024 29.4853 -0.510143
-34.1541 -60.2493 -0.638603
-20.3271 -53.3103 -0.542363
37.2789 -9.00614 -0.352483
-14.3941 18.2698 -0.163244
-36.0238 -80.2219 -0.602461
-18.1245 -43.9604 -0.324125
9.54664 -8.98308 -0.0407913
14.7383 7.7587 -0.0281738
-29.5172 -13.1677 -0.0585261
-11.7117 -17.0518 0.0250905
-12.9196 -19.446 0.044322
-18.8894 -43.3603 0.194898
9.41316 -8.96207 0.05927
-33.0264 23.3728 0.210538
-22.1161 -55.8333 0.290323
-30.3232 -14.0735 0.200684
16.7554 -12.2253 0.115976
-13.1726 -20.1969 0.157194
14.6456 -11.4085 0.146112
-53.5786 19.1963 0.50401
7.05526 -12.1224 0.117744
15.9216 -11.7981 0.168243
-36.6581 -22.1829 0.449373
37.9601 -7.80208 0.403571
-35.4904 -22.241 0.476981
-12.6891 -35.047 0.434644
-13.1693 -35.4135 0.457459
-11.306 -32.5562 0.419019
-9.71834 -30.069 0.382138
25.3303 51.2894 0.745789
9.55857 -8.99063 0.169677
-12.85 -19.9121 0.322518
-10.9952 -33.3768 0.481008
8.54327 -8.48703 0.182592
6.25751 -12.8017 0.207512
7.12211 -10.9748 0.199719
9.31516 -9.03037 0.187405
8.00435 -9.08227 0.193631
9.69355 -8.97556 0.217637
37.4428 -8.02206 0.628353
-24.1084 20.6743 0.569239
-33.4017 -22.4727 0.692589
-34.7203 -25.4741 0.754015
12.8582 -10.563 0.272677
13.167 -10.6201 0.317033
-9.93202 -12.5928 0.302721
6.79958 -11.1437 0.254563
7.95986 -9.35489 0.241547
25.8587 53.2042 1.18629
6.9483 -10.9215 0.260249
9.14937 -8.65696 0.26763
11.4802 -9.86753 0.331761
17.1666 -7.66766 0.378536
7.18169 -10.8963 0.295378
-9.46721 -12.2219 0.390956
-12.8573 -19.7375 0.562562
7.61997 -9.27717 0.273493
7.80295 -9.33147 0.282426
-25.9099 21.7768 0.879551
-29.068 -9.32157 0.766031
9.58656 -8.91973 0.336889
17.3874 -12.7018 0.542898
18.2132 -13.1146 0.558213
-23.2039 20.3154 0.803883
-28.029 22.1517 0.933029
-29.0804 -8.72802 0.794883
-33.3524 -17.7836 1.02644
-13.4242 -20.2711 0.646029
14.6811 -11.4071 0.496114
22.6066 -3.28921 0.64298
-12.2549 -19.1089 0.656569
24.8167 -4.70127 0.73526
16.1402 25.0478 0.893498
-28.2034 -20.7771 1.03641
7.1931 -11.2675 0.401405
6.93596 -10.6512 0.387155
14.5463 23.6962 0.854067
-7.6292 -8.8157 0.356485
12.9663 -10.6098 0.511652
-7.32642 -9.52221 0.367953
-28.7053 -8.10223 0.992628
-11.9417 -17.4562 0.708107
7.84182 -9.31452 0.40293
16.0363 10.9562 0.695808
10.8118 -9.41435 0.520858
11.8371 -10.0012 0.564717
22.2571 44.8186 1.88
-7.45505 -8.13917 0.412547
9.61363 -8.92425 0.48977
22.6743 -3.18349 0.879132
25.9338 53.6094 2.30665
-7.4559 -9.89628 0.484615
10.3859 -9.47239 0.55148
12.6636 -10.4589 0.663661
21.4412 -2.62784 0.880814
-29.3237 -17.79 1.40233
8.70671 -8.66757 0.507812
-6.92913 -8.47251 0.47047
9.40038 -8.89249 0.541037
12.5681 14.4274 0.845319
-29.0473 -8.5249 1.33037
14.5635 18.969 1.07514
14.7993 25.4813 1.31344
21.1271 41.5449 2.0619
6.13223 -13.6627 0.667854
10.7957 -9.47116 0.649586
18.387 -1.6318 0.844637
19.0307 36.235 1.92015
14.736 25.9637 1.40023
-11.217 2.78219 0.556741
-7.25176 -9.5587 0.578592
9.13185 -8.95046 0.605678
11.3474 -8.70594 0.669856
19.9945 -2.29128 0.969612
11.548 11.7689 0.819077
15.6744 37.6955 2.00745
7.72957 -9.42065 0.599881
10.1411 -9.23616 0.679342
14.3634 24.3563 1.4163
19.6496 38.1042 2.17668
20.8766 -2.60065 1.0699
-7.41315 -8.51676 0.5858
9.34824 -8.90058 0.672213
16.4727 24.156 1.53636
16.2152 29.3962 1.75267
12.9381 -10.6644 0.89096
10.4753 12.2457 0.862138
14.0574 19.0817 1.27351
11.0247 -9.55961 0.789135
14.8362 19.3302 1.34417
-26.5447 20.3481 1.82836
-6.97489 -8.18303 0.594856
10.1723 12.2982 0.894046
-7.2712 -9.38666 0.665009
9.91064 12.3459 0.918431
-28.0089 19.7191 1.94567
6.06837 -12.816 0.811978
11.0986 11.9977 0.939633
-6.88801 -6.79795 0.56132
11.1881 11.9304 0.963301
-6.81571 -8.4221 0.648458
6.2139 -12.4909 0.815292
14.4733 19.257 1.44882
13.922 22.7622 1.59202
13.1226 30.3271 1.98351
-6.16438 6.56558 0.553291
-8.1786 -7.74955 0.68155
-7.12505 -8.17375 0.665963
5.68814 -12.3705 0.823456
-7.48918 -6.89519 0.633359
6.97128 -11.1072 0.810982
6.95621 -10.513 0.786902
11.2866 -9.74263 0.920942
12.0687 -10.096 0.975198
16.1225 7.14029 1.12369
14.7199 19.0686 1.52437
-7.24425 -6.31342 0.623321
10.2209 -9.33501 0.893447
-7.38598 -6.266 0.635429
11.3892 12.0179 1.12837
9.39092 21.1408 1.57534
-7.28345 -9.66806 0.808723
11.5451 12.5217 1.1686
-6.96098 -4.46093 0.568787
-6.7606 -8.21103 0.725379
-6.70471 -4.43705 0.554662
9.23841 -8.83253 0.889905
9.9638 -7.81729 0.892217
12.5871 15.8643 1.46446
-6.67601 -6.66848 0.655701
9.77653 -8.25584 0.9358
11.3396 16.9554 1.53366
11.2631 17.9565 1.58359
9.47143 18.027 1.53577
8.88426 19.2 1.59129
7.19875 21.4552 1.70135
10.6375 18.361 1.61677
9.98196 -7.57342 0.958149
-7.03617 -7.19745 0.771325
-17.2531 -6.25788 1.43517
9.44302 -7.6555 0.953058
9.20867 18.3924 1.62355
-6.3851 -4.26346 0.608798
-6.83881 -8.23087 0.848387
4.83063 -5.72841 0.59585
8.88429 19.5458 1.70303
7.64577 18.6939 1.62401
5.02354 -5.78981 0.617674
12.6903 11.4511 1.38523
11.6948 11.7473 1.35749
6.70826 -9.3584 0.936074
12.1495 11.6207 1.38214
6.56237 19.2643 1.66587
-6.36126 -4.39133 0.630074
-7.17374 -9.49446 0.97673
11.4632 12.0095 1.37382
10.4132 9.10968 1.17826
-5.05054 -11.5229 1.06274
6.11826 -6.03845 0.75045
9.19123 -7.16028 1.00218
-6.80239 -6.69998 0.811252
10.3528 12.269 1.40155
8.77306 -7.31022 0.992779
10.7495 12.1175 1.4178
-7.31928 -7.7747 0.936175
8.16969 -7.2731 0.971264
10.1296 12.3813 1.43826
-7.08061 -7.75171 0.930938
-6.9478 -8.35213 0.97507
10.5201 12.2288 1.46495
10.4152 13.4349 1.54028
-7.12709 -8.34017 0.99939
11.1473 10.7674 1.42571
-6.31924 -4.23439 0.699587
-6.87127 -8.60606 1.00763
-6.3332 -4.39773 0.710849
11.0268 8.50965 1.30722
10.5821 9.27675 1.31229
6.41167 15.2307 1.55433
10.439 11.2303 1.45102
-11.2628 2.8861 1.09886
6.1499 -5.95792 0.816413
7.98766 -6.62184 0.996667
10.6823 9.14757 1.36544
9.45552 12.4415 1.51325
9.64022 12.3714 1.54536
7.60571 12.1636 1.42516
7.84373 13.1123 1.52102
11.17 8.02116 1.40166
7.07843 12.5958 1.45828
8.99929 11.2779 1.46824
6.93156 13.4193 1.54583
5.80508 13.7937 1.53641
9.14093 10.4211 1.43285
8.96518 12.2137 1.57431
11.335 7.62217 1.42509
9.19806 9.94734 1.41074
4.96964 -5.81533 0.821312
-6.85266 -4.66069 0.874334
5.51584 13.742 1.57176
-7.06629 -4.5113 0.89421
8.8714 10.6298 1.48671
-6.77433 -6.78402 1.02562
5.90341 -5.82689 0.896078
9.64344 8.49047 1.38507
8.91288 9.30917 1.38632
9.20231 10.2584 1.49431
4.72553 13.6953 1.56362
4.23003 -8.04487 0.98469
6.41993 10.7405 1.37707
-6.80795 -3.9287 0.865357
6.29614 11.8053 1.48457
-6.90203 -3.86691 0.876627
9.67014 7.17512 1.3467
6.62028 11.2986 1.45856
9.7654 7.00164 1.35006
5.38935 11.4889 1.43496
5.39197 11.9893 1.48489
4.65817 12.1221 1.46942
9.79636 6.65834 1.35009
-6.89906 -4.56843 0.947816
7.39543 -6.2206 1.10164
-7.34037 -0.786504 0.846743
-6.28111 -5.39593 0.953831
5.24623 -5.56496 0.882591
8.83723 7.85646 1.37775
4.415 -7.17818 0.976355
10.3793 5.13841 1.35645
8.92116 7.76092 1.39013
5.19771 -5.60864 0.903506
8.56566 7.88457 1.38156
8.85881 9.01231 1.47867
-7.0563 -5.6579 1.07033
10.1097 4.73387 1.33017
-6.92586 -3.85581 0.955309
9.10957 6.12379 1.33144
5.17004 11.3325 1.51005
-6.90029 -3.06873 0.91782
-6.88463 -3.25491 0.921137
4.87883 -5.95001 0.939258
5.96873 -6.12376 1.04128
9.34349 5.60434 1.34701
8.43029 7.19724 1.37065
-6.95792 -4.31521 1.00878
-6.88929 -4.53995 1.01708
8.22145 8.54656 1.47142
4.99242 11.2275 1.52582
-6.55781 -5.62427 1.07534
3.70647 -7.56977 1.05046
8.46887 7.71152 1.43334
6.07323 -5.61312 1.03695
9.13658 6.04107 1.38819
-6.14106 -5.41884 1.03363
8.51948 6.5907 1.37377
8.05662 7.48022 1.39863
-7.10866 -1.78486 0.937744
-7.02093 -2.30847 0.944163
-6.45262 -5.32465 1.06757
8.80153 5.64273 1.34046
8.12083 8.01175 1.47043
-7.2719 -1.25469 0.94656
-6.90528 -4.12338 1.04002
7.40729 6.20069 1.25128
8.04874 7.01512 1.3846
7.93519 8.0909 1.46867
-6.91735 -2.82909 0.973244
-6.91864 -2.96912 0.973621
4.52121 10.0122 1.44379
8.97371 4.09993 1.29875
-7.25557 -1.60791 0.97695
6.83342 -4.25535 1.06998
4.92662 -5.94173 1.02343
-7.3414 -1.11842 0.994356
-7.0213 -2.20157 0.984616
-7.0585 -2.27091 0.990902
-5.99998 -4.40195 0.99474
5.18485 -6.56035 1.11452
6.90403 -4.17225 1.08611
8.04262 7.14281 1.45735
-7.15874 -1.72001 0.990123
-7.08979 -1.9577 0.989557
8.7685 4.84093 1.36051
8.30507 5.85417 1.38165
-6.92818 -3.62279 1.06561
8.84341 4.15045 1.34006
3.31707 10.425 1.49766
-7.32075 -1.20126 1.01587
-6.01525 -4.44527 1.02893
-5.99574 -4.54418 1.03017
7.14118 -3.93045 1.12047
8.04383 6.46329 1.42724
5.3269 9.00342 1.4487
-6.38815 -4.32548 1.05788
4.93188 -5.52469 1.02889
7.17874 -3.82626 1.13226
7.55188 -3.68258 1.16265
3.592 9.96474 1.47493
3.40575 10.2475 1.50548
-7.37735 -1.08333 1.04133
-7.08057 -2.00576 1.02587
4.97135 -5.28665 1.01457
7.24031 -3.73432 1.14461
7.35637 -3.66895 1.16605
7.86417 -3.353 1.21548
-7.16178 -1.87657 1.05325
-7.01479 -2.94868 1.10302
-6.01306 -4.37718 1.06994
7.89872 -2.78002 1.22527
8.21194 4.60908 1.37984
4.96833 8.51114 1.44449
8.34912 4.49604 1.40163
7.82442 -2.33898 1.20395
7.1262 5.67283 1.36412
2.93977 9.38328 1.47016
-7.10047 -2.0214 1.1068
7.47909 -3.10774 1.22107
8.20875 4.5366 1.42181
5.76483 7.41395 1.4262
5.27064 7.60375 1.4099
5.10576 7.91044 1.4302
5.05884 8.01778 1.43493
7.32974 -3.16808 1.21972
7.67452 -2.75441 1.24179
-6.76175 -1.68419 1.04998
7.82638 -2.25532 1.24912
7.21696 5.41263 1.38537
-7.11002 -1.95421 1.14462
-6.92601 -2.78836 1.16079
6.79769 5.51374 1.37305
-7.36306 -1.0969 1.16316
-7.15095 -1.82587 1.15625
-7.05288 -2.06939 1.15204
-7.12754 -1.87422 1.15691
-6.9011 -2.93684 1.17773
4.79285 7.43156 1.40646
3.44607 -6.03159 1.10931
-7.28313 -1.30074 1.18559
3.52793 -5.70747 1.081
3.56488 -5.61297 1.07041
7.06438 4.76186 1.3884
4.64708 7.35497 1.41603
-7.07763 -2.02538 1.20015
-7.09975 -1.94878 1.2085
6.95987 4.82282 1.40053
3.80407 7.90271 1.45213
6.05267 -3.31899 1.14999
6.62823 4.86926 1.37146
4.64991 7.14683 1.42238
3.83627 -5.30038 1.09977
7.10096 4.42183 1.40867
7.47223 2.85723 1.35211
6.31471 5.27885 1.39511
-7.28672 -1.25705 1.25962
6.74994 4.08099 1.35477
-6.45566 -2.77405 1.19927
5.50946 -3.62968 1.13343
5.69071 -3.51855 1.1488
2.74404 7.82 1.43279
-7.38074 -1.0407 1.29268
5.33376 -3.78341 1.13999
-6.31555 -2.26133 1.16361
-6.27588 -2.41849 1.17804
4.28108 -4.66462 1.10723
4.49399 -4.47718 1.11283
4.59165 -4.44899 1.12171
-6.80724 -1.73416 1.23786
4.32457 6.48808 1.39103
-7.1673 -0.929297 1.29233
-6.14841 -2.25933 1.16717
6.63755 3.69089 1.36158
6.09721 4.35984 1.35973
3.60879 -5.32761 1.17028
5.14256 5.67956 1.40154
2.50761 7.17567 1.42786
6.48421 3.05177 1.35514
-1.70658 -5.78321 1.14149
6.42677 -1.38606 1.24751
6.27295 2.7778 1.32098
6.21852 2.38155 1.32867
-4.46417 3.95044 1.40213
4.32393 3.53342 1.33572
4.20973 3.29117 1.32296
4.66513 -1.67773 1.24493
4.81863 -1.38092 1.25404
-2.15302 4.82486 1.32067
3.72748 -2.95335 1.22261
3.67361 -2.54989 1.19385
3.4072 -2.96223 1.22607
4.00154 2.56766 1.32874
-2.59402 -3.53366 1.25097
-2.32539 -3.56966 1.21625
3.75231 2.05639 1.30095
3.72904 1.97883 1.3004
-2.85016 3.49532 1.39196
-2.29552 -2.41846 1.18727
1.95672 -2.78293 1.21366
-2.12793 2.7736 1.32856
-2.03265 2.76162 1.33473
2.25191 -1.87061 1.22597
2.38119 -1.49886 1.22291
-2.01826 1.87962 1.29857
-2.06354 -1.44243 1.22838
1.45078 -2.07171 1.24657
-1.99156 -1.08735 1.21449
-1.92418 -0.707419 1.22014
-1.92594 -0.703216 1.24574
-1.95527 -0.344259 1.22925
-1.89221 -0.564501 1.2301
-1.89184 -0.530722 1.2352
8.21235 -8.69139 -7.45853
12.0956 -10.2619 -8.77853
-8.83258 15.7682 -7.01384
20.3801 24.8171 -11.5351
-8.81692 -2.52503 -2.58432
-34.7668 -23.2244 -7.72345
-34.3565 -22.4683 -6.05699
-34.087 -23.165 -6.12028
-31.4186 -20.1499 -2.80689
9.26766 -8.82722 -0.391068
-7.78149 16.7731 -0.456159
-29.6307 -11.4661 0.732027
-6.92926 -8.28164 0.461299
16.5234 23.7268 1.57109
11.3068 15.9016 1.61397
-6.70244 -6.67545 0.884653
4.18989 12.1575 1.48189
8.6946 9.05667 1.46862
7.97149 -8.76304 -10.3784
8.83074 -8.53845 -10.4959
6.95597 -11.9357 -11.5127
6.87161 -11.3489 -10.8945
8.1515 -8.26379 -9.53164
7.02128 -12.0281 -11.3254
7.06531 -10.9719 -10.4552
8.00125 -8.37678 -9.20286
6.72692 -11.2838 -10.2881
6.44465 -11.6963 -10.2124
7.7567 -8.84991 -8.97147
6.2049 -14.3154 -11.8073
8.29748 -8.69981 -9.10019
6.29939 -11.9085 -10.1749
6.14706 -12.0875 -10.1123
7.49039 -9.44432 -9.00028
7.90878 -9.05533 -8.92613
10.4618 -9.44485 -10.4828
6.12024 -14.1146 -11.3715
6.10187 -13.6699 -11.0066
6.13087 -12.5763 -10.2908
9.19295 -8.82243 -9.34704
9.28075 -9.06904 -9.46426
5.86461 -12.5049 -10.0338
9.3566 -8.98576 -9.25832
6.86031 -11.124 -9.27552
5.61546 -12.9701 -10.0036
9.68654 -9.07608 -9.40746
7.60813 -9.34313 -8.47157
9.99133 -9.18131 -9.53298
10.9107 -9.48777 -10.1458
11.4322 -9.69138 -10.0653
8.38352 -8.60683 -7.95478
7.43008 -9.2979 -7.86416
8.16632 -8.71723 -7.89539
7.62709 -9.35084 -7.89481
7.83593 -9.40094 -7.84393
8.31942 -8.53421 -7.61897
0.360406 15.8801 -10.1343
7.52674 -9.32301 -7.62523
10.9029 -9.60033 -9.23673
7.22438 -10.6998 -8.17126
8.15426 -8.49645 -7.42681
4.61329 -15.4078 -10.1154
8.71251 -8.69968 -7.61778
7.92051 -9.03151 -7.40982
4.04874 -18.0216 -11.3779
8.1968 -8.62659 -7.27495
4.08667 -17.311 -10.8534
0.146231 14.8856 -9.05726
6.65337 -11.2608 -7.96342
7.74176 -9.26712 -7.32689
10.1187 -9.30607 -8.34181
6.81955 -11.2498 -7.89775
8.05929 -9.20312 -7.34323
11.2591 -9.68837 -8.88085
5.40051 -13.8568 -8.82056
7.73402 -9.26509 -7.1574
9.34754 -9.03022 -7.70148
6.90106 -11.1136 -7.74276
7.98224 -9.12674 -7.11466
9.74794 -9.183 -7.80485
14.8244 7.40753 -9.62409
8.66492 -8.82865 -7.1481
6.93161 -10.9627 -7.45439
2.63985 -11.2122 -6.62479
7.85866 -9.07028 -6.87352
9.60009 -9.1354 -7.52792
10.7855 -9.48887 -8.10396
3.27997 -20.6025 -11.7322
6.79999 -10.9807 -7.24082
10.0998 -9.28544 -7.68327
12.3257 -10.3423 -9.02324
9.23653 -9.00378 -7.20784
4.61494 -14.291 -8.37258
8.00204 -9.21431 -6.77799
14.7465 7.53913 -9.09209
9.69213 -9.10209 -7.30234
0.837367 17.4691 -9.55009
2.74191 -19.8598 -10.9318
11.1212 -9.63728 -7.99018
4.23182 -14.4173 -8.13374
14.6601 7.66646 -8.91059
15.0442 10.3868 -9.815
13.9967 7.72167 -8.5409
10.9412 -9.60966 -7.74389
13.2459 -10.7867 -9.08717
3.04418 -19.3356 -10.29
11.3449 -9.81559 -7.63339
2.1688 -20.3855 -10.3473
10.2523 -9.3341 -6.97212
14.2472 -11.269 -9.12064
13.7838 -11.1488 -8.87525
10.9968 -9.64538 -7.28763
7.5052 -9.33366 -5.9313
3.56258 -8.46702 -4.52711
-8.71436 -1.91337 -4.38659
2.22388 -20.1684 -9.95199
4.53113 -9.29766 -5.05843
0.404165 13.6578 -6.6883
7.60414 -9.26565 -5.84917
-8.53972 16.2978 -8.9116
-9.21629 -2.43644 -4.59334
14.9665 -11.5576 -9.08744
19.3288 5.53033 -9.61411
-10.3335 -2.55843 -5.03526
1.90963 -20.56 -9.81854
17.1482 16.1145 -11.1443
7.57689 -11.2018 -6.38135
19.9779 5.39235 -9.74451
14.0055 -11.0885 -8.30724
2.92765 -17.3248 -8.17016
19.3063 5.71226 -9.30093
17.8001 -12.9722 -10.1742
9.85229 -2.48855 -4.69509
20.2318 5.12795 -9.62938
17.2727 16.2424 -10.9249
1.81037 -20.2314 -9.29611
9.66339 -9.03619 -6.05824
-9.22626 -1.67467 -4.27653
9.44075 -3.46412 -4.58006
6.70705 -11.3067 -5.9798
9.89947 -2.61479 -4.64417
19.1993 5.85442 -9.03611
17.6536 17.5104 -11.1771
9.35706 -3.08232 -4.43438
15.3968 -11.8477 -8.71858
7.03026 -11.5509 -6.04841
7.14479 -10.9069 -5.81198
9.54675 -3.40028 -4.51607
-10.0666 16.5001 -8.60538
17.6094 -12.8517 -9.68773
19.485 5.61308 -8.98724
16.0676 7.28797 -7.81244
17.7598 17.9382 -11.1629
16.3891 -12.1889 -9.00233
-11.3325 17.233 -9.06599
-6.60217 15.0886 -7.22151
-5.24897 4.92332 -3.13573
20.0807 5.45221 -9.04582
9.54569 -3.40055 -4.37316
18.1504 18.3962 -11.1066
15.7873 -12.1492 -8.5723
14.8309 7.41531 -7.07628
3.8365 -9.29716 -4.27326
-11.2546 17.1175 -8.67297
6.93736 -10.8956 -5.44668
-13.6273 3.33969 -5.91142
0.743375 -22.4056 -9.44712
15.7741 -11.9436 -8.27464
-5.1794 5.70344 -3.22349
0.998984 -22.2691 -9.34438
1.23185 -20.7893 -8.72466
14.1415 7.58442 -6.71147
18.4776 19.2558 -11.1497
3.78086 -8.95043 -4.05192
14.7428 7.71472 -6.92583
17.8502 19.064 -10.8373
-9.52999 -1.09378 -3.95982
4.00586 -8.49947 -3.84974
14.0085 7.73499 -6.56873
6.83681 -10.9756 -5.2867
-13.6654 2.55276 -5.68704
-8.0274 15.5517 -7.11232
19.1727 20.833 -11.4694
15.0443 7.22875 -6.72467
-5.31173 14.5069 -6.19427
13.9262 -11.01 -6.95352
1.53035 19.2177 -7.48702
-8.82081 15.9312 -7.07685
18.9469 5.77811 -7.67469
-1.7595 13.3333 -5.20926
5.29201 -9.38752 -4.15596
-2.39426 13.5567 -5.28765
19.4957 22.5526 -11.43
4.65825 -8.51136 -3.68485
19.3718 5.55737 -7.66855
0.877657 -26.5829 -10.1076
14.8743 -11.4622 -7.06718
19.9289 5.39911 -7.72746
9.43153 -3.43624 -3.75287
0.53384 -22.7314 -8.47321
3.24569 -10.7853 -4.208
20.0906 23.3735 -11.4451
0.909931 -8.72482 -3.25308
14.001 -11.088 -6.58575
20.3355 5.1721 -7.71476
17.8152 17.6034 -9.15186
-13.0772 2.291 -4.82684
20.7343 24.7599 -11.7122
2.28523 -13.2491 -4.84381
13.0117 -10.5224 -6.02173
0.796035 15.4271 -5.52698
-8.21163 -2.80227 -3.10349
0.410137 -21.893 -7.82723
-4.25029 13.9502 -5.18756
0.638588 -21.9622 -7.80787
15.8209 -11.949 -7.02732
-15.8959 18.3769 -8.56353
5.92359 -11.3292 -4.49523
-11.1343 16.8027 -7.04061
0.0933954 -18.5465 -6.51936
14.2371 -11.2832 -6.35219
20.2905 5.34368 -7.32355
0.658027 -23.0873 -7.97637
-5.06008 14.6901 -5.32391
3.63779 -8.44484 -3.1652
4.87379 -9.02807 -3.51579
-14.658 18.1982 -7.99878
2.27434 -10.8834 -3.81036
-8.97716 16.2852 -6.33925
3.02411 -13.6829 -4.77781
-15.1381 18.5804 -8.1252
20.1088 5.46731 -7.00408
21.9136 27.1083 -11.6492
35.8797 -20.2543 -13.7693
-5.3571 14.2096 -5.04405
1.91111 20.7036 -6.89844
1.26736 -10.2486 -3.41446
-5.3036 14.6043 -5.04694
-12.7204 17.4144 -6.99626
18.513 -13.1922 -7.38245
3.55896 -8.67067 -3.00505
6.21469 -10.1046 -3.80185
2.31315 -11.0068 -3.57923
-4.59823 -34.5372 -11.0736
-1.1441 -23.9639 -7.63639
14.9812 10.3177 -5.74044
-13.3511 17.7662 -7.02488
-18.1912 19.6209 -8.41131
6.95418 -11.0827 -4.04518
1.3867 -21.9308 -6.79771
-2.59208 -27.6044 -8.51008
7.14289 32.9846 -10.2979
0.771105 15.0173 -4.56717
-11.2536 16.9798 -6.14016
-2.72123 -26.7162 -8.08678
-14.5 18.1296 -6.92719
-5.3429 -35.0318 -10.5508
0.840019 -25.1344 -7.5192
-5.44916 14.9883 -4.7444
2.07669 20.6542 -6.11558
-21.5126 20.0589 -8.67826
18.1709 5.78238 -5.61267
-4.33822 14.5724 -4.47096
-8.01061 15.5414 -5.13012
4.25351 -9.13841 -2.96266
4.63293 -11.6087 -3.65482
-12.6542 2.22921 -3.69292
-33.4409 -47.3693 -16.6843
-15.3607 18.4791 -6.90818
6.95072 -11.0704 -3.76336
2.56284 -9.54267 -2.8075
12.9144 -10.4534 -4.72839
-8.46204 -2.46272 -2.49899
20.9514 27.0203 -9.68659
-8.58986 -2.26397 -2.51018
-2.57481 -26.2709 -7.40726
-13.0623 2.00163 -3.68006
4.38424 -11.3202 -3.36949
-9.40967 16.1825 -5.13963
-13.1981 17.6022 -6.0432
-5.45069 14.548 -4.2467
-8.61665 -41.8431 -11.6879
-21.7066 20.2563 -7.98193
-9.83443 16.3078 -5.10392
-27.011 20.7494 -9.06165
11.4061 11.4798 -4.26974
4.32327 -11.2861 -3.20182
46.8153 -13.6092 -12.9156
-8.31548 -39.2405 -10.5423
4.08702 -8.65213 -2.51962
11.1571 -9.92374 -3.90625
-14.6068 18.2891 -6.08654
6.53113 -10.4154 -3.18205
3.17651 -9.64151 -2.62436
-30.5254 -44.7076 -13.9783
-4.40876 -28.9162 -7.56731
3.53863 -10.3652 -2.82421
4.06581 -9.38169 -2.62811
15.5762 -11.7122 -4.97259
-7.23419 15.4122 -4.30986
-31.9591 -42.6215 -13.5086
4.30821 -11.1351 -3.0219
4.25325 -7.70105 -2.23903
6.53014 -10.6518 -3.11602
44.5244 -13.4615 -11.5975
-28.5847 21.5661 -8.85299
-11.6522 17.1192 -5.10547
-27.937 -40.754 -12.1484
-10.0324 -39.487 -10.0489
-24.7446 20.7834 -7.94146
4.34642 -10.3235 -2.75213
-12.1909 17.4621 -5.16399
-7.92832 15.4479 -4.18552
10.2635 -9.25775 -3.30958
40.0539 -13.3049 -10.0999
15.0854 7.54433 -4.0152
-6.39664 -36.6308 -8.85729
3.96329 -9.08213 -2.34804
46.6877 -12.4955 -11.471
-12.3529 -45.4823 -11.164
4.19803 -8.98232 -2.36537
3.85396 -11.0538 -2.75909
4.90519 -8.68757 -2.34706
-12.913 17.5974 -5.07999
10.9939 -9.63447 -3.34111
-6.25989 -31.7431 -7.38191
-27.4433 21.1959 -7.86055
41.281 -9.02786 -9.58959
-30.8324 22.3859 -8.54287
-35.7355 -23.4184 -9.57311
40.482 -12.5143 -9.51389
5.44985 -9.46604 -2.43875
-12.4429 2.83919 -2.80037
40.3556 -11.8261 -9.29149
42.3142 -12.0735 -9.68116
-5.43843 14.2695 -3.33937
13.3683 -10.7573 -3.77702
37.8478 -12.163 -8.73973
-23.6308 20.5955 -6.79965
-30.3029 -74.7089 -17.4926
4.30539 -9.69042 -2.29955
4.53512 -9.17216 -2.21015
-14.7289 18.3507 -5.02543
-31.2756 22.718 -8.25439
-32.1657 22.8268 -8.43165
-28.9431 -76.7898 -17.5889
-10.8009 16.8773 -4.2491
-8.55523 -36.3156 -7.93326
3.18723 -9.67599 -2.17245
3.96204 -9.81897 -2.25767
45.476 -10.5436 -9.9652
14.9181 7.47223 -3.53705
-15.3105 18.8473 -5.14139
5.15962 -9.04718 -2.18819
26.3654 38.1467 -9.68953
14.9573 7.82785 -3.50474
-30.3864 -23.4676 -7.96445
-34.0306 -87.2557 -19.3885
-11.5644 17.0389 -4.18498
-15.7763 18.6528 -4.97372
-35.572 23.8785 -8.70608
44.13 -9.62564 -9.21098
-13.4756 -43.3604 -9.22771
4.13146 -9.72398 -2.14964
11.5871 -9.63206 -3.06576
-12.1164 17.388 -4.2309
-20.349 -58.4013 -12.3591
-13.1625 -40.8878 -8.50364
4.06541 -9.91071 -2.121
-34.3949 -23.5189 -8.21384
-26.9968 21.1881 -6.75461
-33.418 -23.9044 -8.0091
-6.96182 15.3841 -3.27802
-27.1581 -63.8125 -13.4699
-33.8256 -22.5188 -7.83061
3.43234 -9.35278 -1.92386
45.5556 -10.5549 -8.97964
-12.8693 17.5708 -4.16383
3.98521 -9.3357 -1.93719
-36.7412 -22.3176 -8.13745
-21.5016 -34.9288 -7.80026
-15.8504 -45.7343 -9.15791
37.6816 -12.4303 -7.50115
-36.3431 24.409 -8.19338
-33.9652 -23.4571 -7.75428
-32.9095 -24.0779 -7.65439
-21.7196 -53.8081 -10.9176
-17.1691 -46.6358 -9.21768
3.81751 -9.20038 -1.8399
42.3013 -11.4009 -8.13572
5.75193 -9.70319 -2.06734
-25.0122 -56.7157 -11.3479
-20.8138 -51.661 -10.0731
-14.6954 18.3182 -4.16438
-31.3509 -25.2852 -7.1592
-20.4605 -27.2642 -6.09557
-39.8067 25.1185 -8.30498
-27.0068 21.2055 -5.97663
-34.4347 23.5634 -7.24479
3.90514 -10.0387 -1.86786
4.76832 -8.60618 -1.70988
13.9762 7.5056 -2.73595
14.0489 8.06188 -2.77397
-31.1265 22.6347 -6.59797
41.9826 -11.8778 -7.42818
41.7828 -10.8214 -7.34762
-31.5079 -25.0233 -6.82541
-21.2526 20.2404 -4.92856
-20.7663 -51.6166 -9.40026
14.8303 7.43294 -2.78196
-32.0066 22.6588 -6.55071
-24.0279 -57.2864 -10.2644
43.2921 -11.6625 -7.2877
-10.4447 16.5817 -3.16268
-21.0616 -52.2506 -8.98447
-35.1755 -24.2819 -6.73523
-22.9736 20.1843 -4.78874
-24.3899 20.8207 -4.97028
-40.5167 24.5315 -7.33971
-11.3204 16.9432 -3.14596
3.46854 -9.51921 -1.56696
3.86454 -10.2195 -1.69179
-7.69197 15.6015 -2.65723
-31.3599 22.8245 -5.92919
-32.0116 -24.7249 -6.1506
-28.1646 -26.3448 -5.84234
41.9697 -10.9108 -6.59165
44.5906 -9.71469 -6.95286
-6.60338 14.7084 -2.41272
9.8239 -5.14945 -1.6462
-33.7575 -24.3478 -6.19825
-27.0799 -68.4707 -10.9199
10.1822 -9.15492 -2.04063
44.7295 -10.3476 -6.81825
-36.953 -24.5991 -6.53325
-31.7666 -26.2024 -6.02368
-12.8812 -42.6802 -6.5592
16.8812 -12.2135 -3.05223
-25.6115 21.0867 -4.82134
-25.18 -56.4186 -8.90251
-7.68841 15.3994 -2.46148
-12.8189 17.4779 -3.09049
6.0265 -11.5136 -1.85709
-13.5264 18.0793 -3.1719
-35.0393 23.6698 -5.94496
6.75096 -11.0274 -1.80726
37.4013 -12.3431 -5.53963
-31.3961 -25.1577 -5.61487
-33.3231 23.9476 -5.68482
-20.9519 -50.4977 -7.55087
44.8793 -10.04 -6.34161
-6.93628 15.3402 -2.30103
-23.1413 -60.3954 -8.78572
7.7442 -9.37189 -1.6316
-14.1218 18.0313 -3.08765
13.1954 -10.5244 -2.28389
-22.4121 20.3865 -4.07413
41.8917 -10.8311 -5.74458
44.6063 -9.77058 -6.04422
-22.794 20.0589 -3.97051
-32.9443 -24.6517 -5.3744
-15.0204 18.393 -3.07062
-34.3472 22.9249 -5.36127
-38.6178 -16.306 -5.41242
7.0085 -10.4231 -1.61162
10.7527 8.80351 -1.78421
-34.0672 -23.4769 -5.29456
-31.7313 23.1646 -4.96978
-35.857 -22.3751 -5.29761
41.7573 -10.7991 -5.39775
6.78809 -10.3556 -1.54728
-7.72561 15.4529 -2.13944
-25.2321 21.1869 -4.03452
-33.7137 23.7604 -5.08783
6.28563 -12.0551 -1.65635
44.559 -9.50656 -5.58077
14.9719 7.84387 -2.03198
-18.2332 -44.1601 -5.76079
7.07828 -10.5199 -1.52675
-20.6298 9.14286 -2.67079
-14.5582 -44.038 -5.45349
-32.097 -24.7463 -4.73901
-31.5796 -25.2557 -4.73187
41.8386 -11.2073 -5.09089
11.2169 -9.65974 -1.71506
-30.1541 22.8642 -4.35386
6.63435 -10.8098 -1.45209
7.48233 -9.21213 -1.35759
11.5682 -9.71124 -1.71559
9.44251 -4.60649 -1.18971
14.9505 7.68262 -1.89422
-10.4377 16.6167 -2.21478
-32.4877 23.739 -4.50769
38.6907 -12.7365 -4.56811
9.347 -9.01365 -1.43663
-11.1581 16.7348 -2.18668
6.78186 -12.7681 -1.56619
44.6993 -9.71473 -4.95906
10.7505 8.83425 -1.49946
16.7365 -12.4324 -2.23777
42.0327 -10.9015 -4.65308
9.60872 -8.96905 -1.39263
8.37163 -8.45667 -1.24662
-31.1372 -24.917 -4.15259
-30.7666 -61.7119 -7.19346
14.9474 7.49632 -1.70832
-32.0366 -24.7023 -4.1507
-12.9627 17.6708 -2.2254
-12.8784 17.254 -2.14019
10.196 -9.07771 -1.33741
-21.2515 -53.9709 -5.68653
6.30624 -12.0767 -1.31875
16.6066 -12.1496 -1.97801
41.9219 -11.265 -4.16116
-31.3252 -63.3203 -6.71562
-21.2406 -55.7418 -5.665
-23.5038 20.5585 -2.91924
45.3926 -10.0981 -4.34359
9.70595 -8.97727 -1.22394
39.514 -13.0346 -3.87745
-15.1421 18.5617 -2.16945
-29.8618 -13.6149 -2.99158
-32.9644 -64.2615 -6.65716
15.825 -11.8448 -1.79829
8.6278 -8.71869 -1.11078
12.8704 -10.6238 -1.45334
44.9814 -10.4258 -3.95563
9.39185 -9.01834 -1.09458
10.9376 -9.6319 -1.22509
-34.4711 23.6729 -3.47988
16.8061 -12.2556 -1.72293
-17.1941 -44.7422 -3.83921
14.6548 -11.459 -1.48356
-11.8649 -33.2164 -2.78403
-30.085 22.8752 -2.92282
-33.3958 23.6054 -3.15717
-23.1117 -52.7933 -4.44923
-51.7224 28.1495 -4.4592
-21.562 20.2931 -2.15395
-33.6253 23.7842 -2.98496
16.3438 -12.212 -1.49263
41.9479 -11.2253 -3.16382
-40.2078 -76.0768 -6.21001
13.9496 -11.037 -1.27312
-15.7818 -41.8649 -3.08805
10.7524 -9.60259 -0.987765
-23.5281 20.6009 -2.11211
12.8488 -10.6022 -1.11521
17.9102 -12.9901 -1.47517
16.0074 -12.1078 -1.32565
-14.8806 -41.2579 -2.83721
43.6936 -11.3637 -2.82219
-32.5 -65.8502 -4.48135
35.7024 -8.66141 -2.25479
42.8736 -9.81304 -2.70032
6.03701 -13.0497 -0.859524
30.7683 -20.3593 -2.208
-9.92253 16.5642 -1.13523
-15.7791 -41.1611 -2.51018
16.5737 -12.3862 -1.16186
-9.70966 -12.587 -0.871164
14.9381 7.66378 -0.907635
13.8769 -10.9849 -0.947829
-12.8849 17.461 -1.13353
-16.6934 -41.376 -2.36966
14.8325 7.79935 -0.82121
-16.5238 -42.2369 -2.2255
-14.2611 18.0758 -1.1011
9.55506 -9.01296 -0.602509
-24.413 -56.0005 -2.76457
12.4316 -10.2198 -0.746169
-16.259 -45.3235 -2.138
-17.4517 -42.9975 -1.98686
6.84229 -12.6343 -0.637559
-14.1291 -43.0701 -1.93102
-53.1566 28.9084 -2.45113
18.2916 -13.1412 -0.914192
