ply
format ascii 1.0 
element vertex 1865
comment /media/mkaihara/Seagate Backup Plus Drive/model_iterations/model_27.ply
property float32 x 
property float32 y 
property float32 z 
end_header 
17.7472 16.6248 -11.5078
18.1327 17.3769 -11.6755
14.5675 -11.5189 -8.61038
9.87833 -2.62961 -4.73952
17.6855 16.6482 -11.2297
9.82486 -2.4868 -4.68969
-9.98603 16.3892 -8.74371
-9.48975 -2.05616 -4.40345
9.92833 -2.62706 -4.66269
10.2646 -2.41721 -4.77772
9.83392 -2.99994 -4.65439
-5.34126 4.4022 -3.11896
8.15771 -8.39561 -5.27769
18.2929 17.827 -11.4755
18.1552 17.998 -11.4989
19.5299 5.94127 -9.16095
7.21239 -11.0065 -5.86134
20.6937 5.4335 -9.50968
9.63169 -3.44681 -4.54916
-9.6771 15.8984 -8.26124
-5.28811 4.84493 -3.17546
19.6345 5.67248 -9.03746
-10.9956 16.7576 -8.81566
18.4413 18.2949 -11.3966
-6.39103 14.64 -7.00861
9.66005 -3.62642 -4.4974
20.4248 5.53532 -9.17821
18.6047 18.8791 -11.4345
18.3939 19.0352 -11.4158
15.0873 7.72177 -7.22792
3.88783 -9.41511 -4.31694
-10.9493 16.6502 -8.41637
-13.2883 3.2546 -5.76623
1.26713 -21.3955 -8.98118
3.26942 -10.2417 -4.49716
14.3913 7.75274 -6.83863
19.2199 20.0675 -11.6311
3.89339 -9.2396 -4.17479
15.032 7.83839 -7.03619
18.8872 20.1376 -11.4721
14.2246 7.85793 -6.68699
4.01708 -8.50434 -3.85547
6.84535 -10.9651 -5.29351
-13.2288 2.48823 -5.50872
15.194 7.61563 -6.93123
-7.81653 15.1152 -6.91418
1.19047 -10.5859 -4.32703
0.758101 -21.566 -8.74021
-12.8 2.31836 -5.23322
-9.24383 -1.42722 -3.73427
-5.01204 5.56049 -2.9663
2.84166 -11.7751 -4.77762
14.4231 -11.3788 -7.18076
4.14092 -9.54536 -4.07715
1.52862 19.3418 -7.54393
3.98281 -13.2823 -5.35931
19.3159 5.90524 -7.78733
0.869471 -25.5824 -9.77692
4.78016 -8.72959 -3.77721
11.8721 -10.278 -5.96605
19.6851 5.66859 -7.76778
20.8477 24.7201 -12.0843
20.2937 5.5118 -7.84894
21.1343 24.6379 -12.1036
3.29808 -10.9568 -4.26775
-12.6797 17.0734 -7.84295
12.0466 -10.223 -5.80833
20.6979 5.28406 -7.83381
21.7954 26.0608 -12.3496
-8.1241 -2.80126 -3.11328
19.6046 5.81639 -7.36507
2.29282 -13.2801 -4.84825
0.807752 15.8805 -5.70256
-4.18624 13.6284 -5.08003
-8.17735 -2.78442 -3.08217
6.81105 -10.6346 -4.48256
-15.4947 17.9017 -8.36621
16.2413 -12.2638 -7.20867
-10.7764 16.2425 -6.81047
19.6517 5.99169 -7.13693
3.74473 -8.7319 -3.27624
-8.55498 15.5523 -6.03593
3.02618 -13.6414 -4.76417
19.3372 -13.8325 -8.13211
35.3411 -21.895 -14.1268
-14.4752 17.7305 -7.72234
20.414 5.54683 -7.09468
38.3745 -21.6692 -14.714
42.2462 -20.7907 -15.6894
16.7101 7.49569 -6.10398
3.48346 -10.3611 -3.64358
1.35059 -10.922 -3.6378
-6.09431 14.5304 -5.13531
-12.3139 16.8868 -6.79899
16.051 -12.3352 -6.58452
6.10098 -9.93863 -3.74748
3.36719 -10.212 -3.44728
-1.09394 -23.0359 -7.36943
2.33221 -11.0534 -3.59841
3.26344 -10.1533 -3.37859
2.84286 -9.08868 -3.0026
13.8355 -10.94 -5.54278
-17.3551 18.7587 -7.99891
-8.64691 -2.63373 -2.83108
29.5003 -16.1819 -10.5538
1.35318 -21.1334 -6.54053
20.4815 26.5218 -10.1073
3.25475 -9.95887 -3.15784
3.46583 -9.0145 -2.90648
-13.9038 17.3877 -6.65717
-20.6434 19.2507 -8.35751
-7.70864 14.9857 -4.95488
4.83357 -12.1379 -3.82589
4.18681 -8.99931 -2.91721
2.09751 20.8356 -6.15357
-4.22027 14.1768 -4.32981
4.09014 -9.02908 -2.8975
-14.7854 17.787 -6.66712
-30.3321 -43.3474 -15.1385
7.22988 -11.2568 -3.81559
2.55771 -9.51791 -2.79375
-8.35181 -2.1877 -2.43398
4.49593 -11.157 -3.39
-2.35338 -23.7757 -6.69932
-8.98056 15.483 -4.92636
4.41347 -11.3851 -3.36531
8.66249 -8.44925 -3.32447
-12.6597 16.866 -5.76955
47.3826 -15.7093 -13.6055
-8.66598 -2.42397 -2.43661
-25.6289 -35.5427 -11.9062
-23.5504 19.7656 -8.31417
3.27948 -10.0769 -2.86287
3.43493 -10.0876 -2.87723
-4.0186 -28.9193 -7.84432
-25.8369 19.815 -8.67737
44.2248 -14.5907 -12.3059
47.7645 -13.8266 -13.1545
-8.00643 -36.0555 -9.73645
-7.72864 -36.4626 -9.8311
-13.9614 17.4947 -5.80588
9.95159 -9.04995 -3.51504
11.4602 -10.1757 -3.98045
-10.2894 16.053 -4.92994
-13.0702 2.01941 -3.45844
-4.04801 -26.5543 -6.98349
3.29286 -9.95175 -2.70898
3.55699 -10.4048 -2.84462
-25.2734 20.0355 -8.27034
4.32705 -11.1793 -3.03184
4.45039 -9.78288 -2.71006
9.57641 -9.26087 -3.35763
6.99989 -11.5003 -3.37783
-26.203 20.218 -8.26727
45.59 -13.2705 -11.8462
-11.1369 16.4069 -4.9186
11.963 -10.3014 -3.9013
3.40331 -10.3488 -2.67961
-23.6362 19.8545 -7.54957
10.079 -9.10214 -3.26675
-7.58537 14.7947 -3.9881
4.12355 -12.1802 -3.09674
15.3065 7.68819 -4.10089
3.42916 -11.2665 -2.82216
3.19633 -9.9654 -2.49346
4.8873 -12.7376 -3.28286
-6.29103 -36.0078 -8.70496
-10.3822 -39.895 -9.77956
4.0021 -9.16732 -2.36533
-27.7843 20.7637 -8.19259
15.1152 7.73647 -3.9787
-9.11081 15.736 -4.26758
3.99208 -11.5076 -2.86565
-12.3995 16.904 -4.89689
-25.4486 20.1931 -7.54282
3.50839 -10.389 -2.51379
11.1734 -9.59238 -3.39766
15.9178 -11.9997 -4.56541
-35.6731 25.2402 -9.99133
-11.595 -40.3735 -9.57965
11.039 -9.65195 -3.35386
-10.9126 -39.2282 -9.24323
-5.79918 -29.4213 -6.82861
42.1241 -13.0229 -9.98981
-26.0429 20.1187 -7.42377
14.9361 -11.5907 -4.25021
-29.5449 21.4611 -8.19279
4.46315 -5.82288 -1.64686
5.3435 -9.26237 -2.39199
-25.0397 -64.6031 -15.3274
-9.31515 15.5923 -3.99803
-12.1161 -41.6211 -9.54246
4.15084 -9.88069 -2.35769
13.6546 -11.0148 -3.86707
4.05098 -9.2752 -2.22501
42.5182 -12.5738 -9.70875
-22.6481 19.7417 -6.55043
3.4263 -10.1922 -2.30657
4.44808 -10.0117 -2.36959
15.1907 7.63617 -3.65426
-27.809 20.8081 -7.46481
-20.3018 -32.1886 -8.17838
-7.85305 -33.273 -7.31607
-23.5313 19.8465 -6.55787
-29.7916 21.6385 -7.83479
3.28998 -10.056 -2.25693
4.91515 -8.93819 -2.16258
14.9998 7.8327 -3.58326
4.29171 -10.6407 -2.44049
43.2247 -11.2646 -9.46474
-10.1747 15.937 -3.98678
4.37938 -9.23416 -2.14299
3.16806 -9.16801 -2.00958
5.20651 -9.13367 -2.20205
14.9996 7.54792 -3.50024
-36.3294 23.9228 -9.0532
-26.2974 -24.3838 -7.41406
3.04424 -9.52211 -2.07758
-27.5625 -29.0651 -8.25448
-19.0231 -29.7045 -7.26521
-30.3416 -77.6163 -17.2029
3.89291 -9.42275 -2.10296
3.76933 -8.80984 -1.96612
-15.0781 17.8295 -4.77764
-22.2262 -58.9184 -12.9316
4.02335 -8.85809 -1.98887
-33.9283 22.7214 -8.30114
-13.7882 3.01642 -2.88371
-32.3224 -22.8435 -8.07224
-24.1478 -66.708 -14.4484
-10.633 -34.2484 -7.29642
45.5316 -9.94403 -9.4658
15.1628 7.74665 -3.4136
-17.2339 -22.8305 -5.74934
12.5121 -10.2248 -3.24875
-17.2087 -49.2343 -10.4143
4.23881 -10.9036 -2.33215
-11.6139 16.6528 -4.0311
-25.1751 19.8089 -6.34864
-34.2098 -20.2517 -7.90423
-31.0181 -24.2243 -7.80088
-8.58245 -33.2753 -6.84688
14.7706 -11.6451 -3.72569
4.07624 -9.93632 -2.11628
3.26318 -9.9722 -2.05605
-34.0229 22.4809 -7.92373
-21.168 -50.9726 -10.6723
-14.7319 -42.5415 -8.58999
3.52524 -8.99957 -1.85031
-19.329 -31.3056 -6.98705
-30.8321 -24.0625 -7.37544
-27.9964 -24.8601 -7.04887
-20.0866 -49.6397 -10.1349
3.93332 -9.20234 -1.90513
-15.4296 -42.0867 -8.39291
-23.6556 -53.7548 -10.8059
3.47845 -9.31768 -1.8356
-31.3026 -23.3639 -7.11154
-30.0896 -25.7995 -7.22466
-31.5401 22.2052 -6.95227
-18.6242 -46.0815 -8.87182
-30.1233 -24.2659 -6.80422
-21.8629 -56.612 -10.695
-32.7536 21.7969 -6.88814
-15.2486 -43.0032 -8.004
3.44345 -9.67776 -1.79463
14.3081 7.94114 -2.83957
-33.4206 22.9014 -7.0261
-27.8592 -24.4175 -6.4438
3.51726 -9.63187 -1.77741
4.84397 -8.73963 -1.73112
-25.8055 20.26 -5.66873
-29.4374 21.4104 -6.2774
-29.8155 -27.4625 -6.99532
3.9392 -10.1358 -1.87543
14.1514 7.62903 -2.76412
-21.6252 -49.6908 -9.21956
-19.8815 18.9165 -4.62967
-30.3655 -24.1353 -6.57822
-18.1935 -45.1092 -8.25083
5.69389 -11.9291 -2.23084
43.8617 -12.388 -7.72553
-16.8004 -44.8432 -8.06545
42.8963 -11.161 -7.45497
5.07039 -10.8796 -1.99725
6.79152 -11.2847 -2.22411
-9.96221 15.838 -3.03398
-29.2904 -22.6736 -6.03687
44.2767 -11.8908 -7.45952
-21.2863 19.3365 -4.66369
7.68821 -9.26518 -1.90665
-18.758 -46.4093 -7.95276
-22.0442 19.3824 -4.62916
-23.1945 19.7728 -4.7413
-31.4705 22.1685 -5.95534
3.86851 -10.2462 -1.68218
-30.9333 -23.9178 -5.97739
-12.7903 -38.5897 -6.24773
-29.7551 21.6544 -5.59386
-20.7722 -49.9953 -8.24766
-7.32461 14.8304 -2.49191
-32.1561 -22.5979 -5.92202
-31.4503 -23.1216 -5.91528
-26.7877 -25.134 -5.52866
-32.0101 -23.0386 -5.91593
-30.2332 -24.2011 -5.7897
-33.5368 -22.4 -5.98723
-23.8571 20.027 -4.59134
-31.911 -23.8799 -5.87426
-30.9501 -23.4376 -5.73369
-24.4909 20.1814 -4.64208
-30.426 -25.244 -5.78901
-11.5803 -38.38 -5.8792
-12.1252 16.5859 -2.9586
-7.34337 14.6902 -2.34013
3.54995 -9.67177 -1.46529
39.8587 -13.109 -5.96672
-32.2325 -23.7434 -5.66373
-29.5391 -23.4765 -5.31079
-24.9447 -52.7206 -8.28158
-29.0085 -24.4666 -5.34439
-22.2246 -51.2388 -7.8008
-18.8967 -45.5335 -6.87232
-6.52614 14.4588 -2.15158
-13.4548 17.1904 -2.96037
-10.8145 -37.8603 -5.36427
-7.0952 14.379 -2.15136
-21.7052 -56.505 -8.19268
-21.505 19.5572 -3.87083
-22.4819 -50.9589 -7.40313
-30.2303 -23.3362 -5.04147
47.2792 -10.8949 -6.3795
46.5791 -10.2398 -6.28166
-12.4055 -38.5547 -5.32537
6.72878 -11.0894 -1.70523
-14.4227 17.6656 -2.96722
-21.9087 19.2965 -3.78431
-31.7444 -17.0385 -4.64994
-31.4591 -23.4855 -5.05463
10.8889 8.93142 -1.81979
-32.1235 22.0879 -5.00531
-28.401 21.6121 -4.49876
-29.8685 -23.3847 -4.78605
-11.972 -34.0639 -4.5673
-30.0219 -61.2055 -8.53902
9.77172 -9.14547 -1.66976
12.9698 -10.5997 -2.10822
-32.2136 22.5985 -4.92041
-34.7756 -21.6652 -5.10333
-29.5144 -24.395 -4.75842
6.86027 -10.4333 -1.5578
-31.7816 -22.4642 -4.82324
-12.5319 -39.0991 -5.05253
13.3769 -11.1514 -2.13724
43.4304 -11.2878 -5.53979
-15.5532 17.9053 -2.89843
-14.9412 -36.217 -4.79079
-8.38892 14.9966 -2.09162
45.4444 -10.4686 -5.64589
15.2448 7.95833 -2.06695
9.50979 -9.02341 -1.56468
-32.5348 -22.6998 -4.70459
-17.15 18.6396 -2.96342
-20.2896 8.97884 -2.62945
-30.6076 -23.6958 -4.56567
-23.3171 -52.8304 -6.7868
11.4238 -9.82712 -1.76392
43.8141 -11.7293 -5.33965
14.9416 -11.6015 -2.17371
15.1671 7.79635 -1.94027
-28.6019 21.7518 -4.09935
7.36538 -11.1845 -1.51911
-9.83985 15.7102 -2.07523
9.54953 -9.41457 -1.49243
12.9488 -10.6353 -1.86798
14.1813 -11.1931 -2.00908
9.5501 -9.20982 -1.47222
7.14228 -10.5767 -1.39754
46.4867 -10.1529 -5.17837
-10.4755 15.7359 -2.03781
-31.6562 22.3226 -4.20701
11.8608 -9.96515 -1.67236
6.29524 -12.9449 -1.51328
7.66322 -11.7298 -1.45746
9.94675 -8.99497 -1.41067
-14.1213 -40.807 -4.529
16.8562 -12.4828 -2.19918
-27.6493 -55.5492 -6.43781
15.1068 7.6071 -1.73001
-29.9379 -23.8592 -3.93272
14.0314 -11.102 -1.83321
-30.6659 -23.7209 -3.92311
15.0976 7.88833 -1.71279
-12.1855 16.2961 -1.99928
-18.5784 -47.105 -4.90819
-29.374 -59.3391 -6.34019
-22.4695 19.6559 -2.82082
-29.7878 -24.4023 -3.66075
-29.7557 -24.7165 -3.6871
-19.5493 -51.1558 -5.16529
-13.5253 17.3074 -2.05591
-30.0717 -23.5266 -3.56366
-14.5161 -39.5394 -3.92498
-12.7735 -39.7029 -3.89186
9.9198 -9.19451 -1.2566
-29.9897 -58.4188 -6.05094
8.63919 -8.7373 -1.11548
16.7868 -12.5077 -1.91466
-14.3888 17.651 -2.04296
-34.4982 -21.457 -3.67687
-31.6067 22.316 -3.40848
-29.8557 -24.0865 -3.3903
14.2518 -11.3353 -1.6161
-31.0758 -18.9369 -3.10536
11.1761 -9.80794 -1.26586
-25.5363 20.7141 -2.76238
-10.5976 -32.9847 -2.92885
9.49048 -9.09987 -1.10374
-32.2921 22.2024 -3.25686
8.76481 -8.76645 -1.01807
17.056 -12.439 -1.72393
-15.4447 -40.1332 -3.45683
-19.7224 -45.1165 -3.8549
-14.3111 -35.3304 -3.02211
-12.4182 -34.8435 -2.93965
9.29002 -9.02814 -1.01761
11.4169 -9.89705 -1.18429
15.0966 -11.8082 -1.51695
-28.6057 21.8145 -2.80021
-28.4512 -13.2804 -2.43963
12.004 -10.1697 -1.21917
-21.2387 -47.3013 -3.97195
12.948 -10.7473 -1.27451
-36.2607 -68.7937 -5.62828
10.05 -9.22377 -0.988441
11.0309 -9.84641 -1.03035
-32.0842 -19.9176 -2.61272
12.1003 -10.1697 -1.09416
14.94 -11.7631 -1.32117
-14.4882 -36.6097 -2.67986
-14.0769 -37.2401 -2.72958
18.9347 -13.684 -1.55033
-22.3723 19.5885 -1.97425
-22.5438 -52.0055 -3.74843
13.0456 -10.7316 -1.12897
-13.5862 -37.6928 -2.60422
15.5174 -11.7165 -1.26308
-29.1372 -58.9936 -4.13199
-13.6723 -42.379 -2.76743
-31.3484 22.1459 -2.35005
-29.602 -58.5394 -3.99257
-15.8142 -38.5222 -2.53921
32.0068 -21.2206 -2.33644
43.5604 -11.3596 -2.73228
37.6199 -9.07019 -2.34416
-14.0688 -37.7724 -2.43551
-25.8339 20.9668 -1.88725
-28.1846 -13.8759 -1.81567
-36.8108 -71.1308 -4.55729
-14.7183 -38.3437 -2.29087
17.1989 -12.8334 -1.20166
-26.4034 -15.8885 -1.65906
44.1784 -9.84095 -2.32711
-9.25555 -12.3669 -0.784256
-14.327 -38.1288 -2.02866
5.82691 -12.7173 -0.694507
-13.6375 17.2885 -1.07432
-13.7591 -43.2476 -2.22871
15.1188 7.93183 -0.823608
-15.1881 -38.9315 -1.98582
-13.2391 -43.0582 -2.12532
19.0917 -13.5459 -1.12136
-15.6843 -45.4869 -2.24404
37.9378 -9.31789 -1.83002
-28.0834 -14.3603 -1.41156
-22.1918 -50.8502 -2.45973
-15.4261 -37.9554 -1.82344
9.75771 -9.20793 -0.597978
12.7699 -10.4813 -0.741188
45.9584 -10.5161 -2.09599
-12.9582 -39.4173 -1.76567
-31.2805 22.1131 -1.59649
-50.4047 27.375 -2.28954
-32.2687 22.2073 -1.43854
-17.272 -45.1684 -1.81417
-33.3759 -21.0173 -1.40981
9.84517 -9.16236 -0.494295
6.69642 -10.9807 -0.446006
-12.1443 -36.2036 -1.2633
7.60546 -13.3497 -0.524285
18.9799 -13.4431 -0.78504
-24.226 -53.0595 -1.91923
-12.4731 -35.3867 -1.21497
21.9742 25.3441 -1.0796
-22.1963 19.7057 -0.935845
-21.5263 -53.9312 -1.85689
-19.0285 -48.726 -1.62086
21.5034 -14.6641 -0.790568
-26.9058 -13.8459 -0.91738
-11.9908 -38.3753 -1.19441
-23.1268 19.6512 -0.872778
-21.6305 -49.7805 -1.54246
-16.1075 -43.5946 -1.33944
23.0041 -10.3525 -0.760987
-33.266 -20.2689 -1.07734
-9.6396 -12.6471 -0.454161
-20.9151 -49.3241 -1.51077
18.3826 -13.6947 -0.582969
33.2271 55.4511 -1.67989
-28.7487 21.9353 -0.930996
-29.8571 21.8385 -0.916192
-26.553 -12.7584 -0.722083
9.66041 -9.09088 -0.320916
-19.8755 -32.0136 -0.87777
-38.657 13.4094 -0.895913
21.706 -14.5238 -0.553897
-50.5359 18.2268 -0.993228
18.8037 -13.5566 -0.434387
12.9875 -10.6697 -0.279745
-6.86982 14.8709 -0.287262
-32.0798 10.1453 -0.557302
-27.5618 -13.1248 -0.483404
-35.7348 -20.3504 -0.624535
-16.8049 -41.1964 -0.686698
-7.47542 15.7217 -0.237121
-31.3659 -23.4312 -0.54243
-32.6856 -22.2819 -0.505948
-31.1387 -62.9175 -0.867079
17.6211 -13.147 -0.266251
18.583 -13.3798 -0.289859
29.8441 -18.4028 -0.466962
-19.436 -49.78 -0.646015
-28.9177 22.0475 -0.389427
-36.2198 -20.2468 -0.458009
-25.2605 -53.9021 -0.631338
-17.3649 -39.829 -0.463402
-50.1123 27.4635 -0.477607
-30.8275 -54.3815 -0.573571
-18.2851 -47.9563 -0.485238
38.6947 -9.34838 -0.365389
-13.7374 17.4368 -0.157114
-30.9985 -69.0311 -0.514294
-16.6634 -40.4171 -0.295798
-28.6178 -8.89874 -0.17385
9.66922 -9.09852 -0.0412181
13.3271 15.2527 -0.0428655
15.0168 7.90534 -0.0296562
-28.6408 -12.7767 -0.0568452
-11.4334 -16.6468 0.0249832
-12.5557 -18.8984 0.0437348
-17.4195 -39.9865 0.182232
9.53245 -9.0757 0.0600937
-31.3204 22.1658 0.19749
-19.7902 -49.9614 0.26323
-29.3862 -13.6386 0.194498
17.1258 -12.4957 0.118876
-12.7819 -19.598 0.153296
14.9297 -11.6298 0.1492
-50.4639 18.0807 0.47243
7.20214 -12.3751 0.120302
16.2572 -12.047 0.172082
-35.155 -21.2732 0.431475
39.4105 -8.10038 0.41935
-34.0573 -21.3428 0.458278
-11.8384 -32.6982 0.407761
-12.2986 -33.0736 0.429484
-10.5917 -30.5003 0.39465
-9.12953 -28.2477 0.360933
28.4938 57.6956 0.834802
9.68182 -9.10665 0.171919
-12.4762 -19.3329 0.313948
-10.2541 -31.1278 0.450848
8.64078 -8.58395 0.184688
6.41328 -13.1206 0.212697
7.2429 -11.1611 0.203151
9.43482 -9.14647 0.189859
8.10271 -9.19396 0.19603
9.81896 -9.09176 0.220499
38.8604 -8.32598 0.65249
-23.0067 19.7298 0.541092
-32.0916 -21.5912 0.666072
-33.2335 -24.3831 0.722592
13.0805 -10.7457 0.277548
13.3978 -10.8064 0.322743
-9.76982 -12.3872 0.298028
6.91994 -11.3412 0.259077
8.06178 -9.47477 0.244654
29.1357 59.9498 1.33279
7.0659 -11.1065 0.264664
9.25992 -8.76162 0.270877
11.6568 -10.0193 0.336951
17.4693 -7.80288 0.385294
7.30149 -11.0782 0.300308
-9.31713 -12.028 0.385017
-12.4876 -19.17 0.547281
7.71585 -9.394 0.276931
7.90229 -9.45036 0.28602
-24.6708 20.7356 0.835113
-28.2632 -9.0634 0.744538
9.70912 -9.03384 0.341212
17.7916 -12.9972 0.555785
18.6558 -13.4334 0.572074
-22.155 19.3974 0.765297
-26.6614 21.0712 0.885085
-28.2799 -8.48764 0.772671
-32.1698 -17.1529 0.990372
-13.0287 -19.6741 0.627953
14.9704 -11.6321 0.506066
23.0884 -3.3594 0.656613
-11.9172 -18.5825 0.639373
25.4095 -4.81367 0.752844
17.0145 26.4049 0.940194
-27.2286 -20.0588 1.00126
7.32076 -11.4676 0.408489
7.0475 -10.8226 0.393331
15.3129 24.9452 0.897453
-7.55216 -8.72666 0.352863
13.1929 -10.7953 0.5207
-7.24693 -9.41892 0.364012
-27.9302 -7.88334 0.965451
-11.6459 -17.0238 0.691336
7.94135 -9.43283 0.40801
16.4205 11.2188 0.71162
10.9669 -9.54947 0.528348
12.0246 -10.1597 0.573713
24.6949 49.7278 2.08349
-7.38653 -8.06432 0.408679
9.73704 -9.03889 0.496044
23.1595 -3.25169 0.897874
29.3616 60.6963 2.60875
-7.3697 -9.78182 0.47912
10.533 -9.60664 0.559296
12.8793 -10.6372 0.675023
21.8707 -2.68053 0.898354
-28.3703 -17.2116 1.35719
8.81016 -8.77063 0.513801
-6.86463 -8.39359 0.466066
9.51952 -9.00528 0.547865
12.9478 14.8635 0.869905
-28.2536 -8.29185 1.29367
15.1452 19.7268 1.11697
15.6587 26.9611 1.38835
23.2215 45.664 2.26433
6.31183 -14.0631 0.68705
10.9511 -9.60756 0.658929
18.6977 -1.65941 0.858737
20.6574 39.3327 2.08262
15.6125 27.5083 1.4822
-11.0753 2.74709 0.548656
-7.17201 -9.45353 0.572325
9.24687 -9.06328 0.613258
11.5034 -8.8257 0.679053
20.366 -2.33391 0.987499
11.833 12.0594 0.838489
17.2664 41.5247 2.20985
7.82926 -9.54224 0.607527
10.2794 -9.36229 0.688579
15.1554 25.6995 1.49322
21.4213 41.5407 2.37138
21.284 -2.65145 1.09067
-7.34209 -8.43509 0.580165
9.46632 -9.01308 0.680646
17.3258 25.4072 1.61478
17.3199 31.3992 1.87081
13.1649 -10.8515 0.9066
10.7495 12.5663 0.883931
14.6275 19.8557 1.32419
11.1867 -9.70014 0.800699
15.4387 20.1153 1.3978
-25.3464 19.4298 1.74303
-6.91271 -8.11004 0.589509
10.4416 12.6239 0.916976
-7.19359 -9.28644 0.658
10.1766 12.6773 0.942366
-26.7678 18.8457 1.85668
6.21829 -13.1325 0.831624
11.3796 12.3017 0.962705
-6.83779 -6.74834 0.557034
11.47 12.2311 0.98687
-6.75345 -8.34513 0.642527
6.35741 -12.7794 0.833744
15.0629 20.0415 1.50697
14.6334 23.9257 1.67247
14.1689 32.7458 2.14079
-6.05065 6.4444 0.541607
-8.1033 -7.67818 0.675163
-7.06107 -8.10031 0.65994
5.82247 -12.6625 0.842451
-7.43024 -6.84089 0.628182
7.09178 -11.2992 0.824764
7.06418 -10.6762 0.798908
11.4574 -9.89024 0.934839
12.2636 -10.2591 0.990913
16.434 7.27831 1.14491
15.3091 19.832 1.58457
-7.19236 -6.26815 0.618605
10.3626 -9.46446 0.905753
-7.33249 -6.22058 0.63057
11.6782 12.323 1.15641
9.91937 22.3308 1.66351
-7.20302 -9.56129 0.799938
11.8492 12.8516 1.19877
-6.92129 -4.43546 0.565104
-6.70118 -8.13883 0.718981
-6.66838 -4.41297 0.551219
9.35355 -8.94267 0.90089
10.0789 -7.90768 0.902438
13.0102 16.3976 1.51308
-6.63042 -6.62298 0.651018
9.89366 -8.35481 0.946913
11.7674 17.5952 1.59099
11.7213 18.6872 1.6475
9.89232 18.8284 1.60362
9.33137 20.1666 1.67105
7.68636 22.9093 1.81662
11.0952 19.1511 1.68587
10.0944 -7.65882 0.968848
-6.98126 -7.14122 0.76516
-16.9743 -6.15667 1.41157
9.54605 -7.73906 0.963346
9.63582 19.2458 1.69857
-6.35322 -4.24214 0.605294
-6.77834 -8.15806 0.840876
4.85119 -5.75275 0.598236
9.34183 20.5529 1.79053
8.04962 19.6818 1.70972
5.04637 -5.81609 0.620332
12.9957 11.7267 1.41809
11.9841 12.038 1.39061
6.79241 -9.47583 0.947576
12.446 11.9044 1.41541
6.96133 20.4363 1.76734
-6.32931 -4.36924 0.626457
-7.09662 -9.39236 0.966388
11.7534 12.3136 1.40815
10.6172 9.28827 1.20094
-4.97641 -11.3539 1.04776
6.15482 -6.07452 0.754789
9.28426 -7.23279 1.01221
-6.75452 -6.65282 0.805343
10.6259 12.5927 1.43815
8.86037 -7.383 1.00253
11.0265 12.4299 1.45395
-7.25672 -7.70823 0.928099
8.2466 -7.3416 0.980268
10.4011 12.7133 1.47648
-7.02143 -7.6869 0.923086
-6.88495 -8.27654 0.966264
10.7957 12.5493 1.50299
10.7195 13.8277 1.58498
-7.06195 -8.2639 0.990265
11.4016 11.0132 1.45788
-6.28826 -4.21359 0.695674
-6.80708 -8.52562 0.998269
-6.3016 -4.37575 0.706837
11.2311 8.66747 1.3311
10.793 9.46168 1.3381
6.6891 15.8903 1.62178
11.251 11.1855 1.48061
10.6891 11.4995 1.48548
-11.1201 2.84954 1.08365
6.18631 -5.99319 0.8211
8.05517 -6.67782 1.00495
10.8928 9.32789 1.39204
9.71533 12.7835 1.55461
9.90146 12.7068 1.58703
7.82547 12.5153 1.46626
8.09094 13.5258 1.56891
11.3694 8.16442 1.4264
7.30011 12.9906 1.50396
9.22301 11.5584 1.50456
7.17125 13.8837 1.5994
6.03539 14.3416 1.59771
9.34839 10.6577 1.46517
9.21035 12.5478 1.61725
11.5308 7.75393 1.44945
9.39627 10.1618 1.44094
4.99212 -5.84161 0.824873
-6.81383 -4.63424 0.868925
5.74049 14.3023 1.63623
-7.02515 -4.48498 0.888527
9.07847 10.878 1.52128
-6.72612 -6.73571 1.01813
5.9359 -5.85893 0.900861
9.82119 8.64706 1.41039
9.09305 9.49749 1.41416
9.40711 10.4868 1.52741
4.93582 14.3057 1.63392
4.26814 -8.11721 0.9932
6.59086 11.0267 1.41381
-6.77168 -3.90772 0.860202
6.48764 12.1648 1.52993
-6.86467 -3.84593 0.871329
9.82527 7.29031 1.3681
6.80575 11.6154 1.49954
9.9195 7.1122 1.37115
5.56101 11.8553 1.48102
5.57407 12.3948 1.53545
4.83094 12.5728 1.52456
9.94553 6.7598 1.37045
-6.85995 -4.54247 0.941965
7.44933 -6.26587 1.10952
-7.29489 -0.781623 0.840596
-6.24646 -5.36611 0.948202
5.2697 -5.58981 0.886393
8.98934 7.99179 1.40132
4.44444 -7.22595 0.9826
10.5177 5.20696 1.37434
9.07299 7.8931 1.41364
5.22098 -5.63372 0.907405
8.71373 8.02097 1.40532
9.03236 9.189 1.50753
-7.01079 -5.62135 1.06308
10.2377 4.79384 1.34682
-6.88824 -3.83481 0.949551
9.23833 6.21043 1.3501
5.33544 11.6956 1.55886
-6.86404 -3.05257 0.912338
-6.84843 -3.23776 0.915656
4.90153 -5.97765 0.943461
6.00417 -6.1601 1.0473
9.46896 5.67967 1.36495
8.56449 7.31192 1.39236
-6.91882 -4.29091 1.00259
-6.85041 -4.51426 1.01085
8.37588 8.70723 1.49902
5.15305 11.5894 1.5755
-6.5188 -5.59075 1.06859
3.73412 -7.62602 1.05793
8.6124 7.84232 1.45755
6.1061 -5.64347 1.04242
9.26463 6.12582 1.40752
-6.10798 -5.38959 1.02769
8.64555 6.68833 1.394
8.18962 7.60384 1.42167
-7.06899 -1.77487 0.93169
-6.98308 -2.29599 0.938312
-6.41628 -5.29459 1.06117
8.91829 5.71767 1.35811
8.2641 8.15323 1.49635
-7.22881 -1.24723 0.940068
-6.86735 -4.10067 1.03376
7.51077 6.28742 1.26868
8.17406 7.12446 1.4061
8.07687 8.2355 1.49489
-6.88102 -2.81419 0.967428
-6.8822 -2.95344 0.967808
4.65163 10.3017 1.48607
9.07377 4.14571 1.3131
-7.21346 -1.59854 0.970432
6.86846 -4.27714 1.07536
4.94936 -5.96908 1.02798
-7.29704 -1.11164 0.987432
-6.98337 -2.18965 0.978512
-7.02012 -2.25853 0.984738
-5.97225 -4.38153 0.989632
5.21513 -6.59858 1.12083
6.93969 -4.19377 1.09161
8.17001 7.25607 1.48042
-7.11828 -1.71026 0.983684
-7.05065 -1.94686 0.983279
8.87409 4.8993 1.37679
8.41688 5.93309 1.40019
-6.89097 -3.60328 1.05926
8.9419 4.19674 1.35488
3.43809 10.807 1.5536
-7.27693 -1.19405 1.00888
-5.98722 -4.42449 1.02362
-5.96763 -4.5228 1.02484
7.17918 -3.95134 1.12633
8.16054 6.55717 1.44792
5.44947 9.21096 1.48243
-6.35615 -4.30375 1.05206
4.9519 -5.54706 1.03292
7.21695 -3.84659 1.13819
7.59495 -3.70355 1.16918
3.70857 10.2895 1.52389
3.52536 10.6089 1.55961
-7.33239 -1.0767 1.03405
-7.04166 -1.9947 1.01941
4.99024 -5.30669 1.01829
7.27909 -3.7543 1.15064
7.3966 -3.68899 1.17233
7.911 -3.37293 1.22262
-7.12161 -1.86602 1.0465
-6.97732 -2.93289 1.09641
-5.98525 -4.35687 1.06446
7.94516 -2.79634 1.23239
8.30586 4.66189 1.39558
5.07778 8.69907 1.4768
8.44382 4.54712 1.41748
7.86944 -2.35241 1.21079
7.21827 5.74625 1.38178
3.0372 9.69635 1.52039
-7.06132 -2.01021 1.09986
7.51986 -3.12465 1.22765
8.30176 4.58808 1.43789
5.8656 7.54381 1.45141
5.36871 7.74556 1.43651
5.20682 8.06739 1.45895
5.16127 8.18051 1.46443
7.36837 -3.18473 1.22607
7.71765 -2.76986 1.24869
-6.72641 -1.67535 1.04361
7.87149 -2.26828 1.25624
7.30676 5.4801 1.40265
-7.07068 -1.94336 1.13743
-6.88956 -2.77363 1.15393
6.88324 5.58327 1.39041
-7.31841 -1.09022 1.15513
-7.11091 -1.81561 1.1489
-7.01446 -2.05808 1.14491
-7.08785 -1.86375 1.14959
-6.86496 -2.9214 1.17082
4.88301 7.57174 1.4334
3.45733 -6.05116 1.11274
-7.24017 -1.29305 1.17764
3.53759 -5.72301 1.0838
3.57415 -5.62748 1.07305
7.14376 4.81548 1.40407
4.73432 7.49348 1.44315
-7.03884 -2.01424 1.1927
-7.06056 -1.93798 1.20095
7.0386 4.87749 1.41646
3.8907 8.08344 1.4861
6.07534 -3.33138 1.15423
6.70334 4.92456 1.3871
4.73416 7.27673 1.44869
3.84557 -5.31317 1.10233
7.1767 4.46911 1.42376
7.53655 2.88191 1.36376
6.39115 5.3429 1.41216
-7.24364 -1.24959 1.25119
6.81724 4.12179 1.36835
-6.42516 -2.76088 1.19283
5.52682 -3.64107 1.13694
5.70975 -3.53027 1.15259
2.81657 8.02855 1.4722
-7.33573 -1.03433 1.28377
5.34972 -3.79468 1.14335
-6.2866 -2.25092 1.15742
-6.24754 -2.40751 1.17189
4.29054 -4.67488 1.10961
4.50444 -4.48753 1.11535
4.60282 -4.45976 1.12438
-6.77158 -1.72504 1.23044
4.39578 6.59537 1.41453
-7.12511 -0.923817 1.28367
-6.12155 -2.24942 1.16121
6.69921 3.72528 1.37432
6.15967 4.40465 1.37383
3.61662 -5.33909 1.17271
5.21123 5.75564 1.42064
2.5684 7.35178 1.46419
6.53754 3.07698 1.36639
-1.70326 -5.77145 1.13896
6.45373 -1.39181 1.25274
6.32122 2.79929 1.33124
6.26271 2.39858 1.33823
-4.4172 3.90822 1.385
4.36 3.56315 1.34733
4.24253 3.31706 1.33375
4.67359 -1.68071 1.24731
4.82894 -1.38381 1.25685
-2.11771 4.74164 1.29477
3.72842 -2.95407 1.22307
3.67391 -2.55006 1.19412
3.4061 -2.96125 1.22587
4.02623 2.58374 1.33746
-2.59425 -3.53354 1.25014
-2.32655 -3.57092 1.21589
3.7711 2.06693 1.308
3.74708 1.98863 1.30724
-2.82399 3.46157 1.37608
-2.29791 -2.42052 1.1872
1.94976 -2.7734 1.21
-2.11425 2.75344 1.31656
-2.02 2.74187 1.32283
2.246 -1.86586 1.22344
2.37622 -1.49581 1.22103
-2.01085 1.87111 1.29063
-2.06613 -1.44384 1.22815
1.44402 -2.06297 1.24205
-1.99397 -1.08834 1.21403
-1.92617 -0.707951 1.21927
-1.92787 -0.703715 1.24483
-1.95642 -0.344443 1.22773
-1.894 -0.564888 1.22904
-1.89357 -0.53108 1.23409
8.28223 -8.76436 -7.52025
12.2555 -10.3966 -8.89231
-8.54012 15.2389 -6.77408
21.1619 25.7744 -11.9872
-8.74868 -2.50549 -2.56427
-33.317 -22.2559 -7.4022
-32.9596 -21.5546 -5.81123
-32.6842 -22.2115 -5.86894
-30.2758 -19.4169 -2.70484
9.38193 -8.9361 -0.395732
-7.31475 15.7673 -0.429144
-28.7728 -11.134 0.710701
-6.86696 -8.20718 0.457105
17.3538 24.9196 1.64895
11.6999 16.4545 1.66967
-6.65656 -6.62978 0.878395
4.35627 12.6416 1.54157
8.86631 9.23566 1.49753
8.02905 -8.82488 -10.4508
8.89888 -8.60308 -10.5746
7.00416 -12.0135 -11.5866
6.91875 -11.4225 -10.9641
8.21132 -8.32335 -9.59963
7.06678 -12.1008 -11.393
7.1152 -11.0458 -10.5245
8.06088 -8.43811 -9.26945
6.77428 -11.3592 -10.3557
6.48916 -11.7723 -10.2776
7.81444 -8.91436 -9.03596
6.24756 -14.4046 -11.8795
8.36368 -8.76804 -9.17067
6.34265 -11.985 -10.2391
6.18679 -12.1599 -10.1718
7.54984 -9.51759 -9.06895
7.96794 -9.12148 -8.99056
10.5727 -9.54391 -10.5913
6.15555 -14.1866 -11.4286
6.13138 -13.727 -11.0521
6.17135 -12.6529 -10.3524
9.27629 -8.90143 -9.42968
9.36516 -9.15036 -9.5481
5.90353 -12.5814 -10.0939
9.44151 -9.06617 -9.34021
6.91644 -11.2116 -9.34715
5.65155 -13.0458 -10.0608
9.78258 -9.16517 -9.49856
7.66746 -9.41432 -8.53516
10.0924 -9.27323 -9.62721
11.0246 -9.58555 -10.2494
11.5635 -9.80162 -10.1785
8.45193 -8.67597 -8.01791
7.49061 -9.37216 -7.92589
8.23589 -8.79052 -7.96077
7.69024 -9.42676 -7.95785
7.90094 -9.47737 -7.90673
8.38924 -8.60491 -7.68124
0.349462 15.8436 -10.1122
7.58979 -9.39967 -7.68684
11.0248 -9.70662 -9.33775
7.29072 -10.7956 -8.24292
8.22228 -8.56644 -7.48712
4.63464 -15.4634 -10.151
8.78207 -8.7678 -7.67692
7.9861 -9.105 -7.46923
4.06445 -18.0648 -11.4044
8.26483 -8.69716 -7.33366
4.09464 -17.3203 -10.8591
0.136159 14.8456 -9.03404
6.71234 -11.3572 -8.03011
7.80477 -9.341 -7.38443
10.2337 -9.41131 -8.43465
6.87901 -11.3445 -7.96287
8.1291 -9.28154 -7.40483
11.3942 -9.80383 -8.9853
5.43966 -13.9479 -8.87723
7.79941 -9.34204 -7.21588
9.43725 -9.11588 -7.77359
6.96311 -11.2104 -7.80881
8.05063 -9.20367 -7.17371
9.84926 -9.27761 -7.88413
15.0549 7.52364 -9.7782
8.74692 -8.91143 -7.21406
6.99252 -11.056 -7.51657
2.65508 -11.2665 -6.6557
7.92657 -9.14749 -6.93108
9.70081 -9.23049 -7.60511
10.9054 -9.59336 -8.19213
0.121349 15.2893 -8.62471
3.2744 -20.5213 -11.6864
6.85658 -11.0688 -7.29781
10.2095 -9.3855 -7.76491
12.4978 -10.4861 -9.14694
9.32721 -9.09129 -7.2769
4.65031 -14.3887 -8.42833
8.07663 -9.29916 -6.83929
14.9789 7.65885 -9.2397
9.79384 -9.19685 -7.37726
0.826862 17.4742 -9.55487
2.73344 -19.748 -10.8712
11.2521 -9.74986 -8.08233
4.27218 -14.5422 -8.20216
14.8905 7.78795 -9.05496
15.316 10.5761 -9.99785
14.2137 7.84234 -8.67768
11.0713 -9.72312 -7.83407
13.4436 -10.947 -9.22038
3.03498 -19.2341 -10.2369
11.4851 -9.93605 -7.72583
2.16405 -20.2744 -10.2914
10.3743 -9.44471 -7.05339
14.466 -11.4409 -9.2582
14.0048 -11.3269 -9.01509
11.1356 -9.76663 -7.37784
7.57567 -9.42022 -5.9852
3.5807 -8.50768 -4.54822
-8.64457 -1.89802 -4.35093
2.21225 -19.9995 -9.86986
4.55292 -9.3391 -5.08056
0.395252 13.6615 -6.6919
7.6749 -9.3508 -5.90188
-8.30405 15.8365 -8.65542
-9.13772 -2.41564 -4.55375
15.2241 -11.7559 -9.24133
19.6845 5.63241 -9.79397
-10.2332 -2.53358 -4.98601
1.90605 -20.4451 -9.76412
17.5746 16.5184 -11.4289
7.65912 -11.321 -6.44779
20.3566 5.49481 -9.93205
14.2195 -11.2569 -8.43194
2.94966 -17.4228 -8.21482
19.6666 5.81912 -9.47743
18.159 -13.2328 -10.3764
9.9275 -2.50765 -4.73177
20.6177 5.22597 -9.81571
17.708 16.6549 -11.2076
1.80269 -20.0685 -9.22219
9.76467 -9.13013 -6.12033
-9.14743 -1.66036 -4.2395
9.51037 -3.48977 -4.61441
6.78284 -11.432 -6.04437
9.97563 -2.63501 -4.68069
19.5589 5.96431 -9.20826
18.1338 17.9901 -11.489
9.42468 -3.10471 -4.46711
15.6804 -12.0655 -8.8767
7.11191 -11.6824 -6.11562
7.21916 -11.0182 -5.86992
9.61811 -3.4258 -4.5504
-9.77916 16.0199 -8.35142
17.9681 -13.1126 -9.88217
19.8514 5.71887 -9.15903
16.3445 7.41406 -7.95054
18.251 18.4379 -11.4797
16.6959 -12.4163 -9.16824
-10.9534 16.6501 -8.75478
-6.41769 14.6538 -7.00934
-5.18509 4.86216 -3.0951
20.4671 5.55734 -9.22257
9.617 -3.42606 -4.4064
18.6698 18.9261 -11.4324
16.0776 -12.3718 -8.72738
15.074 7.53751 -7.19578
3.86368 -9.36017 -4.30128
-10.8884 16.5538 -8.38327
7.01191 -11.0105 -5.50275
-13.4155 3.28766 -5.81833
0.741406 -22.119 -9.3277
16.046 -12.1483 -8.41492
-5.10762 5.62273 -3.17597
0.993173 -21.9717 -9.22115
1.23179 -20.669 -8.67439
14.3682 7.70678 -6.82264
19.0316 19.8368 -11.4921
3.8052 -9.0055 -4.07606
14.9863 7.84289 -7.04379
18.3727 19.626 -11.1627
-9.44453 -1.08397 -3.92384
4.02491 -8.5375 -3.86659
14.2348 7.86073 -6.67844
6.91175 -11.0937 -5.34218
-13.4613 2.51454 -5.6011
-7.77551 15.0547 -6.88073
19.7985 21.5169 -11.8524
15.2942 7.34932 -6.83963
-5.16949 14.1014 -6.0175
14.1584 -11.1931 -7.06753
3.96736 -9.15488 -3.91592
1.53907 19.4618 -7.58662
-8.53065 15.3995 -6.83641
19.2992 5.88584 -7.82002
-1.73792 13.1051 -5.11839
5.337 -9.46564 -4.18959
-2.35677 13.2978 -5.18467
20.1833 23.3524 -11.8422
4.68858 -8.56524 -3.70758
19.7385 5.66276 -7.8162
0.862515 -25.8521 -9.83324
15.14 -11.6665 -7.19142
20.3126 5.50328 -7.87865
9.50112 -3.46167 -3.78109
0.526334 -22.1103 -8.24527
3.28062 -10.8959 -4.24954
20.8231 24.2303 -11.8715
0.907346 -8.68628 -3.23939
14.2319 -11.2704 -6.69255
20.7329 5.27334 -7.86782
18.337 18.1215 -9.42665
-12.8906 2.25829 -4.75722
21.5352 25.7213 -12.1741
2.30549 -13.3471 -4.87826
13.2123 -10.6841 -6.11292
0.791745 15.5281 -5.56606
-8.15254 -2.78209 -3.081
0.407432 -21.3864 -7.64887
-4.12752 13.5269 -5.02636
0.633864 -21.5561 -7.66549
16.1234 -12.177 -7.15961
-15.2836 17.6664 -8.22854
5.97849 -11.4305 -4.53439
-10.7295 16.1873 -6.77866
0.0967501 -18.1763 -6.39158
14.4743 -11.4705 -6.45623
20.688 5.44859 -7.4693
0.651698 -22.6016 -7.81082
-4.8946 14.1933 -5.13972
3.6619 -8.49904 -3.18486
4.91084 -9.09499 -3.54113
-14.0916 17.4921 -7.68448
2.28639 -10.9301 -3.82603
-8.64962 15.6845 -6.10117
3.07019 -13.8774 -4.84344
-14.5529 17.859 -7.80594
20.5037 5.57484 -7.14386
22.8913 28.3222 -12.1788
37.3718 -21.0956 -14.3373
-5.17511 13.7142 -4.86393
1.93346 21.0651 -7.02385
1.26847 -10.2403 -3.41172
33.5703 -21.1031 -13.0364
-5.12642 14.1019 -4.86933
-12.2365 16.7488 -6.72498
18.9411 -13.4971 -7.55085
3.57554 -8.70815 -3.01773
6.27744 -10.2049 -3.8386
2.32095 -11.0322 -3.58714
-4.35062 -32.7366 -10.5015
-1.09845 -23.1385 -7.37706
15.2882 10.5297 -5.86176
-12.8376 17.0797 -6.74976
-17.4337 18.802 -8.05664
3.02989 -9.76937 -3.22579
7.043 -11.2227 -4.0949
1.37077 -21.5619 -6.68487
-2.47499 -26.4262 -8.15117
7.43334 34.3854 -10.7442
0.767044 15.1196 -4.60099
-10.8151 16.3147 -5.8958
-2.58988 -25.4812 -7.71769
-13.9248 17.408 -6.64798
-5.06914 -33.2894 -10.0304
0.822463 -24.3643 -7.29187
-5.24456 14.4122 -4.55784
2.10472 21.0408 -6.23487
-20.5991 19.2058 -8.3061
18.505 5.88889 -5.71805
-4.19028 14.0554 -4.30858
-7.70655 14.9454 -4.92944
4.29101 -9.21732 -2.98739
4.6879 -11.742 -3.69545
-12.4796 2.19846 -3.64153
-31.0526 -43.9888 -15.4982
-14.7452 17.7364 -6.62726
7.04842 -11.225 -3.81441
2.57898 -9.59721 -2.82294
13.1112 -10.6121 -4.79915
-8.39965 -2.44456 -2.48051
21.8667 28.206 -10.1186
-8.52521 -2.24693 -2.49123
-2.43553 -24.8992 -7.02563
-12.8798 1.97367 -3.62827
4.44226 -11.4664 -3.41151
-9.03728 15.5379 -4.9312
-12.6715 16.8976 -5.79796
-5.23829 13.9699 -4.07387
-8.00334 -38.8985 -10.8713
9.84002 -8.96826 -3.62257
-20.7634 19.3752 -7.63191
-9.44443 15.6574 -4.89679
-25.7884 19.8097 -8.64877
11.6472 11.7238 -4.36404
4.38277 -11.4379 -3.24341
49.0459 -14.2576 -13.5285
-7.67182 -36.2244 -9.73858
4.12729 -8.73676 -2.54337
11.3124 -10.0615 -3.95954
-14.0032 17.5316 -5.83132
6.60384 -10.5298 -3.21605
3.20578 -9.72681 -2.6467
-28.4018 -41.5987 -13.0103
-4.12615 -27.0852 -7.09382
3.57986 -10.4823 -2.85495
4.10718 -9.4755 -2.65346
15.8802 -11.9407 -5.06814
-6.92679 14.7517 -4.12113
-29.849 -39.8083 -12.6205
4.36601 -11.2811 -3.06017
4.28887 -7.76565 -2.25718
6.61693 -10.7924 -3.15593
46.5741 -14.0814 -12.129
-27.2352 20.5476 -8.4326
-11.1755 16.4165 -4.89272
-26.2173 -38.2475 -11.4044
-9.27889 -36.536 -9.30362
-23.6289 19.8459 -7.58083
4.39547 -10.4374 -2.78145
-11.6915 16.7444 -4.9487
-7.60546 14.8141 -4.01031
10.3913 -9.3727 -3.34996
41.7031 -13.8526 -10.5136
15.3522 7.67815 -4.08861
-5.92714 -33.9712 -8.21973
3.99828 -9.16057 -2.36763
48.8945 -13.0862 -12.0111
-11.2917 -41.5897 -10.2146
4.25044 -9.09442 -2.39377
3.92614 -11.2588 -2.80837
4.95344 -8.77262 -2.3693
-12.3785 16.8673 -4.86634
11.1426 -9.76454 -3.38543
-5.87457 -29.8091 -6.93646
-26.1753 20.2161 -7.49524
42.973 -9.3982 -9.98133
-29.3195 21.2871 -8.12164
-34.2131 -22.4207 -9.16641
-5.15661 -24.5646 -5.60016
42.1533 -13.0309 -9.90475
5.50973 -9.56926 -2.46451
-12.2681 2.79933 -2.76084
42.0275 -12.3163 -9.67465
44.1239 -12.5898 -10.0934
29.0563 40.9261 -11.002
-5.1959 13.6252 -3.18476
13.5975 -10.9417 -3.84067
39.3073 -12.632 -9.07495
-22.5676 19.6686 -6.49159
-26.3648 -65.0063 -15.2284
4.35828 -9.80828 -2.32651
4.58671 -9.27593 -2.23428
-14.102 17.5685 -4.80873
-29.7095 21.5803 -7.83919
-30.5343 21.669 -8.00214
-24.9333 -66.1578 -15.1619
-10.3385 16.1529 -4.06384
-7.93335 -33.6895 -7.3642
3.22893 -9.80033 -2.19926
4.01673 -9.95335 -2.2874
47.558 -11.0266 -10.4198
15.1817 7.6046 -3.60178
-14.6503 18.0335 -4.91693
5.21446 -9.14287 -2.21059
28.1575 40.7449 -10.3583
-26.7174 -26.1461 -7.76322
15.2292 7.97048 -3.57075
-29.1837 -22.5387 -7.65027
-28.7591 -73.745 -16.3951
41.8992 -11.2758 -8.97211
-11.07 16.309 -4.00307
-15.1017 17.8544 -4.75857
-33.6664 22.5994 -8.23807
46.0778 -10.0508 -9.61614
-12.2986 -39.578 -8.42793
4.18481 -9.84839 -2.17613
4.3134 -9.82233 -2.18574
11.7566 -9.77297 -3.10979
-11.5977 16.6421 -4.04688
-18.112 -51.9873 -11.0078
-12.146 -37.7369 -7.85251
4.11883 -10.0395 -2.14754
-32.9573 -22.5359 -7.87146
-25.7389 20.2008 -6.43827
-32.0295 -22.9112 -7.67728
-6.64083 14.67 -3.12259
-24.1381 -56.7209 -11.9783
-32.4551 -21.6064 -7.51418
3.47709 -9.47353 -1.94772
47.633 -11.0363 -9.3876
-12.3157 16.814 -3.98214
4.03556 -9.45293 -1.96061
-35.1974 -21.38 -7.79634
-20.3059 -32.9869 -7.36875
-14.45 -41.6972 -8.35404
39.1513 -12.9152 -7.79205
-34.3582 23.0761 -7.74453
-32.5576 -22.485 -7.43377
-31.545 -23.0795 -7.3379
-19.6094 -48.5838 -9.86223
-15.6751 -42.5814 -8.42049
3.857 -9.29409 -1.85796
44.1203 -11.8913 -8.484
5.82291 -9.82247 -2.09195
-22.4942 -51.008 -10.2103
-18.9023 -46.921 -9.1529
-14.0525 17.5164 -3.9801
-30.0408 -24.2286 -6.86092
-19.6137 -26.1362 -5.84462
-23.8295 -62.2663 -11.8367
-37.5406 23.6887 -7.83109
-25.74 20.2109 -5.69508
-32.6217 22.3229 -6.86226
3.96058 -10.1797 -1.89311
4.81721 -8.69424 -1.7268
14.2198 7.63666 -2.78566
14.304 8.20849 -2.82646
-29.568 21.5014 -6.26649
43.7885 -12.3888 -7.74615
43.5478 -11.2786 -7.65661
-30.1988 -23.9836 -6.54261
-20.2961 19.3294 -4.70533
-18.8013 -46.735 -8.51501
15.0947 7.56566 -2.83349
-30.3973 21.5195 -6.22033
-21.5874 -51.4713 -9.22618
45.2137 -12.1804 -7.60965
-9.98071 15.844 -3.01985
-19.0395 -47.2362 -8.12572
-33.6694 -23.2421 -6.44747
-21.945 19.2805 -4.57328
-24.4644 -15.337 -4.56034
-23.2672 19.8624 -4.74049
-38.231 23.1478 -6.92504
-10.8201 16.1937 -3.00491
3.51901 -9.65678 -1.58872
3.9275 -10.3848 -1.71813
-7.31194 14.8289 -2.52303
-29.7735 21.6701 -5.62848
-30.6838 -23.6992 -5.89609
-26.9968 -25.2525 -5.6008
43.7581 -11.3759 -6.8712
46.5837 -10.1491 -7.26244
-6.27726 13.9794 -2.29047
9.90765 -5.1933 -1.66034
-32.3384 -23.3242 -5.93826
-23.8087 -60.2053 -9.60533
10.3159 -9.27511 -2.06687
46.748 -10.8147 -7.12466
-35.3281 -23.5175 -6.24653
-30.4055 -25.0797 -5.76618
-11.7639 -38.9827 -5.99402
17.2418 -12.4743 -3.11633
-24.4163 20.1028 -4.59555
-22.6921 -50.8462 -8.02594
-7.3157 14.6511 -2.33956
-12.2559 16.71 -2.95321
6.13476 -11.7199 -1.88925
-12.9197 17.2682 -3.02813
-33.1778 22.4125 -5.62864
6.85973 -11.2048 -1.8354
38.8678 -12.8273 -5.75545
-30.0913 -24.1121 -5.38204
-31.5574 22.679 -5.38306
-19.0328 -45.874 -6.86195
46.9097 -10.4944 -6.62733
-6.57706 14.5436 -2.17904
-20.524 -53.567 -7.79547
7.83695 -9.48395 -1.6506
9.29056 -9.14598 -1.79785
-13.4984 17.2352 -2.95006
13.4223 -10.7055 -2.32241
-21.3935 19.4601 -3.88825
43.686 -11.2953 -5.98941
46.6101 -10.2097 -6.31462
-21.776 19.1632 -3.79259
-31.5668 -23.6209 -5.1501
-14.355 17.5782 -2.93349
-32.5706 21.7393 -5.0837
-37.1015 -15.6657 -5.20029
7.11093 -10.5753 -1.63442
10.9439 8.96057 -1.81806
-32.6594 -22.5066 -5.07616
-30.102 21.9754 -4.71428
-34.3706 -21.4475 -5.07837
43.5283 -11.2572 -5.6255
6.88778 -10.5076 -1.56927
-7.34139 14.6831 -2.03092
-24.0471 20.1921 -3.84463
-31.9336 22.506 -4.81896
6.40568 -12.2846 -1.68684
46.5558 -9.93278 -5.8298
15.2504 7.98997 -2.0715
-16.763 -40.6007 -5.29806
7.18323 -10.6757 -1.54866
-20.0809 8.89974 -2.59996
-13.273 -40.1529 -4.97432
-30.7675 -23.7211 -4.54302
-30.2638 -24.2033 -4.53503
43.6306 -11.6875 -5.30774
11.3795 -9.79981 -1.73941
-28.6303 21.709 -4.13369
6.73775 -10.978 -1.47394
7.56934 -9.31909 -1.37293
11.7405 -9.85592 -1.74061
9.51827 -4.64347 -1.19943
15.2259 7.82435 -1.93077
-9.95385 15.8462 -2.11083
-30.7845 22.4947 -4.27132
40.2718 -13.2572 -4.75349
9.46352 -9.12602 -1.45414
-10.6526 15.9766 -2.08655
6.92541 -13.0377 -1.59817
46.7115 -10.1522 -5.18128
10.9463 8.99549 -1.52873
17.1014 -12.7034 -2.28564
43.8412 -11.3707 -4.85217
9.72995 -9.08224 -1.40982
8.46359 -8.54955 -1.26002
-29.8587 -23.8938 -3.98227
-27.529 -55.2183 -6.43762
15.2212 7.63377 -1.74116
-30.7148 -23.683 -3.97963
-12.3766 16.872 -2.12406
-12.3104 16.4931 -2.04515
10.3294 -9.19654 -1.35453
-19.0972 -48.5009 -5.11134
6.43862 -12.3302 -1.34548
9.5968 -9.06058 -1.24807
16.963 -12.4104 -2.01964
43.7311 -11.7513 -4.33964
-27.9397 -56.4773 -5.99058
-18.9816 -49.8146 -5.06374
-22.4262 19.6161 -2.78547
47.4832 -10.5633 -4.54263
9.82914 -9.09125 -1.23913
41.1683 -13.5805 -4.03853
-14.4586 17.724 -2.07118
-28.9441 -13.1964 -2.89989
-29.4052 -57.3237 -5.93896
16.1505 -12.0885 -1.83452
8.72843 -8.82041 -1.12343
-35.0671 -19.8885 -3.53177
13.0898 -10.805 -1.47755
47.0512 -10.9059 -4.13663
9.5099 -9.13172 -1.10802
11.0945 -9.77007 -1.24225
-32.6443 22.4188 -3.29602
17.1692 -12.5204 -1.75938
-15.7223 -40.9126 -3.511
14.9378 -11.6804 -1.51157
-38.5723 -75.3762 -6.72519
-11.1011 -31.0787 -2.60523
-28.5617 21.7174 -2.77537
-31.6398 22.3645 -2.99179
-20.9154 -47.7769 -4.02658
7.68681 -9.40607 -0.969322
-48.2868 26.2802 -4.16402
-20.5771 19.3665 -2.05594
-31.8517 22.5301 -2.82826
16.6961 -12.4754 -1.52409
43.7695 -11.713 -3.30022
-35.1847 -66.5732 -5.43375
14.2075 -11.2411 -1.29609
-14.5065 -38.4824 -2.83858
10.9064 -9.7402 -1.00156
-22.4455 19.6534 -2.01548
13.0688 -10.7838 -1.13383
18.3288 -13.2938 -1.50886
-21.4252 -49.3631 -3.5565
16.3483 -12.3657 -1.35321
-13.6702 -37.9023 -2.60637
45.6695 -11.8778 -2.94884
-28.8551 -58.4653 -3.97796
36.9862 -8.97304 -2.33527
44.7423 -10.241 -2.8172
6.19402 -13.3891 -0.881075
32.0626 -21.2159 -2.29922
-9.43854 15.7565 -1.07969
-14.5458 -37.9444 -2.31362
16.9369 -12.6578 -1.18667
-9.54865 -12.3783 -0.856752
15.2176 7.80724 -0.925886
14.131 -11.1862 -0.964712
-12.3035 16.6735 -1.08269
-15.4008 -38.1722 -2.18561
15.1113 7.94609 -0.837906
-15.2055 -38.8678 -2.04729
-13.6168 17.2597 -1.05183
9.67682 -9.12786 -0.609967
-21.9435 -50.3359 -2.4837
12.6362 -10.3881 -0.758083
-14.7959 -41.2451 -1.94472
-16.0484 -39.5401 -1.82615
7.00226 -12.9301 -0.651894
-12.8848 -39.278 -1.76014
-49.5512 26.9482 -2.28664
18.7353 -13.4601 -0.935706
17.1381 -12.7389 -0.831183
-36.6756 -71.1838 -3.01892
-16.792 -44.0343 -1.7346
-32.1602 22.0974 -1.42843
44.2721 -11.4073 -1.64561
-31.0159 -61.696 -2.3084
-23.6382 -51.8034 -1.91568
20.9712 24.2546 -1.067
-20.6195 19.3229 -0.921732
8.31818 -14.6813 -0.566219
9.53068 -9.09855 -0.426989
11.4557 -10.0851 -0.495904
18.9973 -13.4327 -0.764168
35.9995 -13.5779 -1.27616
22.9717 27.8075 -1.15917
-26.7299 -13.4074 -0.93737
-22.0156 19.6053 -0.899501
-30.3456 21.4927 -1.16181
-22.7429 -52.2867 -1.76435
-12.9115 -36.5276 -1.19236
-19.6246 -50.0612 -1.62653
-15.3628 -41.6367 -1.27023
-32.9307 -19.9666 -1.0255
11.6049 -9.84499 -0.407503
16.6538 -12.3869 -0.546772
-39.0193 24.1392 -1.21159
-28.9782 22.0501 -0.902222
-29.4943 21.6161 -0.865862
9.67932 -9.11201 -0.307843
-39.7339 13.7333 -0.930488
-29.1696 -48.8456 -1.27968
21.7905 -14.5737 -0.575709
31.5704 -19.1436 -0.83243
14.4142 3.98352 -0.305689
29.9038 52.2578 -1.11115
24.0856 -11.2133 -0.467552
49.1949 -11.3283 -0.938413
-29.6809 -21.3298 -0.666109
-28.4599 -27.9532 -0.631797
-17.5881 -43.1577 -0.774405
12.9143 -10.6199 -0.274893
18.9313 -13.6798 -0.356534
-28.55 -12.6897 -0.410195
-31.6961 -23.7205 -0.550308
-30.0572 -60.5927 -0.910564
-25.2697 -53.7823 -0.811996
-32.781 -22.3876 -0.517828
-28.9932 22.0581 -0.430421
17.344 -12.9522 -0.256681
30.3083 -18.7927 -0.418886
-29.4616 21.6293 -0.40847
-36.6531 -20.4803 -0.47236
-17.8017 -40.8275 -0.474836
-11.2838 -33.9645 -0.359014
-30.6574 -54.0183 -0.569914
-13.7756 17.4744 -0.171878
-26.0943 -13.1559 -0.235911
-14.4422 17.6054 -0.156849
-21.7061 19.3858 -0.151177
-20.2108 18.9574 -0.127425
-10.3964 -13.3655 -0.0592329
14.9772 7.86792 -0.021223
11.2591 -9.90057 -0.00777428
-33.4277 -18.3091 0.0584576
-10.6864 -31.7602 0.110747
17.2965 -12.5666 0.0930741
-17.5588 -40.3117 0.197549
19.1936 -13.5234 0.125048
7.31692 -12.5779 0.106282
26.6538 -10.9356 0.177541
-52.5251 18.7554 0.529919
16.5636 -12.2756 0.197089
38.711 -7.90351 0.373153
-28.4195 -8.01355 0.345157
-35.0486 -21.1545 0.452027
-10.7165 -30.7042 0.350566
-51.2293 28.0769 0.712015
-11.9784 -33.1934 0.422063
-9.72982 -29.908 0.379117
6.47838 -13.2422 0.188211
7.32847 -11.2902 0.177026
-27.0288 21.217 0.52433
11.4696 -10.017 0.22903
-23.1893 19.8313 0.501927
11.0471 -9.86383 0.23252
13.1774 -10.8482 0.269052
37.595 -8.04606 0.639968
-33.3821 -22.3653 0.731564
-29.9261 21.3977 0.720469
6.28649 -13.1349 0.282512
7.13324 -11.2259 0.256249
8.12119 -9.52977 0.244518
30.7482 63.2268 1.52589
7.82058 -9.55575 0.279167
10.2538 -9.28739 0.333795
-28.1608 -9.02996 0.712195
-22.4286 19.5771 0.803665
-26.469 20.8711 0.902747
-28.2886 -8.49399 0.778128
9.29447 -8.99693 0.349441
9.73674 -9.04965 0.362353
-24.5674 20.706 0.871073
25.9222 -5.24418 0.736433
13.1871 -10.8182 0.508198
15.4928 25.2392 0.91235
6.33086 -13.0605 0.456574
7.58486 -11.8237 0.44078
-27.8408 -7.85188 0.948877
-12.3155 -18.8564 0.742854
-27.5333 -8.60542 0.997192
16.4477 11.2577 0.719669
-29.0056 -17.9736 1.19321
16.5916 28.8216 1.18548
-29.6292 -16.1618 1.25105
23.9977 -4.33344 0.881065
-27.0701 -19.2527 1.23153
-7.24266 -7.89696 0.404364
9.15282 -8.92543 0.475187
12.7296 13.925 0.72666
28.91 59.6405 2.50781
27.6928 58.9612 2.4507
-11.4341 -9.05052 0.575029
8.81725 -8.76242 0.4917
-24.6706 20.323 1.29552
22.2265 -3.01236 0.908669
-28.0449 -17.0344 1.34468
9.52248 -9.02925 0.538012
12.7738 14.7118 0.837485
6.71197 -12.7112 0.610208
15.3649 19.9644 1.10664
21.8244 30.1455 1.62874
-9.35215 -13.5982 0.725882
-9.80243 -15.3307 0.808397
7.71187 -11.115 0.595937
8.71693 -8.80739 0.559927
24.6708 -3.77943 1.12692
-29.1814 -8.50384 1.3872
6.84935 -11.2603 0.606254
-8.20862 -8.07821 0.542013
23.1743 46.7577 2.49526
-27.8141 -17.1901 1.54609
-9.62336 -13.4987 0.78951
9.77278 -9.06751 0.627857
17.0842 47.4772 2.44123
-29.51 -13.0708 1.54064
-6.71397 -8.18529 0.520967
15.6211 36.3278 2.01678
-29.0418 -11.3727 1.56524
-7.54388 -6.93683 0.517951
-6.65679 -7.54618 0.509027
17.0276 30.8456 1.8285
10.7709 12.5948 0.895017
14.702 20.0071 1.33232
9.45109 -9.02689 0.700177
15.3026 19.9109 1.38585
15.923 24.593 1.61243
-26.5293 18.6796 1.77626
-6.92285 -8.1358 0.592445
-25.4671 19.5411 1.78246
6.23228 -13.1591 0.814265
-7.04726 -9.08205 0.655692
10.1705 12.7036 0.956521
15.5924 26.2715 1.78405
6.60582 -13.2673 0.852582
14.4024 23.4973 1.62719
-8.19587 -8.05617 0.692456
11.757 11.8383 0.994424
15.1553 20.1568 1.51451
-7.32788 -9.91982 0.767234
7.11812 -11.3434 0.815898
11.4092 -9.84116 0.913371
5.95715 -10.9205 0.771636
-7.15333 -6.61188 0.6086
14.9823 21.2536 1.6447
16.3936 7.27694 1.16421
-6.9994 -6.11539 0.609751
6.61247 -13.7567 1.01674
9.81714 22.1755 1.63565
10.6346 12.8182 1.13817
13.9629 18.7754 1.63149
12.8508 21.3068 1.72126
11.5683 12.2203 1.1807
6.6781 -9.95942 0.84894
11.7153 11.986 1.21253
9.88925 -6.98084 0.861235
12.5981 12.1961 1.2874
10.0273 -8.46798 0.961381
-6.07055 6.57926 0.66704
10.5872 9.32241 1.05932
12.2834 18.3659 1.66208
11.8398 18.8632 1.67775
-6.90026 -7.64848 0.798804
11.2188 19.3638 1.71677
9.61593 -9.05345 1.02056
10.7193 14.3892 1.40637
-6.39139 -4.28266 0.606479
9.51177 19.0569 1.70187
10.1681 -6.95798 0.986443
12.6851 11.7695 1.39849
10.0936 19.5979 1.7749
-7.20181 -9.55258 0.974679
6.78888 -9.4795 0.948567
12.4713 11.9305 1.41384
12.3777 12.1731 1.44132
11.6405 12.1671 1.39373
-4.99185 -11.3935 1.04697
10.5312 13.176 1.43496
-6.92484 -6.05118 0.791962
-6.78005 -6.65959 0.802681
-5.15329 -11.3027 1.05696
-7.25244 -7.69576 0.910674
9.36244 -7.31687 1.02652
-7.07243 -8.00322 0.934749
-6.97226 -7.64145 0.909769
9.58553 12.7949 1.4172
-6.90346 -8.31353 0.965534
10.9719 9.20617 1.30508
10.6952 13.775 1.57547
10.6784 9.37846 1.30075
7.92304 14.3824 1.51033
-6.45559 -8.0825 0.947877
-6.84996 -8.94919 1.04039
11.3899 10.9853 1.45987
11.4145 9.31312 1.37834
11.0547 10.9883 1.46091
6.69602 15.4742 1.58459
-11.3183 2.89959 1.0947
-6.33749 -4.15526 0.709649
-6.77118 -6.26198 0.855158
9.64473 13.602 1.60845
-5.94613 6.46095 0.8632
8.01565 -6.65508 1.01524
8.12256 13.5438 1.56878
-7.02369 -7.5691 1.0403
9.48581 11.861 1.53182
7.17197 12.7345 1.48336
7.24071 13.3398 1.54749
9.67195 9.22491 1.38312
6.04461 14.4103 1.62006
9.33248 12.693 1.64255
-6.08451 -4.44016 0.789223
6.1393 14.1075 1.621
6.40183 14.0233 1.62099
-6.93946 -4.40805 0.879028
8.89462 9.14897 1.36026
9.28707 10.3462 1.51201
7.47286 11.2209 1.46523
5.96236 11.7442 1.43222
-6.26256 -7.36728 1.05692
10.3795 6.52331 1.35628
9.10854 8.24409 1.35417
7.46806 11.9376 1.55499
6.99657 11.8917 1.52561
5.49687 12.2069 1.48988
5.0068 12.4462 1.50142
4.86948 14.1622 1.64827
9.98063 7.13627 1.36991
8.89007 9.45016 1.44979
5.51594 11.8029 1.46749
-6.80321 -6.68587 1.06162
7.00148 10.9285 1.46222
4.46788 13.631 1.62201
9.81577 -3.21652 1.15163
-6.07811 -5.39089 0.940411
7.33252 -6.15627 1.08669
10.5206 5.77248 1.37623
-7.34468 -0.980897 0.848473
-6.23007 -5.33273 0.943748
5.26579 -5.5754 0.883423
5.20045 11.9289 1.51217
-6.85222 -4.53877 0.952146
4.47897 -7.30327 0.990546
10.5074 5.19799 1.37555
8.99584 7.98435 1.41196
-5.98013 -4.35224 0.861679
-6.45676 -5.24982 0.982879
4.12197 -7.92341 1.06183
4.98435 -5.87106 0.923839
10.2591 4.7971 1.35756
8.63116 8.38124 1.45723
5.40776 11.7817 1.58296
