ply
format ascii 1.0 
element vertex 1873
comment /media/mkaihara/Seagate Backup Plus Drive/model_iterations/model_24.ply
property float32 x 
property float32 y 
property float32 z 
end_header 
-29.6063 21.6551 -0.908535
-26.417 -12.6931 -0.718117
9.68857 -9.11737 -0.321811
-19.6793 -31.6978 -0.86865
-38.3649 13.3081 -0.889083
21.821 -14.6008 -0.556784
-50.0356 18.0464 -0.983322
18.8939 -13.6216 -0.436424
13.0339 -10.7078 -0.280708
-6.81042 14.7423 -0.28481
-31.8823 10.0828 -0.553824
-27.4171 -13.0559 -0.480583
-35.4743 -20.2022 -0.619564
-16.5495 -40.5705 -0.675666
-7.408 15.5799 -0.235038
-31.1337 -23.2577 -0.537976
-32.4472 -22.1195 -0.501828
-30.4662 -61.5588 -0.847378
17.7017 -13.2071 -0.267431
18.6712 -13.4432 -0.291197
30.0536 -18.532 -0.470197
-19.0677 -48.837 -0.633026
-28.675 21.8624 -0.386244
-35.9513 -20.0967 -0.454187
-24.7965 -52.9124 -0.618907
-17.1183 -39.2634 -0.456212
-49.5352 27.1473 -0.472151
-30.293 -53.4389 -0.562752
-17.9546 -47.0901 -0.475734
38.9599 -9.41245 -0.368021
-13.6391 17.312 -0.156097
-30.2367 -67.3348 -0.50054
-16.4179 -39.8219 -0.290801
-28.4757 -8.85464 -0.172746
9.69764 -9.12525 -0.0413187
13.392 15.327 -0.0434104
15.063 7.9297 -0.0299761
-28.488 -12.7086 -0.056247
-11.379 -16.5678 0.0251355
-12.486 -18.7935 0.0438059
-17.1709 -39.4161 0.180335
9.56031 -9.10222 0.0602827
-31.0528 21.9764 0.19568
-19.4151 -49.0146 0.259137
-29.2231 -13.5629 0.193736
17.2011 -12.5507 0.119409
-12.7071 -19.4835 0.152737
14.9891 -11.6761 0.149803
-49.9689 17.9033 0.467809
7.23803 -12.4367 0.120936
16.3255 -12.0976 0.172812
-34.8954 -21.1162 0.428754
39.6818 -8.15611 0.422073
-33.81 -21.1879 0.455413
-11.6882 -32.2838 0.403204
-12.1463 -32.6643 0.424785
-10.4656 -30.1375 0.390526
-9.02319 -27.9189 0.357265
29.0909 58.9052 0.85131
9.71037 -9.1335 0.172431
-12.4046 -19.222 0.312493
-10.1233 -30.7308 0.445697
8.66446 -8.60746 0.185197
6.45195 -13.1997 0.213998
7.27295 -11.2074 0.204013
9.46274 -9.17353 0.190426
8.12699 -9.2215 0.196625
9.84791 -9.11856 0.22115
39.1249 -8.38262 0.656769
-22.8357 19.5831 0.536897
-31.8631 -21.4375 0.661794
-32.9761 -24.1943 0.717514
13.1278 -10.7846 0.278553
13.4468 -10.846 0.323922
-9.73629 -12.3448 0.297223
6.95019 -11.3907 0.26022
8.08694 -9.50433 0.245423
29.7468 61.2081 1.3598
7.09535 -11.1528 0.265777
9.28601 -8.7863 0.271637
11.6955 -10.0527 0.338066
17.5289 -7.8295 0.386561
7.33131 -11.1234 0.301541
-9.28517 -11.9868 0.383915
-12.4166 -19.0611 0.544536
7.73981 -9.42317 0.277794
7.92696 -9.47986 0.286915
-24.4785 20.574 0.828404
-28.1238 -9.01874 0.741118
9.73754 -9.06028 0.342203
17.8735 -13.057 0.558328
18.745 -13.4976 0.574793
-21.9928 19.2554 0.759502
-26.4487 20.9032 0.877831
-28.1412 -8.44605 0.769126
-31.9638 -17.0431 0.984436
-12.9535 -19.5607 0.624711
15.0305 -11.6787 0.508082
23.178 -3.37242 0.659032
-11.852 -18.4809 0.636237
25.5201 -4.83459 0.755991
17.1625 26.6347 0.947953
-27.0564 -19.932 0.995367
7.35236 -11.5171 0.410246
7.07566 -10.8659 0.394895
15.442 25.1556 0.90463
-7.53449 -8.7063 0.352188
13.2411 -10.8347 0.522586
-7.22861 -9.39518 0.363256
-27.7961 -7.84553 0.96105
-11.5878 -16.9389 0.688224
7.96608 -9.46219 0.40927
16.4843 11.2624 0.714143
11.0014 -9.57951 0.529992
12.0654 -10.1942 0.575639
25.1486 50.6416 2.12111
-7.37053 -8.0469 0.407935
9.76558 -9.06537 0.49748
23.2495 -3.26431 0.90123
30.0117 62.0407 2.66574
-7.34998 -9.75571 0.478018
10.5661 -9.63686 0.561036
12.9255 -10.6753 0.67742
21.9503 -2.69027 0.901493
-28.2025 -17.1099 1.34957
8.835 -8.79534 0.515229
-6.84915 -8.37471 0.465166
9.54725 -9.03151 0.54944
13.0094 14.9341 0.873797
-28.1156 -8.2514 1.2876
15.2418 19.8527 1.1238
15.8049 27.213 1.40096
23.6024 46.4132 2.30091
6.35598 -14.1615 0.691775
10.9858 -9.63799 0.660989
18.7552 -1.66451 0.861256
20.9476 39.8854 2.1114
15.7614 27.7707 1.49598
-11.0524 2.74138 0.547489
-7.15349 -9.42917 0.571028
9.27395 -9.08981 0.615028
11.5374 -8.85178 0.681028
20.4348 -2.34179 0.990712
11.8785 12.1059 0.841516
17.5546 42.2178 2.2463
7.85408 -9.57248 0.609425
10.3109 -9.39094 0.690657
15.289 25.9262 1.50606
21.7384 42.1557 2.40601
21.3596 -2.66086 1.09441
-7.32554 -8.41613 0.579015
9.49395 -9.03938 0.682601
17.4704 25.6194 1.62793
17.5114 31.7465 1.89113
13.2132 -10.8913 0.909889
10.7929 12.617 0.887306
14.7217 19.9837 1.33244
11.2226 -9.73125 0.803231
15.5387 20.2456 1.40658
-25.1595 19.2865 1.72993
-6.89781 -8.09261 0.588391
10.4842 12.6753 0.920524
-7.17564 -9.26334 0.65654
10.2186 12.7297 0.946075
-26.5734 18.7088 1.84296
6.25574 -13.2115 0.836536
11.4243 12.35 0.966295
-6.82553 -6.73629 0.556157
11.515 12.279 0.990549
-6.73843 -8.32663 0.641259
6.3932 -12.8512 0.838349
15.1606 20.1716 1.51649
14.7527 24.1208 1.68583
14.3509 33.1666 2.168
-6.03465 6.42735 0.540034
-8.08634 -7.66216 0.673897
-7.04588 -8.08294 0.658677
5.85685 -12.7372 0.84732
-7.41645 -6.82824 0.627144
7.12189 -11.3472 0.828204
7.0915 -10.7175 0.801942
11.495 -9.92267 0.937861
12.3058 -10.2944 0.994275
16.4866 7.3016 1.1484
15.4066 19.9584 1.59441
-7.17999 -6.25741 0.617656
10.3947 -9.49377 0.908513
-7.31993 -6.20996 0.629604
11.7245 12.3718 1.16081
10.0069 22.5279 1.67802
-7.18451 -9.5368 0.79808
11.8978 12.9043 1.20351
-6.9119 -4.42948 0.564412
-6.68678 -8.1214 0.717598
-6.65958 -4.40718 0.550563
9.38058 -8.9685 0.903446
10.1052 -7.92827 0.904741
13.079 16.4843 1.52088
-6.61923 -6.61188 0.650042
9.92061 -8.37755 0.949441
11.8367 17.6989 1.60019
11.7957 18.8059 1.65778
9.96054 18.9582 1.61453
9.4042 20.3241 1.68396
7.76732 23.1507 1.83568
11.1696 19.2796 1.69701
10.1201 -7.67825 0.971256
-6.96805 -7.12776 0.763852
-16.9236 -6.13829 1.40751
9.57008 -7.75853 0.96572
9.70504 19.3842 1.71064
-6.34525 -4.23685 0.604604
-6.7638 -8.14062 0.839241
4.85927 -5.76232 0.599195
9.41622 20.7167 1.80467
8.11501 19.8418 1.72352
5.05489 -5.82589 0.62134
13.045 11.7712 1.4233
12.0304 12.0845 1.39583
6.81447 -9.50657 0.950583
12.4936 11.9499 1.42067
7.02629 20.6271 1.7838
-6.32132 -4.36375 0.625737
-7.07873 -9.36875 0.964156
11.7997 12.3621 1.41354
10.6495 9.31654 1.20447
-4.9587 -11.3137 1.04433
6.16592 -6.08546 0.756106
9.30613 -7.24981 1.01454
-6.74288 -6.64141 0.804084
10.6691 12.6439 1.44385
8.88127 -7.4004 1.00484
11.0703 12.4793 1.45958
-7.242 -7.69266 0.926377
8.26566 -7.35855 0.982478
10.444 12.7657 1.48244
-7.00737 -7.67158 0.921398
-6.86996 -8.25859 0.964339
10.8393 12.6001 1.50894
10.7679 13.8901 1.592
-7.04655 -8.24594 0.988285
11.4421 11.0523 1.46292
-6.28046 -4.20839 0.694882
-6.79177 -8.50652 0.996212
-6.29364 -4.37026 0.706018
11.2637 8.6926 1.33483
10.8263 9.49093 1.3421
6.73266 15.9938 1.6323
11.2911 11.2254 1.48574
10.7286 11.542 1.49084
-11.097 2.8436 1.08134
6.19729 -6.0038 0.822508
8.07212 -6.69185 1.00701
10.9262 9.35647 1.39618
9.75613 12.8372 1.56103
9.94245 12.7595 1.59349
7.8593 12.5695 1.47252
8.12935 13.5901 1.57628
11.4013 8.18736 1.43028
7.33422 13.0513 1.51093
9.25782 11.6021 1.51014
7.20834 13.9555 1.60763
6.07096 14.4261 1.60712
9.38067 10.6945 1.47013
9.24871 12.6001 1.6239
11.5623 7.77515 1.4533
9.42705 10.1951 1.44556
5.00064 -5.85155 0.826225
-6.80452 -4.62793 0.867822
5.77506 14.3885 1.6461
-7.0155 -4.47885 0.887388
9.11062 10.9166 1.52658
-6.71434 -6.72397 1.01649
5.9461 -5.86897 0.902354
9.849 8.67156 1.41428
9.12088 9.52658 1.4184
9.43895 10.5223 1.53249
4.96815 14.3995 1.64467
4.28107 -8.14172 0.996096
6.6167 11.0699 1.41931
-6.76314 -3.90282 0.859184
6.51677 12.2194 1.53678
-6.85598 -3.84109 0.870291
9.84971 7.30845 1.3714
6.83393 11.6635 1.50571
9.94385 7.12967 1.37442
5.58688 11.9105 1.48791
5.60164 12.4562 1.54305
4.85706 12.6409 1.53285
9.96918 6.77588 1.37361
-6.85062 -4.53632 0.940768
7.46358 -6.27782 1.11158
-7.28632 -0.780722 0.839606
-6.23757 -5.3585 0.946955
5.27813 -5.59873 0.887757
9.01293 8.01277 1.40492
4.45511 -7.24325 0.984869
10.5402 5.21811 1.37718
9.09659 7.91363 1.41724
5.22943 -5.64281 0.908817
8.73659 8.04202 1.40892
9.05912 9.21624 1.51192
-6.99992 -5.61267 1.06155
10.2585 4.80361 1.34948
-6.87951 -3.82998 0.948414
9.25861 6.22407 1.35298
5.36023 11.75 1.56613
-6.85592 -3.04898 0.911306
-6.84023 -3.2339 0.91461
4.91009 -5.98807 0.945045
6.01509 -6.17127 1.04914
9.48893 5.69166 1.36774
8.58519 7.3296 1.39566
-6.90963 -4.28523 1.00134
-6.84114 -4.50818 1.00956
8.39954 8.73184 1.50319
5.17706 11.6435 1.58287
-6.50907 -5.58245 1.06711
3.74478 -7.64766 1.06081
8.63451 7.86247 1.46122
6.11616 -5.65275 1.04408
9.28482 6.13917 1.41051
-6.09938 -5.38204 1.02635
8.66512 6.70347 1.39708
8.20999 7.62276 1.42513
-7.06092 -1.77286 0.930643
-6.97505 -2.29337 0.937263
-6.40714 -5.2871 1.05976
8.93668 5.72946 1.36084
8.28606 8.1749 1.50026
-7.22043 -1.2458 0.938984
-6.85846 -4.09539 1.0325
7.52651 6.3006 1.27127
8.19331 7.14125 1.40935
8.09849 8.25756 1.49883
-6.87299 -2.81093 0.96634
-6.87411 -2.94999 0.966714
4.67082 10.3443 1.49225
9.09 4.15313 1.31537
-7.2051 -1.59671 0.96932
6.87801 -4.28307 1.0768
4.95786 -5.97929 1.02968
-7.2885 -1.11036 0.986278
-6.97539 -2.18716 0.97742
-7.01203 -2.25595 0.983631
-5.96499 -4.37624 0.988509
5.22534 -6.61144 1.12294
6.94931 -4.19957 1.09307
8.18956 7.27343 1.4839
-7.11012 -1.70832 0.982571
-7.04259 -1.94465 0.982175
8.89091 4.90859 1.37933
8.43428 5.94536 1.40302
-6.88244 -3.59884 1.05801
8.95783 4.20423 1.35722
3.45581 10.8629 1.56175
-7.26844 -1.19267 1.0077
-5.97991 -4.41912 1.02245
-5.96024 -4.51724 1.02366
7.18905 -3.95675 1.12782
8.1785 6.57161 1.45105
5.46746 9.2414 1.48733
-6.34824 -4.29843 1.05083
4.95964 -5.5557 1.03447
7.22679 -3.85182 1.13968
7.60555 -3.70871 1.17076
3.72554 10.3367 1.53098
3.54284 10.6616 1.56748
-7.32377 -1.07546 1.03284
-7.0336 -1.99244 1.01826
4.99762 -5.3145 1.01973
7.28897 -3.75938 1.15215
7.40669 -3.694 1.17387
7.92206 -3.37763 1.22427
-7.1134 -1.86388 1.04531
-6.96901 -2.92942 1.09515
-5.97799 -4.35161 1.06325
7.95581 -2.80008 1.23399
8.32073 4.67023 1.39802
5.09369 8.72637 1.48145
8.45888 4.55523 1.41995
7.87955 -2.35541 1.21229
7.23228 5.75741 1.38442
3.05119 9.74125 1.52757
-7.05323 -2.00793 1.09862
7.52969 -3.12872 1.2292
8.31648 4.59623 1.44038
5.88036 7.56281 1.45505
5.38294 7.76611 1.44032
5.22147 8.09012 1.46307
5.17611 8.20405 1.46866
7.37788 -3.18883 1.22759
7.72769 -2.77344 1.25026
-6.71918 -1.67358 1.0425
7.88158 -2.27118 1.25779
7.32048 5.49039 1.40524
-7.06259 -1.94116 1.13614
-6.88157 -2.77044 1.15263
6.89617 5.59376 1.39298
-7.30984 -1.08896 1.15378
-7.10275 -1.81354 1.1476
-7.00647 -2.05575 1.14363
-7.07974 -1.86164 1.14829
-6.85695 -2.91802 1.1695
4.89595 7.59183 1.43723
3.46379 -6.06237 1.11471
-7.23179 -1.29157 1.17628
3.54358 -5.73263 1.08554
3.58 -5.63662 1.07471
7.15596 4.82371 1.40643
4.7468 7.51327 1.44699
-7.03081 -2.01196 1.19136
-7.0525 -1.93579 1.1996
7.05067 4.88586 1.41885
3.90296 8.10899 1.49087
6.08207 -3.33506 1.15546
6.71472 4.93293 1.38942
4.74619 7.29524 1.4524
3.85121 -5.32091 1.10386
7.18843 4.47642 1.42605
7.54709 2.88594 1.36562
6.40258 5.35246 1.41466
-7.23526 -1.24817 1.24974
6.82765 4.12809 1.3704
-6.41823 -2.75793 1.19158
5.53281 -3.645 1.13812
5.71595 -3.53409 1.15379
2.82667 8.05752 1.47765
-7.32714 -1.03313 1.28226
5.35554 -3.79879 1.14454
-6.28016 -2.24863 1.15626
-6.24111 -2.40506 1.17071
4.29578 -4.68054 1.11089
4.50973 -4.49277 1.1166
4.60822 -4.46497 1.12564
-6.76424 -1.72319 1.22912
4.40582 6.61047 1.41781
-7.11701 -0.922784 1.2822
-6.11544 -2.24719 1.16007
6.70882 3.73063 1.37626
6.1691 4.4114 1.37591
3.62195 -5.3469 1.17435
5.22111 5.76657 1.42334
2.57673 7.37585 1.46913
6.54602 3.08097 1.36813
-1.70064 -5.76287 1.13742
6.45999 -1.39315 1.25391
6.32894 2.80271 1.33284
6.26993 2.40135 1.33974
-4.41068 3.90238 1.38272
4.36519 3.56741 1.34896
4.24726 3.32078 1.33526
4.67674 -1.68183 1.24812
4.83223 -1.38474 1.25768
-2.11319 4.73108 1.29152
3.73097 -2.95606 1.22386
3.67608 -2.55154 1.19479
3.40825 -2.96309 1.2266
4.0299 2.58611 1.3387
-2.59255 -3.53128 1.24939
-2.32509 -3.56875 1.2152
3.77398 2.06852 1.30903
3.74988 1.99013 1.30824
-2.82056 3.45719 1.3741
-2.29703 -2.41962 1.18675
1.95043 -2.7743 1.21037
-2.11247 2.7509 1.31511
-2.01836 2.73939 1.3214
2.24647 -1.86623 1.22369
2.37668 -1.49608 1.22127
-2.00981 1.86999 1.28968
-2.06566 -1.44352 1.22782
1.44413 -2.06309 1.24213
-1.99359 -1.08814 1.21372
-1.92585 -0.70784 1.21897
-1.92755 -0.703603 1.24452
-1.95609 -0.344395 1.22739
-1.8937 -0.564806 1.22874
-1.89327 -0.531004 1.23378
8.29706 -8.77974 -7.53316
12.2876 -10.4236 -8.91499
-8.49567 15.1584 -6.73761
21.2923 25.9343 -12.0628
-8.73526 -2.50167 -2.56027
-33.0661 -22.0883 -7.34627
-32.7176 -21.3964 -5.76835
-32.4417 -22.0468 -5.82519
-30.0779 -19.2901 -2.68686
9.4087 -8.9616 -0.396816
-7.24814 15.6237 -0.425242
-28.6221 -11.0758 0.707268
-6.85204 -8.1894 0.456258
17.4936 25.1204 1.66191
11.763 16.5434 1.67852
-6.64535 -6.6187 0.877049
4.38139 12.7147 1.55053
8.89283 9.26329 1.50193
8.04058 -8.83712 -10.4651
8.91246 -8.61585 -10.5901
7.01353 -12.0284 -11.6007
6.92804 -11.4368 -10.9776
8.22348 -8.33533 -9.61321
7.07566 -12.1148 -11.4059
7.12516 -11.0603 -10.5381
8.07307 -8.45052 -9.28283
6.78371 -11.3739 -10.3688
6.49798 -11.7871 -10.2902
7.82635 -8.92752 -9.04904
6.25548 -14.4207 -11.8925
8.37724 -8.78189 -9.18489
6.3512 -11.9999 -10.2515
6.19464 -12.1739 -10.1833
7.56207 -9.53251 -9.08285
7.98018 -9.13502 -9.00366
10.5946 -9.56342 -10.6126
6.16214 -14.1996 -11.4389
6.13698 -13.7375 -11.0603
6.17928 -12.6676 -10.3641
9.29317 -8.91732 -9.44622
9.38223 -9.1667 -9.56486
5.91115 -12.596 -10.1054
9.45874 -9.08238 -9.35663
6.92785 -11.2292 -9.36146
5.65854 -13.06 -10.0715
9.80193 -9.18301 -9.51672
7.67986 -9.42904 -8.54823
10.1127 -9.2916 -9.64595
11.0473 -9.60494 -10.2698
11.5895 -9.82337 -10.2008
8.46629 -8.69037 -8.03096
7.50344 -9.38774 -7.93875
8.2505 -8.8058 -7.9743
7.7036 -9.44268 -7.97097
7.91469 -9.49341 -7.91981
8.404 -8.61974 -7.69421
0.347674 15.8343 -10.1064
7.60322 -9.41585 -7.69976
11.0493 -9.72792 -9.35792
7.30455 -10.8154 -8.25765
8.23675 -8.58121 -7.49976
4.6383 -15.4721 -10.1566
8.79679 -8.78213 -7.68926
8.0001 -9.12056 -7.48172
4.06652 -18.0682 -11.4064
8.27936 -8.71212 -7.34601
4.09541 -17.3182 -10.8577
0.134577 14.8362 -9.02843
6.72467 -11.3772 -8.04384
7.81831 -9.35676 -7.39661
10.2572 -9.43269 -8.45343
6.89151 -11.3642 -7.97634
8.14401 -9.29817 -7.41781
11.4214 -9.82698 -9.00616
5.4473 -13.9653 -8.88798
7.81349 -9.35848 -7.22828
9.45598 -9.13367 -7.78848
6.97619 -11.2306 -7.82254
8.06534 -9.2201 -7.18622
9.87025 -9.29712 -7.90039
15.0936 7.54314 -9.80406
8.76432 -8.92889 -7.22788
7.00551 -11.0758 -7.52964
2.65807 -11.2763 -6.66121
7.94127 -9.16408 -6.94336
9.72178 -9.2502 -7.62102
10.9299 -9.61466 -8.21002
0.119759 15.2813 -8.62035
3.27222 -20.498 -11.6733
6.86876 -11.0876 -7.30988
10.2322 -9.4061 -7.78163
12.5321 -10.5147 -9.17144
9.34631 -9.10964 -7.2913
4.65703 -14.4067 -8.43853
8.09275 -9.31739 -6.85236
15.0178 7.67889 -9.26439
9.81509 -9.21656 -7.39276
0.824945 17.4696 -9.55261
2.73087 -19.719 -10.8554
11.2788 -9.77277 -8.10101
4.27981 -14.5651 -8.21467
14.929 7.80823 -9.07905
15.3609 10.6074 -10.0281
14.2498 7.86242 -8.70042
11.098 -9.7463 -7.85243
13.4828 -10.9787 -9.24671
3.03225 -19.2078 -10.223
11.5137 -9.96064 -7.74462
2.16216 -20.2429 -10.2756
10.3997 -9.46763 -7.07016
14.5093 -11.4749 -9.28537
14.0485 -11.3621 -9.04269
11.1641 -9.7915 -7.39627
7.59132 -9.43933 -5.99701
3.58533 -8.51773 -4.55336
-8.63136 -1.89515 -4.34418
2.20909 -19.9576 -9.84949
4.55841 -9.34936 -5.08595
0.393808 13.6589 -6.69081
7.69065 -9.36965 -5.91346
-8.2676 15.7652 -8.61577
-9.12273 -2.41169 -4.54619
15.2748 -11.7949 -9.27155
19.7461 5.65008 -9.8251
-10.2144 -2.52894 -4.97674
1.90435 -20.411 -9.748
17.6451 16.5853 -11.4761
7.67704 -11.3469 -6.46213
20.4223 5.51261 -9.96461
14.2623 -11.2905 -8.45676
2.95284 -17.4344 -8.22002
19.729 5.83762 -9.50797
18.2287 -13.2833 -10.4156
9.94246 -2.51144 -4.73893
20.6848 5.24304 -9.84816
17.7801 16.7233 -11.2545
1.8003 -20.0257 -9.20275
9.78649 -9.1503 -6.13358
-9.13273 -1.65771 -4.23258
9.52476 -3.49505 -4.62137
6.79948 -11.4593 -6.05839
9.99083 -2.63903 -4.68784
19.6211 5.98334 -9.23806
18.2134 18.0697 -11.5408
9.43856 -3.10929 -4.47368
15.7362 -12.1083 -8.90774
7.12973 -11.711 -6.13014
7.23567 -11.0428 -5.88264
9.6328 -3.43103 -4.55733
-9.735 15.9461 -8.31236
18.0379 -13.1633 -9.91997
19.9149 5.7372 -9.18879
16.3912 7.43535 -7.97385
18.3322 18.5206 -11.5321
16.7561 -12.4609 -9.20075
-10.8948 16.5599 -8.70661
-6.38947 14.5873 -6.97688
-5.17592 4.85338 -3.08927
20.5342 5.57562 -9.2533
9.63171 -3.43129 -4.41312
18.7559 19.0141 -11.4865
16.1348 -12.4156 -8.75792
15.1145 7.55791 -7.21571
3.87045 -9.37559 -4.30806
-10.8321 16.467 -8.33865
7.02868 -11.0362 -5.51522
-13.3806 3.27907 -5.80295
0.740513 -22.0468 -9.29761
16.0999 -12.1889 -8.44272
-5.09739 5.61123 -3.1692
0.991382 -21.8982 -9.19068
1.2309 -20.6295 -8.65794
14.4059 7.72709 -6.84108
19.1234 19.9332 -11.549
3.81149 -9.01944 -4.08209
15.0269 7.86423 -7.06342
18.459 19.7189 -11.2166
-9.42904 -1.08222 -3.91729
4.03026 -8.54801 -3.87115
14.2723 7.88155 -6.69659
6.92867 -11.1202 -5.35457
-13.4275 2.50817 -5.5868
-7.73718 14.979 -6.84546
19.9029 21.6311 -11.9164
15.336 7.36954 -6.85889
-5.14786 14.0399 -5.99064
14.2052 -11.23 -7.09042
3.97752 -9.17773 -3.92524
1.53958 19.4901 -7.59825
-8.4866 15.3187 -6.79987
19.36 5.90442 -7.84509
-1.73424 13.0679 -5.10353
5.34814 -9.48484 -4.19777
-2.3507 13.2566 -5.16828
20.2981 23.4861 -11.9112
4.69678 -8.57965 -3.71356
19.8019 5.68101 -7.84177
0.858916 -25.6915 -9.77294
15.1932 -11.7074 -7.21621
20.3791 5.52134 -7.90488
9.51567 -3.46697 -3.78686
0.524597 -21.9772 -8.19637
3.28852 -10.9204 -4.25867
20.9456 24.3737 -11.9429
0.906688 -8.6749 -3.23529
14.2786 -11.3072 -6.71409
20.802 5.29095 -7.89445
18.4236 18.2076 -9.47235
-12.8595 2.2528 -4.74554
21.6687 25.8818 -12.2513
2.309 -13.3624 -4.88356
13.2534 -10.7172 -6.13155
0.790727 15.5369 -5.5696
-8.14064 -2.77805 -3.07644
0.406644 -21.2724 -7.60869
-4.10895 13.463 -5.00201
0.632442 -21.4585 -7.63126
16.1836 -12.2223 -7.18589
-15.1887 17.5563 -8.17653
5.99153 -11.4544 -4.54359
-10.6678 16.0934 -6.73869
0.0974134 -18.0914 -6.36223
14.5225 -11.5085 -6.47728
20.7569 5.46679 -7.4946
0.649889 -22.4863 -7.77151
-4.86968 14.1186 -5.112
3.66879 -8.51433 -3.19031
4.92067 -9.11262 -3.54772
-14.0045 17.3834 -7.63607
2.28896 -10.9391 -3.829
-8.60017 15.5938 -6.06518
3.0792 -13.9145 -4.85588
-14.4626 17.7476 -7.7566
20.5723 5.59353 -7.16817
23.0574 28.5286 -12.269
37.6552 -21.2554 -14.4453
-5.14796 13.6403 -4.83706
1.93555 21.1074 -7.03863
1.26847 -10.2349 -3.40993
19.6133 -14.2562 -8.05022
33.8146 -21.2565 -13.1305
-5.0999 14.0268 -4.84275
-12.1627 16.6471 -6.68349
19.0248 -13.5567 -7.58376
3.58087 -8.72013 -3.02168
6.29276 -10.2294 -3.84747
2.32269 -11.0371 -3.58861
-4.30219 -32.3827 -10.389
-1.08892 -22.9635 -7.32203
15.339 10.5649 -5.88187
-12.7591 16.9748 -6.70765
-17.3165 18.6753 -8.0017
3.04007 -9.80114 -3.23579
13.4848 -10.6329 -5.40212
7.06372 -11.2552 -4.10639
1.36616 -21.4654 -6.65534
-2.45127 -26.1859 -8.07791
7.47329 34.5811 -10.8067
0.765977 15.1269 -4.60354
-10.7487 16.214 -5.85874
-2.56392 -25.2362 -7.64439
-13.8367 17.2975 -6.60515
-5.01444 -32.9393 -9.92583
0.818084 -24.1867 -7.2394
-5.21412 14.3266 -4.53007
2.10731 21.0845 -6.24846
-20.4567 19.0727 -8.24795
18.5625 5.90721 -5.73619
-4.16804 13.9778 -4.28418
-7.66131 14.8566 -4.89955
4.30123 -9.23868 -2.99401
4.70114 -11.774 -3.70512
-12.4506 2.19332 -3.6329
-30.6519 -43.4217 -15.2988
-14.6509 17.6226 -6.58415
7.07116 -11.2608 -3.8262
2.58337 -9.61167 -2.82696
13.1522 -10.6452 -4.81385
-8.38732 -2.44099 -2.4768
22.0204 28.4053 -10.1914
-8.51257 -2.24362 -2.48747
-2.40856 -24.633 -6.95148
-12.8493 1.96898 -3.61954
4.45634 -11.5016 -3.42158
-8.98162 15.4415 -4.9
-12.5916 16.7905 -5.76065
-5.207 13.8847 -4.04839
-7.89135 -38.3599 -10.7218
9.86691 -8.99275 -3.63221
-20.6165 19.2379 -7.57728
-9.38615 15.5602 -4.86578
-25.5965 19.662 -8.58377
11.6857 11.7627 -4.37911
4.39734 -11.4748 -3.25348
49.4662 -14.3797 -13.6441
-7.5586 -35.6937 -9.597
4.13855 -8.76023 -2.54988
11.3458 -10.0911 -3.97094
-13.9112 17.4161 -5.79234
6.62185 -10.558 -3.22439
3.21387 -9.75017 -2.65275
-28.0469 -41.0793 -12.8483
-4.07448 -26.7505 -7.00716
3.59049 -10.5122 -2.86274
4.11854 -9.5011 -2.6603
15.9415 -11.9867 -5.08739
-6.88153 14.6544 -4.09331
-29.4954 -39.3369 -12.4714
4.3804 -11.3173 -3.06958
4.29949 -7.78475 -2.26246
6.63813 -10.8267 -3.1656
46.9573 -14.1972 -12.2286
-27.0227 20.3871 -8.3662
-11.1038 16.3108 -4.86068
-25.9217 -37.8166 -11.2761
-9.14672 -36.0183 -9.1727
-23.4546 19.6992 -7.52431
4.40843 -10.4674 -2.7891
-11.6164 16.6364 -4.91624
-7.55795 14.7207 -3.98448
10.4195 -9.39808 -3.35883
42.0138 -13.9558 -10.5917
15.3967 7.70045 -4.10087
-5.84193 -33.4879 -8.10376
4.00856 -9.18351 -2.37328
49.3087 -13.197 -12.1126
-26.9564 -40.2655 -11.4869
-11.1099 -40.9227 -10.0518
4.26464 -9.12457 -2.40134
3.94385 -11.3088 -2.82032
4.96679 -8.79604 -2.37534
-12.2979 16.757 -4.83403
-7.12054 -33.6041 -7.95366
11.175 -9.79285 -3.39503
-5.80265 -29.4477 -6.8531
-25.9768 20.0626 -7.43789
43.2867 -9.46678 -10.0541
-29.0818 21.1144 -8.05525
-33.9503 -22.2486 -9.09589
-5.11038 -24.3475 -5.55115
42.4684 -13.1282 -9.97861
5.52558 -9.59653 -2.47125
-12.2395 2.79277 -2.75427
42.3401 -12.4079 -9.74647
44.465 -12.6871 -10.1712
29.406 41.4193 -11.1364
-5.16079 13.5319 -3.16235
13.6451 -10.98 -3.85384
39.582 -12.7202 -9.13822
-22.402 19.5241 -6.44345
-25.759 -63.5138 -14.8798
4.37266 -9.8402 -2.33374
4.60097 -9.30449 -2.24085
-14.0068 17.4498 -4.77575
-29.4635 21.4015 -7.77379
-30.2773 21.4865 -7.93428
-24.3264 -64.5486 -14.7942
-10.2697 16.045 -4.03618
-7.82242 -33.2209 -7.26251
3.24039 -9.83423 -2.20651
4.03145 -9.98933 -2.2953
47.9467 -11.1167 -10.5049
15.2256 7.62665 -3.61259
-14.55 17.9097 -4.88272
5.22946 -9.16894 -2.21662
28.4711 41.1999 -10.4757
-37.944 24.9269 -9.51547
-26.5088 -25.9421 -7.7026
15.2745 7.99421 -3.58176
-28.9748 -22.3774 -7.5954
-27.9824 -71.7546 -15.9537
42.2056 -11.3583 -9.03763
-10.9961 16.1999 -3.9758
-14.9991 17.7328 -4.72573
-33.3652 22.3972 -8.16388
46.4406 -10.1299 -9.69182
-12.1024 -38.9475 -8.29441
4.19946 -9.88241 -2.1833
4.3301 -9.86012 -2.19377
11.7929 -9.80313 -3.11919
-11.5201 16.5304 -4.01927
-17.7559 -50.9663 -10.7924
-7.97576 -30.8728 -6.3834
-11.972 -37.1975 -7.74085
4.13349 -10.0747 -2.15473
-32.7086 -22.3659 -7.81193
-25.5423 20.0464 -6.38866
-31.7886 -22.739 -7.61941
-6.59428 14.5664 -3.10001
-23.6594 -55.5967 -11.7416
-32.2176 -21.4483 -7.45905
3.48993 -9.50796 -1.95446
48.0232 -11.1267 -9.46446
-12.2325 16.7002 -3.95476
4.04982 -9.48598 -1.96714
-34.9304 -21.2179 -7.73703
-20.099 -32.651 -7.29387
-14.2174 -41.0268 -8.22034
39.4285 -13.0066 -7.84708
-34.045 22.8657 -7.67348
-32.3135 -22.3165 -7.37789
-31.3084 -22.9065 -7.28273
-19.2664 -47.7345 -9.69038
-15.4253 -41.9037 -8.28701
3.86893 -9.32229 -1.86333
44.4618 -11.9834 -8.5496
5.84149 -9.85364 -2.09831
-22.0919 -50.0962 -10.0283
-18.5867 -46.1383 -9.00069
-13.955 17.3948 -3.95208
-29.8127 -24.0447 -6.80869
-19.4624 -25.9348 -5.79958
-23.2996 -60.8831 -11.5743
-37.1836 23.4633 -7.75618
-25.5417 20.055 -5.65081
-32.3364 22.1276 -6.80184
3.97602 -10.2189 -1.90006
4.83134 -8.71961 -1.7316
14.2601 7.65835 -2.79392
14.3461 8.2327 -2.83515
-29.3238 21.3238 -6.21437
44.1284 -12.485 -7.80619
43.8792 -11.3644 -7.71483
-29.9704 -23.8023 -6.49298
-20.1482 19.1884 -4.67068
-18.4828 -45.9436 -8.37125
15.1386 7.58775 -2.8421
-30.1455 21.3411 -6.16843
6.70972 -11.1721 -2.19027
-21.1934 -50.5324 -9.05827
40.5626 -12.7904 -6.93054
45.5741 -12.2775 -7.67027
-9.91217 15.735 -2.9987
-18.7107 -46.4208 -7.98582
-33.4088 -23.0623 -6.39738
-21.7853 19.1402 -4.53969
-24.3359 -15.2565 -4.53624
-23.0927 19.7133 -4.70462
-37.8717 22.9301 -6.85956
-10.746 16.0825 -2.98393
3.53377 -9.69686 -1.59499
3.94495 -10.4305 -1.72535
-7.2569 14.717 -2.50355
-29.525 21.4891 -5.58116
-30.453 -23.521 -5.85155
-26.7909 -25.06 -5.55794
-19.8584 -46.1596 -7.6566
44.0941 -11.4632 -6.92395
46.9574 -10.2305 -7.32072
-6.23055 13.8749 -2.27292
9.92625 -5.20303 -1.66343
-32.0927 -23.147 -5.89293
-23.2922 -58.9004 -9.39748
10.3458 -9.30199 -2.07271
47.1269 -10.9024 -7.18241
-35.0473 -23.3306 -6.19664
-30.1681 -24.884 -5.72097
-11.575 -38.3576 -5.8983
17.3146 -12.527 -3.12929
-24.23 19.9493 -4.56019
-22.2888 -49.9431 -7.88357
-7.26189 14.543 -2.32191
-12.1719 16.5953 -2.93263
6.16178 -11.7713 -1.89722
-12.8288 17.1465 -3.00649
-32.8851 22.2147 -5.57867
6.88648 -11.2483 -1.84227
39.1443 -12.9185 -5.79632
-29.8639 -23.93 -5.34117
-31.2813 22.4804 -5.33566
-18.7163 -45.1117 -6.74811
47.2907 -10.5796 -6.68117
-6.52558 14.4294 -2.16152
-20.1086 -52.4835 -7.63806
7.85973 -9.51144 -1.65521
9.31756 -9.17256 -1.80292
-13.4046 17.1154 -2.92928
13.4698 -10.7433 -2.33047
-21.2359 19.3167 -3.85934
44.0223 -11.3822 -6.03551
46.9855 -10.2919 -6.36551
-21.6186 19.0246 -3.76493
-31.3274 -23.4418 -5.11081
-14.2546 17.4551 -2.91269
-32.2913 21.5529 -5.03984
-36.8414 -15.5559 -5.16356
7.13629 -10.6129 -1.64002
10.9741 8.98538 -1.82343
-32.4154 -22.3385 -5.03799
-29.8474 21.7895 -4.67414
-34.1139 -21.2874 -5.04018
43.8616 -11.3434 -5.66858
6.91267 -10.5455 -1.57471
-7.28601 14.5722 -2.01523
-23.8629 20.0374 -3.81495
-31.6555 22.31 -4.77673
6.43523 -12.341 -1.6943
46.93 -10.0126 -5.87671
15.2966 8.01425 -2.07811
-16.5161 -40.0029 -5.22012
7.20917 -10.7142 -1.55403
-19.9934 8.8609 -2.5885
-13.058 -39.5029 -4.89396
-30.5361 -23.5428 -4.50861
-30.034 -24.0196 -4.50036
43.9678 -11.7778 -5.34876
11.4151 -9.83047 -1.74473
-28.3921 21.5284 -4.09907
6.76366 -11.0201 -1.47937
7.59126 -9.34602 -1.37675
11.7779 -9.88728 -1.74603
9.53514 -4.65169 -1.20155
15.2717 7.84791 -1.93689
-9.88276 15.7329 -2.09549
-30.5187 22.3004 -4.23421
40.5703 -13.3555 -4.78867
9.4905 -9.15203 -1.45816
-10.5779 15.8645 -2.07169
6.96019 -13.103 -1.60588
47.0897 -10.2344 -5.22329
10.9773 9.02105 -1.5334
17.1755 -12.7585 -2.29538
44.1812 -11.4589 -4.88983
9.75775 -9.10818 -1.41373
8.48584 -8.572 -1.26322
-29.6358 -23.7155 -3.95228
-27.0166 -54.1909 -6.31767
15.2668 7.65667 -1.74668
-30.4844 -23.5054 -3.9495
-12.2893 16.7528 -2.10887
-12.2256 16.3795 -2.03088
10.3595 -9.22327 -1.35837
-18.7477 -47.6136 -5.01777
6.47116 -12.3924 -1.352
9.6232 -9.08545 -1.2514
-51.2676 28.5571 -5.66832
17.0354 -12.4634 -2.02812
44.0715 -11.8428 -4.37344
-27.4051 -55.3969 -5.87574
-18.6182 -48.8611 -4.96676
-22.2593 19.4701 -2.76459
47.8762 -10.6508 -4.5803
9.85736 -9.11734 -1.24259
41.481 -13.6837 -4.06918
-14.3553 17.5974 -2.05624
-28.7836 -13.1233 -2.88357
-28.8432 -56.2283 -5.8252
16.217 -12.1383 -1.84195
8.75248 -8.84469 -1.12643
-34.8118 -19.7437 -3.50574
13.1364 -10.8434 -1.48269
47.4392 -10.9958 -4.17081
9.53727 -9.15799 -1.11111
11.1292 -9.80065 -1.24604
-32.358 22.2221 -3.26697
17.243 -12.5742 -1.76683
-15.476 -40.2722 -3.45588
14.9966 -11.7264 -1.5174
-37.6218 -73.5195 -6.55903
-10.9667 -30.7028 -2.57361
-28.3242 21.5367 -2.75218
-31.3661 22.1711 -2.96579
-20.556 -46.9562 -3.95715
7.71074 -9.43537 -0.97222
-47.7494 25.9877 -4.1175
-20.4254 19.2238 -2.0407
-31.5729 22.3328 -2.80339
16.7678 -12.529 -1.53052
44.112 -11.8046 -3.32609
-34.4162 -65.1195 -5.31458
14.2613 -11.2837 -1.3009
-14.2916 -37.9125 -2.79633
10.9407 -9.7708 -1.00462
-22.2778 19.5066 -2.00035
13.1156 -10.8224 -1.13779
18.4135 -13.3551 -1.51571
-21.0506 -48.5004 -3.49399
16.4179 -12.4184 -1.35886
-13.4656 -37.3352 -2.56716
46.0417 -11.9746 -2.97294
-28.283 -57.3065 -3.89861
37.2266 -9.03135 -2.35052
45.0934 -10.3213 -2.83941
6.2326 -13.4725 -0.886338
32.3148 -21.3828 -2.31714
-9.36806 15.6389 -1.07154
-14.3372 -37.4008 -2.28018
17.011 -12.7131 -1.19177
-9.51498 -12.3347 -0.853597
15.2641 7.83112 -0.928986
14.1843 -11.2284 -0.96827
-12.2167 16.5559 -1.07501
-15.1803 -37.626 -2.15402
15.1576 7.97046 -0.840741
-14.9834 -38.3003 -2.01705
-13.5205 17.1375 -1.04437
9.70495 -9.15437 -0.611678
-21.5455 -49.4232 -2.43815
12.6799 -10.4241 -0.760642
-14.5519 -40.5651 -1.91227
-15.8114 -38.9564 -1.7988
7.04086 -13.0014 -0.655327
-12.6767 -38.6442 -1.73138
-48.9871 26.6413 -2.26054
18.8245 -13.5242 -0.940083
17.2142 -12.7954 -0.8348
-35.7969 -69.4785 -2.94573
-16.5063 -43.2853 -1.70462
-31.883 21.9069 -1.41611
44.6217 -11.4974 -1.65871
-30.3652 -60.4018 -2.25921
-23.206 -50.8562 -1.88002
21.1283 24.4365 -1.07559
-20.4679 19.1807 -0.914982
8.36896 -14.7709 -0.56952
9.55842 -9.12503 -0.428183
11.4935 -10.1185 -0.497491
19.088 -13.4968 -0.767752
36.2478 -13.6715 -1.28499
23.1705 28.0482 -1.16988
-26.59 -13.3373 -0.932194
-21.8518 19.4595 -0.892844
-30.0927 21.3136 -1.15215
-22.3118 -51.2958 -1.73027
-12.7279 -36.0084 -1.17499
-19.2615 -49.1355 -1.59584
-15.11 -40.9516 -1.24882
-32.7012 -19.8275 -1.01797
11.6426 -9.87696 -0.408784
16.7254 -12.4402 -0.549073
-38.6425 23.9061 -1.1999
-28.7342 21.8644 -0.894669
-29.2491 21.4364 -0.858705
9.70761 -9.13863 -0.308703
-39.4258 13.6268 -0.923209
-28.7294 -48.1089 -1.25967
21.9063 -14.6511 -0.578719
31.8035 -19.2849 -0.838516
14.45 3.99342 -0.306625
30.4213 53.1627 -1.13153
24.2033 -11.2681 -0.469852
49.6228 -11.4268 -0.946724
-29.4799 -21.1854 -0.661203
-28.2241 -27.7216 -0.626083
-17.3099 -42.4754 -0.761544
12.9602 -10.6577 -0.275834
19.0231 -13.7462 -0.358221
-28.3958 -12.6212 -0.407694
-31.4583 -23.5426 -0.545735
-29.4336 -59.3359 -0.890747
-24.7986 -52.7799 -0.796045
-32.5402 -22.2232 -0.513592
-28.7493 21.8726 -0.426882
17.4223 -13.0107 -0.257804
30.525 -18.9271 -0.421841
-29.2175 21.45 -0.405165
-36.3789 -20.3272 -0.468395
-17.5426 -40.2334 -0.4673
-11.1311 -33.5056 -0.353655
-30.1308 -53.0907 -0.559256
-13.6769 17.3493 -0.170754
-25.962 -13.0893 -0.234433
-14.3393 17.48 -0.155841
-21.5475 19.2441 -0.150181
-20.0652 18.8208 -0.126618
-10.3569 -13.3147 -0.0587968
15.0231 7.89208 -0.0215156
11.2958 -9.93288 -0.00778036
-33.2058 -18.1876 0.0584695
-10.5477 -31.3483 0.109863
17.3732 -12.6223 0.0934981
-17.3051 -39.7295 0.195407
19.2862 -13.5886 0.125662
7.35407 -12.6417 0.10686
26.7922 -10.9923 0.178407
-51.9893 18.5641 0.524528
16.6349 -12.3284 0.197943
38.9724 -7.95685 0.375512
-28.2795 -7.97413 0.343692
-34.7909 -20.9991 0.449168
-10.5855 -30.3294 0.346858
-50.6332 27.7501 0.703613
-11.8234 -32.764 0.417227
-9.60991 -29.5397 0.375014
6.51796 -13.3231 0.189384
7.3593 -11.3377 0.177794
-26.8117 21.0466 0.519955
11.5076 -10.0501 0.229792
-23.0155 19.6827 0.497998
11.083 -9.89587 0.233278
13.2256 -10.8879 0.270039
37.8417 -8.09884 0.644009
-33.1354 -22.2001 0.726644
-29.6796 21.2215 0.714372
6.32517 -13.2157 0.284254
7.16338 -11.2733 0.257344
8.14671 -9.5597 0.245292
31.4492 64.6691 1.55969
7.84544 -9.58612 0.280058
10.2849 -9.31552 0.3348
-28.0223 -8.98558 0.708943
-22.2632 19.4327 0.797539
-26.2599 20.7062 0.89542
-28.15 -8.45243 0.774561
9.32145 -9.02305 0.350448
9.76531 -9.07619 0.363407
-24.3759 20.5446 0.864079
26.0382 -5.26763 0.739601
13.2353 -10.8578 0.510042
15.6239 25.453 0.919681
6.36895 -13.139 0.459293
7.61871 -11.8765 0.442738
-27.7074 -7.81431 0.944567
-12.2466 -18.7511 0.73908
-27.401 -8.56412 0.992648
16.512 11.3017 0.722239
-28.8281 -17.8637 1.18632
16.754 29.104 1.19667
-29.4525 -16.0654 1.24398
24.096 -4.35117 0.884547
-26.9038 -19.1345 1.22439
-7.22734 -7.8803 0.403646
9.17914 -8.95109 0.476537
12.7859 13.9867 0.729636
29.5329 60.926 2.56108
28.3057 60.2666 2.50419
-11.4034 -9.02629 0.573664
8.84208 -8.78707 0.493066
-24.4821 20.1677 1.28538
22.309 -3.02352 0.911912
-27.8807 -16.9348 1.33722
9.55031 -9.05563 0.539564
12.8341 14.7813 0.841195
6.74855 -12.7804 0.613489
15.4638 20.093 1.11346
22.035 30.4366 1.64403
-9.31614 -13.5459 0.723362
-9.75871 -15.2624 0.80511
7.74248 -11.1591 0.598276
8.7416 -8.83231 0.561487
24.7739 -3.7952 1.13148
-29.0345 -8.46106 1.38047
6.87902 -11.309 0.608843
-8.19043 -8.06036 0.540963
23.5651 47.5465 2.5368
-27.6513 -17.0895 1.53745
-9.58693 -13.4477 0.786799
9.80154 -9.09418 0.629678
17.4316 48.4433 2.49043
-29.3491 -12.9996 1.53258
-6.69939 -8.16758 0.519986
15.8454 36.8494 2.04536
-28.89 -11.3133 1.55737
-7.52968 -6.92382 0.517101
-6.64351 -7.53118 0.508148
17.2125 31.1808 1.848
10.8146 12.6458 0.89845
14.7974 20.137 1.34069
9.47872 -9.05326 0.702191
15.4008 20.0386 1.39446
16.0539 24.7953 1.62538
-26.3383 18.5451 1.76324
-6.90787 -8.11826 0.591317
-25.2787 19.3965 1.76901
6.27022 -13.2391 0.819128
-7.03016 -9.06009 0.654279
10.2124 12.7561 0.960291
15.7331 26.5086 1.79984
6.64475 -13.3455 0.857516
14.5177 23.6854 1.63995
-8.17775 -8.0384 0.691082
11.8012 11.8828 0.997975
15.2541 20.2882 1.52412
-7.30806 -9.89306 0.765363
7.14847 -11.3917 0.819316
11.4464 -9.87325 0.916306
5.98358 -10.969 0.774987
-7.14067 -6.60023 0.607644
15.0855 21.4001 1.65578
16.4459 7.30016 1.16774
-6.98775 -6.10525 0.608847
6.6533 -13.8415 1.02289
9.90334 22.3703 1.64984
10.6782 12.8708 1.14267
14.0479 18.8897 1.6412
12.9443 21.4619 1.73358
11.6136 12.2681 1.18514
6.70185 -9.99483 0.851895
11.7604 12.0322 1.21703
9.91232 -6.99711 0.863196
12.6475 12.244 1.29228
10.0551 -8.49141 0.963992
-6.0542 6.56152 0.665083
10.6193 9.35068 1.06238
12.3585 18.4782 1.67205
11.9156 18.9842 1.68833
-6.8862 -7.63294 0.79733
11.2949 19.4951 1.72825
9.64419 -9.08004 1.0235
10.7692 14.4563 1.41277
-6.38329 -4.27726 0.605781
9.57939 19.1925 1.71384
10.1921 -6.97441 0.988719
12.7332 11.8141 1.40362
10.1662 19.7391 1.78755
-7.18329 -9.52809 0.972383
6.81088 -9.51018 0.95157
12.519 11.9763 1.4191
12.4258 12.2204 1.44676
11.6858 12.2144 1.399
-4.97417 -11.3533 1.04356
10.5761 13.2323 1.44095
-6.91349 -6.0413 0.790779
-6.76831 -6.64813 0.801422
-5.13572 -11.2644 1.05364
-7.23769 -7.68016 0.908981
9.38475 -7.33429 1.02891
-7.05753 -7.98641 0.932948
-6.95832 -7.62623 0.908109
9.62572 12.8486 1.42302
-6.88836 -8.29541 0.963601
11.0052 9.23412 1.30891
10.7433 13.8369 1.58242
10.711 9.40711 1.3046
7.96444 14.4576 1.51815
-6.44192 -8.06545 0.946044
-6.83365 -8.92796 1.03812
11.4302 11.0242 1.4649
11.4497 9.34185 1.38246
11.0939 11.0272 1.46595
6.73793 15.5711 1.59447
-11.2943 2.89344 1.09233
-6.32964 -4.15015 0.708839
-6.76011 -6.2518 0.853882
9.68826 13.6635 1.61561
-5.93055 6.44399 0.86075
8.03238 -6.66895 1.0173
8.16114 13.6082 1.57616
-7.00972 -7.55409 1.03839
9.52245 11.9069 1.53764
7.20471 12.7927 1.49008
7.27605 13.4049 1.55499
9.70093 9.25256 1.38716
6.08044 14.4958 1.62966
9.37178 12.7465 1.64938
-6.07691 -4.43465 0.788315
6.17431 14.188 1.63024
6.43718 14.1008 1.62992
-6.93008 -4.40212 0.877919
8.92085 9.17596 1.36418
9.31814 10.3808 1.51697
7.50154 11.264 1.4708
5.98876 11.7963 1.43855
-6.25073 -7.35343 1.05509
10.4041 6.53877 1.35939
9.13308 8.26631 1.35773
7.49895 11.987 1.56137
7.02615 11.9421 1.53202
5.52365 12.2664 1.49714
5.03301 12.5115 1.50932
4.90112 14.2544 1.65904
10.0052 7.15386 1.37318
8.91728 9.47911 1.45415
5.54154 11.8577 1.47431
-6.79133 -6.67425 1.05991
7.02797 10.9699 1.46771
4.49621 13.7176 1.63238
9.83226 -3.22191 1.15349
-6.06937 -5.38317 0.939165
7.34632 -6.16783 1.08867
10.5441 5.78537 1.3792
-7.33601 -0.979756 0.847473
-6.22125 -5.32523 0.942516
5.27417 -5.58425 0.884775
5.22566 11.9868 1.51952
-6.84293 -4.53264 0.950938
4.48989 -7.321 0.992866
10.5298 5.2091 1.3784
9.01944 8.0053 1.41558
-5.97288 -4.34699 0.860709
-6.4476 -5.24241 0.981586
4.13423 -7.94691 1.06487
4.99284 -5.88103 0.92535
10.2801 4.80689 1.36023
8.65465 8.40406 1.46112
5.43299 11.8368 1.59037
9.1582 6.34445 1.36396
8.14149 8.47311 1.47198
-6.4494 -5.71103 1.07236
3.74077 -7.64262 1.06527
8.78949 6.77715 1.39558
-6.42953 -5.31278 1.0555
9.20116 6.08617 1.40835
8.29662 7.23945 1.40481
8.23203 7.61669 1.43196
5.80773 -5.37387 1.01569
-6.93157 -4.4174 1.05486
8.22757 8.12351 1.4997
-7.31294 -1.0361 0.953684
-6.88658 -2.81148 0.971006
9.06321 4.14115 1.30483
8.51172 6.71518 1.42321
5.02659 -6.06194 1.03491
4.94551 -6.22902 1.05297
6.9079 -4.30615 1.08339
-7.09361 -1.70869 0.977622
-6.972 -2.20809 0.97727
-5.99622 -4.40095 0.994164
8.24157 6.74571 1.44383
8.69592 4.48402 1.33386
8.72563 5.22353 1.38899
8.14031 7.23776 1.48265
-6.77188 -3.71347 1.04839
8.94835 4.2004 1.353
8.36241 5.90228 1.40163
-6.36481 -4.30662 1.05136
-5.92864 -4.5032 1.01657
5.4707 9.21927 1.48112
3.75048 10.3769 1.5333
-7.32321 -1.08637 1.02463
-6.86583 -3.90524 1.09591
4.97295 -5.57042 1.0318
5.25394 -5.42471 1.04796
7.50714 -3.55763 1.16165
3.49315 10.4775 1.54869
8.48745 4.64527 1.36864
7.41799 -3.69954 1.17579
7.63172 -3.35451 1.18838
7.80895 -3.3257 1.20422
9.01551 2.83879 1.36037
4.8574 -5.66286 1.0722
7.39394 -2.86863 1.15453
-6.92059 -3.28218 1.11609
7.96629 -2.79648 1.23085
8.72287 -1.83226 1.30824
5.11008 8.74953 1.49617
3.04272 9.72776 1.51761
7.77672 -1.89876 1.17969
7.31419 5.82507 1.39321
3.55533 9.83684 1.54723
3.28556 10.1024 1.57567
-7.32537 -1.03703 1.09635
-7.03535 -2.01187 1.09001
7.03579 6.36924 1.43298
-6.23423 -2.2612 0.994742
-7.19772 -1.36724 1.10537
8.02248 4.86824 1.42964
5.80027 7.47423 1.43579
5.3834 7.76245 1.4381
5.15101 8.16333 1.45982
6.79288 -3.24155 1.13815
7.28594 -3.14177 1.21498
7.68028 -2.7714 1.24413
-7.2716 -0.728452 1.11536
-7.05766 -1.94357 1.12934
6.82267 -3.1081 1.15933
3.7669 -5.81273 1.07085
-7.01411 -2.06453 1.14578
-7.30159 -1.08628 1.1585
7.4366 4.82364 1.40003
-7.15673 -1.43512 1.16073
-7.22847 -1.29339 1.17762
-7.05789 -2.00776 1.19277
7.14148 4.8116 1.40576
-7.06146 -1.93456 1.2022
7.08155 4.91511 1.43194
6.68262 4.90169 1.38316
5.27649 6.32759 1.37285
4.75101 7.29198 1.45407
3.90212 8.09977 1.49531
-7.20664 -1.36545 1.22384
2.80352 -5.79965 1.08564
7.21104 4.47153 1.42948
6.58417 5.29523 1.42559
3.88903 -5.38643 1.11994
3.95009 -5.03799 1.08359
-7.2292 -1.24501 1.24378
-6.56507 -2.61201 1.19834
7.47424 2.87004 1.35796
7.09216 3.92568 1.38146
-6.38317 -2.73963 1.18139
6.83562 4.13566 1.37163
5.70539 -3.53378 1.15503
-7.35095 -1.03328 1.28307
-6.32658 -2.26956 1.15505
5.55706 -3.6622 1.14708
5.3389 -3.78812 1.14735
3.66318 7.29506 1.43681
-6.76334 -1.72594 1.22528
4.4952 -4.48249 1.11708
-7.05089 -0.909329 1.26577
4.74256 -4.47405 1.15368
4.39358 6.59075 1.41402
6.63891 3.50184 1.35559
6.68086 3.71331 1.37322
-6.40941 -1.49311 1.18306
3.622 -5.34559 1.17443
5.13836 5.68016 1.40285
-6.12727 -2.17338 1.191
3.42356 -5.17416 1.15366
3.44701 6.89065 1.4424
-1.69147 -5.76057 1.14051
6.48972 2.75107 1.34149
-2.13566 -5.70735 1.17152
6.35296 2.81555 1.33792
-2.77831 -5.35872 1.18277
-3.47313 5.27257 1.36548
4.50753 3.92574 1.36466
4.15854 -2.88382 1.17918
4.63947 -2.19133 1.23986
4.22886 3.31497 1.33148
3.71184 -2.9337 1.22541
4.04069 2.58913 1.34122
-1.44352 -4.11793 1.22137
-2.32056 -3.57852 1.21154
3.87979 2.3767 1.3187
-2.83793 3.49594 1.34773
-2.4809 -2.91648 1.18866
-2.37871 -2.93803 1.19376
1.83742 -2.80359 1.17901
1.86052 -2.78214 1.20907
1.98657 -2.51973 1.19564
-2.0319 2.78877 1.30984
2.80368 -0.555587 1.25969
2.78347 -0.336783 1.24164
-2.09144 -1.62047 1.21274
-2.0791 -1.45236 1.2377
-1.86479 -1.7978 1.28357
-1.99674 -1.1323 1.20408
-1.98818 -1.07116 1.23084
-1.94789 -0.880977 1.23094
-1.93209 -0.70886 1.22107
-1.93091 -0.701927 1.24824
-1.90705 -0.469969 1.22085
-1.87236 -0.345945 1.21795
-1.85735 -0.401449 1.22476
2.36992 -19.5631 -9.94412
-7.51538 -8.87287 0.460008
8.08544 -8.8718 -10.5521
8.32868 -8.69527 -10.5828
8.28021 -8.35399 -9.96116
7.01447 -12.0487 -11.4958
8.59373 -9.05349 -9.82699
7.91571 -9.00972 -9.20852
5.89296 -12.8838 -10.7995
9.52161 -8.92122 -9.83972
6.19227 -14.1866 -11.6502
8.36189 -8.75565 -9.10099
8.09017 -9.24986 -9.1876
7.3548 -9.32331 -8.84549
5.95653 -14.2529 -11.2681
7.78881 -9.38899 -8.80074
7.92585 -9.19645 -8.7436
7.18907 -10.6665 -9.15601
6.87998 -11.166 -9.29539
10.1691 -9.29761 -9.67519
6.59735 -11.2698 -8.93773
8.10535 -8.70402 -7.91845
7.42863 -9.36477 -7.94172
8.59632 -8.76176 -8.15736
7.79661 -9.56465 -8.10482
6.54857 -12.8886 -9.43759
8.00933 -9.26714 -7.98698
5.02582 -16.0958 -10.8437
-0.481198 13.8793 -8.88073
7.80026 -9.32949 -7.79634
7.41012 -10.9713 -8.42737
8.45927 -8.64823 -7.70575
11.0118 -9.74017 -9.32288
9.07828 -8.90462 -7.97378
11.9318 -10.1738 -9.82472
8.15277 -8.61947 -7.29768
4.05052 -16.8558 -10.6237
4.27027 -15.4355 -9.83194
7.92377 -9.45181 -7.38972
3.96357 -15.6508 -9.62636
11.6385 -9.96286 -9.17362
6.93417 -11.1863 -7.81266
7.8392 -8.89391 -7.02176
5.53383 -14.105 -8.94987
6.55133 -12.823 -8.42475
8.4429 -8.67636 -7.0537
9.80002 -9.18529 -7.83023
2.81094 -11.8677 -6.98901
5.54537 -14.0578 -8.55345
9.70884 -9.2127 -7.56432
6.68318 -11.1758 -7.32995
3.33343 -20.5589 -11.6731
8.97329 -9.03306 -7.13608
12.3701 -10.3773 -9.04347
6.89108 -11.1111 -7.2818
4.72497 -14.7286 -8.54616
6.28738 -12.7486 -7.81729
0.887733 18.6409 -10.1617
14.8576 7.85197 -9.13412
4.2413 -14.3555 -8.08229
14.9889 -11.8599 -10.3005
15.2213 7.56469 -9.05716
14.2362 7.84477 -8.6401
4.80147 -14.9458 -8.33915
12.2535 -10.2922 -8.41935
1.80762 -20.3335 -10.5028
11.5725 -9.98624 -7.82929
2.07545 -20.0852 -10.2468
14.2063 -11.2755 -9.17154
-0.00503918 14.2451 -7.15112
-7.10081 14.7483 -8.19862
10.7326 -9.72507 -7.27582
7.5979 -9.52869 -6.07021
17.968 5.59205 -9.18197
-8.26323 15.6547 -8.5507
11.8129 -9.92045 -7.46462
10.6308 -9.70851 -6.91158
15.0505 -11.5378 -9.14482
17.1111 16.2126 -11.204
7.58084 -11.2024 -6.4424
15.2657 7.54348 -7.9925
14.1551 -11.2076 -8.43643
-11.5503 16.5342 -9.23631
16.139 -12.2278 -9.24806
9.85718 -2.47157 -4.66866
-9.03089 -1.64183 -4.17366
19.2777 18.6054 -12.0948
3.94665 -9.17358 -4.53124
-9.88367 16.1386 -8.49422
-5.28601 4.39484 -3.08971
6.94827 -11.4364 -6.02211
9.53807 -9.19193 -5.84103
16.3006 7.43664 -7.9072
-6.43659 14.6068 -6.96752
1.5039 -18.7049 -8.11574
-10.794 16.4174 -8.45531
9.66162 -3.3985 -4.38712
7.1087 -11.1868 -5.60113
16.1179 -12.1829 -8.45543
14.8975 7.87586 -7.07105
19.3349 20.12 -11.668
1.01266 -22.2719 -9.2834
-4.42768 13.5239 -5.86024
-9.83783 -1.10039 -4.10218
14.324 7.9101 -6.68392
21.2018 23.0664 -12.7772
-12.878 2.41328 -5.33651
15.3744 7.30526 -6.88678
-5.07509 13.8924 -5.94492
3.67113 -8.88519 -3.82527
12.5757 -10.421 -6.39673
14.1892 -11.2031 -7.06347
19.9518 22.3347 -11.6234
19.1681 5.91105 -7.78022
1.54577 19.4663 -7.57503
-8.43369 15.1897 -6.69412
11.5629 -10.1942 -5.92789
19.9217 23.1013 -11.7568
0.676111 15.447 -5.92343
-1.64198 12.5416 -4.86454
2.72376 -12.2742 -4.82316
-8.69691 -1.24216 -3.33893
0.695603 -23.1319 -8.73496
15.4796 -11.8623 -7.35309
9.56955 -3.49187 -3.84295
-14.0433 17.3088 -8.30409
-7.83409 -3.4801 -3.14398
1.09284 -10.4033 -3.84779
7.12294 -11.3856 -4.90957
14.4416 8.06429 -5.97428
-8.23048 -2.82585 -3.12905
0.784447 15.3746 -5.49163
-3.83335 12.9456 -4.77307
5.81033 -11.1235 -4.41476
16.1541 -12.2078 -7.16972
19.4558 6.00918 -7.16588
2.15974 21.1844 -7.47358
22.5939 27.3182 -12.3272
-14.2857 17.6318 -7.78623
3.00455 -13.4718 -4.74902
-8.55532 15.4493 -6.03173
18.9172 -13.3984 -7.94316
-4.87576 13.9938 -5.03587
1.34005 -21.7885 -7.23587
1.77509 19.9103 -6.60724
1.44907 -10.3064 -3.43967
40.9453 -20.9299 -15.0875
-3.22639 -23.8092 -7.75282
6.23831 -10.1582 -3.81458
17.9592 -12.6806 -7.03973
2.14091 21.0064 -6.72393
-12.8184 17.1103 -6.73807
1.42147 -22.137 -6.91413
-4.15829 14.2144 -4.59938
-10.5141 15.9281 -5.78154
-2.60229 -26.5437 -8.10816
3.0938 -9.5564 -3.0516
0.777814 -23.5268 -7.08205
19.6067 -13.9167 -7.13258
17.9241 5.67064 -5.51816
-7.57963 14.6682 -4.80385
4.2794 -10.6154 -3.32505
3.66885 -10.7043 -3.21906
4.3019 -11.0977 -3.33956
-12.749 17.0389 -5.91731
-8.90226 15.2153 -4.79316
-13.053 1.95664 -3.61869
-16.1766 18.5842 -6.68808
27.1925 -17.9008 -8.81891
-3.65776 -26.1055 -7.07599
3.82233 -9.23823 -2.67397
-9.39609 15.6164 -4.84878
49.5868 -14.4781 -13.6962
10.6836 -9.52847 -3.78849
-6.1701 14.2799 -4.06085
-13.8067 17.3089 -5.80811
-7.40256 -35.0465 -9.33637
5.01936 -9.68821 -2.82315
6.64587 -10.6346 -3.23409
-6.89007 14.6189 -4.1053
-10.1159 15.7536 -4.78148
-9.09291 -36.0461 -9.25112
-8.25948 -35.6684 -8.94696
11.1082 -9.79218 -3.64035
-7.6264 14.7978 -4.03442
-11.2248 16.3136 -4.79159
14.8781 7.85936 -3.99601
4.09037 -9.35028 -2.41454
15.4898 7.67171 -4.07583
3.78834 -9.00572 -2.29575
-6.09399 -30.3821 -7.1801
5.69709 -10.0074 -2.66798
46.7997 -11.3254 -11.1903
-12.2568 16.6942 -4.76548
15.1392 7.75361 -3.8504
45.7387 -9.89462 -10.6001
-9.36267 15.5935 -4.06907
-32.0091 -78.657 -18.4543
3.76664 -9.38153 -2.1983
44.8616 -11.5088 -10.1074
15.4043 7.64233 -3.68447
-10.1707 15.8749 -4.03651
-20.6986 -32.541 -8.28762
-17.1322 -53.5353 -12.1158
4.88733 -9.88416 -2.37775
47.1277 -11.0349 -10.355
-14.1313 17.5074 -4.73209
-30.8767 -22.7899 -8.13501
43.5319 -14.5653 -9.70981
15.1286 7.99452 -3.57071
-33.5343 22.6775 -8.27676
-7.71269 -31.5533 -6.58266
4.02339 -11.7099 -2.48747
46.6032 -10.0551 -9.69613
11.97 -9.90829 -3.11552
44.8899 -11.5562 -9.23601
-25.724 19.4117 -6.39558
6.23772 -10.4399 -2.42022
48.1103 -11.2505 -9.64905
-12.224 16.678 -3.99462
-25.5738 20.0416 -6.31262
16.4443 12.4392 -3.94389
-6.55059 14.4165 -3.03755
-31.7168 -22.9411 -7.49298
-30.2843 -23.7148 -7.39269
-33.7549 22.4928 -7.6373
-32.2494 -21.2738 -7.30135
18.3685 5.77504 -3.59553
-32.7884 -19.7835 -7.15197
-13.7451 -39.6317 -7.81861
3.83184 -9.97901 -2.01156
-21.784 -54.2374 -10.8752
-15.331 -41.3053 -8.06266
4.03278 -9.77296 -1.90603
13.2948 -10.3885 -3.04207
47.5311 -10.5771 -8.74577
-14.0791 17.4613 -4.00658
-25.7053 20.1609 -5.76675
15.3754 8.13929 -3.03208
-28.9776 -25.252 -6.7
44.7498 -11.4627 -7.93024
-7.56513 14.5717 -2.77945
-9.24836 17.0305 -3.27189
46.753 -11.0059 -8.12115
-29.196 21.2662 -6.08027
-29.0626 -22.3593 -6.12913
-19.8618 18.9911 -4.57099
-30.6833 21.6693 -6.26586
16.263 -12.1341 -3.32421
-9.86734 15.6646 -2.94393
-40.7911 24.0028 -7.50823
-30.3426 -22.7945 -6.07593
-32.0949 -22.138 -6.14114
3.48872 -9.64714 -1.60338
-22.6805 19.3746 -4.60604
17.3025 -12.2319 -3.28139
-10.6719 15.9713 -2.91708
48.2783 -11.3148 -7.52548
-20.6576 -47.874 -7.88141
-28.0257 21.0187 -5.23748
-36.2723 22.6167 -6.34422
-30.3375 -23.5491 -5.72989
46.7334 -10.0148 -7.11591
-32.3147 -23.3703 -5.82731
-46.6783 26.0626 -7.68663
-34.0266 -22.6962 -5.88765
6.89487 -13.2307 -2.16502
-34.7492 -20.1965 -5.68834
-6.57434 14.4934 -2.20839
-12.5229 16.9047 -2.92615
-30.5048 21.9622 -5.25347
-26.2091 -22.4761 -4.7611
-22.1991 -49.4397 -7.47532
-14.5991 -42.6805 -6.20632
38.173 -12.6949 -5.51631
-22.1148 19.4336 -3.91681
-30.9454 -23.1746 -5.04754
-29.3671 -24.0919 -5.02223
-32.506 -22.387 -5.05586
7.54987 -9.56262 -1.57492
44.8168 -11.4722 -5.93539
-31.7839 21.6284 -4.88755
-28.8218 -15.3796 -4.16433
6.10375 -7.90474 -1.27539
46.9245 -11.0293 -6.11056
-29.5072 21.6863 -4.56921
14.8035 -11.5332 -2.30487
-28.5052 21.4695 -4.3167
-30.9242 21.8607 -4.55945
-9.87472 15.7053 -2.14251
-30.2845 -21.7811 -4.38885
-20.7145 -49.8679 -6.28345
13.2314 -10.7014 -1.99154
37.2103 -12.296 -4.53391
6.45147 -10.5206 -1.41783
11.3754 -9.85755 -1.69548
16.8262 -12.5279 -2.3632
-10.5667 15.8443 -2.10797
6.91926 -12.8915 -1.60229
11.7944 -9.84961 -1.70129
44.6471 -11.449 -5.0597
-36.8688 22.9883 -4.66319
46.997 -10.982 -5.19592
15.231 -11.6957 -2.04242
-12.3737 16.7171 -2.13573
15.0552 7.96872 -1.70389
14.2866 -11.2704 -1.8172
-13.3812 17.114 -2.10668
6.55557 -12.5627 -1.36317
9.53584 -9.04511 -1.27005
17.4216 -12.7388 -2.10565
-28.0186 -13.3887 -2.92534
-14.3105 17.5241 -2.10878
-32.5811 -63.4748 -6.64173
-32.646 -20.428 -3.40979
16.5068 -12.3691 -1.85557
40.1488 -13.359 -3.7863
11.2969 -10.042 -1.24874
45.1007 -11.5273 -3.88194
-14.9018 -38.7796 -3.33728
-34.7804 -68.0091 -5.94995
18.0586 -13.1594 -1.76406
-28.678 21.7046 -2.75134
7.55369 -9.30504 -0.927393
-31.1761 22.0689 -2.8379
-15.3116 -37.8788 -3.05356
-32.582 -61.312 -4.93716
-31.3674 -62.8243 -4.80967
12.8041 -10.6558 -1.1209
17.4773 -12.7294 -1.46109
-37.2731 23.204 -2.87143
45.3865 -11.6202 -3.07481
-27.8363 -13.0893 -1.84202
-35.1665 -67.9415 -4.63187
14.811 -11.5466 -1.13119
32.5372 -21.434 -2.12797
32.4603 -20.4584 -2.09613
15.6435 7.72609 -0.906546
15.0706 7.99147 -0.878388
-12.2903 16.7721 -1.05541
-22.3093 -49.2307 -2.776
-12.5135 -34.0602 -1.79813
-26.3408 -15.213 -1.4434
-36.7597 -69.2802 -3.8282
9.79788 -9.22779 -0.673005
13.711 -10.9037 -0.860116
16.3338 10.391 -0.916103
16.6708 11.6848 -0.949526
7.00569 -12.8494 -0.695402
-19.6662 -5.80286 -0.880519
-27.3144 -48.6778 -2.4614
10.4962 -14.1707 -0.720216
18.5162 -13.353 -0.932496
44.534 -11.3758 -1.82871
-9.23406 -12.2132 -0.590506
46.189 -10.8161 -1.86501
23.3561 28.0796 -1.24902
-31.1319 21.2819 -1.3081
