ply
format ascii 1.0 
element vertex 1880
comment /media/mkaihara/Seagate Backup Plus Drive/model_iterations/model_41.ply
property float32 x 
property float32 y 
property float32 z 
end_header 
4.83452 -5.73302 0.596314
9.09068 20.0001 1.74254
7.82843 19.1407 1.66281
5.02838 -5.79539 0.618255
12.8287 11.576 1.40019
11.8263 11.8794 1.37261
6.73694 -9.39846 0.940046
12.2841 11.7495 1.39732
6.74238 19.7931 1.71169
-6.35005 -4.38356 0.628648
-7.14516 -9.45658 0.972778
11.5953 12.148 1.38951
10.5064 9.19127 1.18868
-5.02376 -11.4618 1.05725
6.12888 -6.04895 0.751747
9.22561 -7.1871 1.00595
-6.7853 -6.68311 0.809001
10.4776 12.4169 1.41833
8.80491 -7.3368 0.996397
10.876 12.2602 1.43437
-7.29628 -7.75023 0.933071
8.19701 -7.29747 0.974522
10.2537 12.533 1.45579
-7.05907 -7.72809 0.927945
-6.92497 -8.32464 0.971741
10.6459 12.3751 1.48238
10.554 13.614 1.56072
-7.10326 -8.31223 0.99592
11.2632 10.8795 1.44044
-6.30839 -4.22709 0.698053
-6.84796 -8.57681 1.0041
-6.32215 -4.39004 0.709283
11.1199 8.58153 1.31816
10.6784 9.36122 1.32414
6.53879 15.5329 1.58527
10.5533 11.3534 1.46683
-11.1981 2.86951 1.09183
6.16059 -5.9683 0.817829
8.01137 -6.64153 0.999635
10.7784 9.22988 1.37764
9.57456 12.5982 1.53225
9.7599 12.5251 1.5645
7.70715 12.326 1.44418
7.95744 13.3025 1.54309
11.2606 8.08627 1.41297
7.18079 12.7781 1.47941
9.10215 11.4069 1.48499
7.04198 13.6332 1.57055
5.91128 14.0463 1.56471
9.23633 10.5299 1.44777
9.07774 12.3671 1.59408
11.4238 7.68194 1.43621
9.28924 10.046 1.42469
4.97426 -5.82075 0.822077
-6.83856 -4.65107 0.872206
5.61951 14.0005 1.60154
-7.05109 -4.50156 0.891946
8.96671 10.7441 1.50268
-6.75715 -6.76677 1.0228
5.91252 -5.83589 0.897461
9.72498 8.5623 1.39674
8.99591 9.39596 1.39921
9.2965 10.3634 1.50959
4.82265 13.9772 1.59611
4.23984 -8.06355 0.986918
6.49944 10.8736 1.3942
-6.79459 -3.92096 0.86329
6.38499 11.9721 1.50566
-6.88815 -3.8591 0.87449
9.74112 7.22782 1.35655
6.70636 11.4456 1.47762
9.83583 7.05217 1.35976
5.46929 11.6595 1.45645
5.47662 12.1778 1.50842
4.7386 12.3319 1.49512
9.86445 6.70464 1.35944
-6.8848 -4.55895 0.945513
7.41361 -6.23589 1.10436
-7.32111 -0.784443 0.843995
-6.26923 -5.38568 0.951732
5.2516 -5.57066 0.883499
8.90727 7.91877 1.38866
4.42177 -7.18922 0.97783
10.4418 5.16936 1.36459
8.99103 7.82174 1.401
5.20294 -5.61429 0.904422
8.63396 7.94749 1.39257
8.93885 9.09379 1.49204
-7.03976 -5.64459 1.06753
10.1675 4.76092 1.33775
-6.91185 -3.84798 0.952992
9.16849 6.16343 1.34003
5.24718 11.5019 1.53285
-6.88644 -3.06255 0.915556
-6.87091 -3.24841 0.918889
4.88359 -5.95583 0.940179
5.97893 -6.13425 1.04307
9.40066 5.63866 1.35525
8.49219 7.25014 1.38072
-6.94351 -4.30624 1.00632
-6.87511 -4.53056 1.01463
8.29288 8.62088 1.48424
5.06741 11.3965 1.54905
-6.54411 -5.61247 1.0728
3.71225 -7.58158 1.05206
8.53512 7.7719 1.44457
6.08274 -5.62193 1.03858
9.19515 6.07983 1.39709
-6.12986 -5.4089 1.03145
8.5775 6.63564 1.38313
8.11816 7.53742 1.40934
-7.09256 -1.7808 0.935124
-7.00594 -2.30352 0.941679
-6.43994 -5.31414 1.06516
8.85495 5.67702 1.34859
8.18711 8.07721 1.48248
-7.25396 -1.25159 0.943702
-6.89128 -4.11498 1.03753
7.45529 6.24092 1.2594
8.10666 7.06566 1.39459
8.00083 8.15789 1.48087
-6.90334 -2.82334 0.970828
-6.90465 -2.96309 0.971215
4.58251 10.1483 1.4637
9.01894 4.12062 1.3053
-7.23826 -1.60406 0.97411
6.84484 -4.26247 1.07179
4.93152 -5.94765 1.02446
-7.32283 -1.11558 0.991301
-7.00622 -2.19683 0.982019
-7.04325 -2.26599 0.988284
-5.99062 -4.39504 0.992828
5.19263 -6.57022 1.1162
6.91579 -4.17936 1.08798
8.10153 7.19518 1.46807
-7.14225 -1.71604 0.987334
-7.07402 -1.95333 0.986861
8.81659 4.86751 1.36798
8.35648 5.89045 1.39023
-6.91421 -3.61545 1.06305
8.88799 4.1714 1.34683
3.37402 10.6048 1.52401
-7.30247 -1.19825 1.01279
-6.00577 -4.43822 1.02694
-5.98629 -4.53697 1.02819
7.15414 -3.93759 1.12252
8.09772 6.50664 1.43684
5.38452 9.10099 1.46459
-6.37684 -4.31777 1.05564
4.93588 -5.52919 1.02974
7.19185 -3.83325 1.13435
7.56722 -3.69007 1.16504
3.64698 10.1179 1.49805
3.46208 10.4177 1.531
-7.35849 -1.08055 1.03812
-7.06494 -2.00131 1.0231
4.97504 -5.29059 1.01534
7.25374 -3.74126 1.14676
7.37048 -3.676 1.16831
7.88138 -3.36034 1.21817
-7.14552 -1.8723 1.05035
-7.00037 -2.9426 1.1003
-6.00366 -4.37029 1.06789
7.91615 -2.78616 1.22801
8.25483 4.6332 1.38709
5.01997 8.59982 1.45977
8.39229 4.51932 1.40892
7.84156 -2.34411 1.20661
7.16891 5.70689 1.37237
2.98597 9.53175 1.49401
-7.08473 -2.0169 1.10384
7.49383 -3.11387 1.22352
8.25122 4.5601 1.42921
5.81224 7.47506 1.43811
5.31694 7.67071 1.42251
5.15349 7.98458 1.44382
5.10722 8.09465 1.44891
7.34349 -3.17402 1.22204
7.69054 -2.76016 1.24442
-6.74744 -1.68061 1.04723
7.8436 -2.26028 1.2519
7.25854 5.44388 1.39343
-7.09417 -1.94984 1.14155
-6.9119 -2.78265 1.15795
6.83747 5.54607 1.38117
-7.34435 -1.0941 1.15963
-7.13472 -1.82171 1.1531
-7.0375 -2.06486 1.149
-7.11148 -1.86999 1.15377
-6.88721 -2.9309 1.17489
4.83558 7.49801 1.41927
3.44606 -6.03162 1.10935
-7.26528 -1.29755 1.18212
3.5274 -5.70666 1.08089
3.56425 -5.61202 1.07027
7.10105 4.78663 1.3957
4.68848 7.42072 1.42894
-7.06205 -2.02091 1.19698
-7.08395 -1.94442 1.20528
6.99629 4.84811 1.40796
3.84532 7.98879 1.46835
6.05942 -3.3227 1.15132
6.66311 4.89495 1.37878
4.68992 7.20852 1.43492
3.83587 -5.29986 1.09972
7.13585 4.44361 1.41568
7.50118 2.86834 1.35742
6.3504 5.30876 1.40312
-7.2688 -1.25395 1.25594
6.78095 4.09979 1.36109
-6.44416 -2.76907 1.19665
5.5137 -3.63247 1.13435
5.69576 -3.52168 1.14987
2.77878 7.91993 1.4517
-7.36184 -1.03803 1.28877
5.3373 -3.78592 1.14081
-6.30444 -2.25733 1.16104
-6.26515 -2.41433 1.17551
4.2812 -4.66477 1.10732
4.49467 -4.47786 1.11306
4.59265 -4.44998 1.12202
-6.79288 -1.73048 1.23469
4.35852 6.53925 1.40228
-7.14961 -0.927006 1.28853
-6.13826 -2.25558 1.16472
6.66587 3.70669 1.36749
6.12628 4.3807 1.36635
3.60782 -5.32622 1.17004
5.17506 5.71558 1.41063
2.53689 7.26053 1.44539
6.50852 3.06326 1.36033
-1.70762 -5.78616 1.14179
6.43678 -1.38821 1.24952
6.29489 2.78757 1.3257
6.23844 2.38923 1.33304
-4.4416 3.93011 1.39381
4.341 3.54751 1.34127
4.22523 3.30342 1.32812
4.66692 -1.67836 1.24555
4.82143 -1.38171 1.25491
-2.13561 4.78373 1.30784
3.72519 -2.95156 1.22203
3.67134 -2.54834 1.1933
3.40407 -2.95954 1.22515
4.01309 2.57519 1.33289
-2.59618 -3.53632 1.25138
-2.32788 -3.57312 1.2169
3.76098 2.06127 1.30428
3.73735 1.98335 1.30363
-2.83735 3.47873 1.38411
-2.2981 -2.42089 1.1878
1.95158 -2.77595 1.21097
-2.12121 2.7636 1.32256
-2.02642 2.75181 1.32877
2.24762 -1.86719 1.22411
2.3775 -1.49662 1.22147
-2.01471 1.87544 1.29461
-2.06574 -1.44374 1.22866
1.44641 -2.0661 1.24366
-1.99353 -1.08824 1.21458
-1.92581 -0.70791 1.21997
-1.92753 -0.703687 1.24555
-1.95639 -0.344452 1.2287
-1.89369 -0.564865 1.22981
-1.89328 -0.53106 1.23488
8.23886 -8.71917 -7.4821
12.1594 -10.3157 -8.82399
-8.69546 15.5201 -6.90148
20.726 25.2405 -11.735
-8.78843 -2.51688 -2.57596
-34.1255 -22.796 -7.58155
-33.7394 -22.0646 -5.94862
-33.4667 -22.7434 -6.00935
-30.9153 -19.827 -2.76214
9.30976 -8.86735 -0.392757
-7.55904 16.2937 -0.443345
-29.2548 -11.3206 0.722444
-6.90665 -8.25459 0.459666
16.8923 24.2567 1.60576
11.4851 16.1524 1.63929
-6.68613 -6.65918 0.882284
4.26738 12.383 1.50971
8.77379 9.13922 1.48201
7.99382 -8.78717 -10.4067
8.8574 -8.56385 -10.5269
6.97459 -11.9659 -11.5414
6.88974 -11.3773 -10.9215
8.17461 -8.28692 -9.55812
7.03871 -12.056 -11.3514
7.08444 -11.0003 -10.482
8.02418 -8.40049 -9.22868
6.74504 -11.3128 -10.3141
6.46164 -11.7254 -10.2374
7.77875 -8.87465 -8.99629
6.22151 -14.3502 -11.8355
8.32301 -8.72624 -9.12756
6.31588 -11.9378 -10.1995
6.16211 -12.115 -10.135
7.51314 -9.47249 -9.02674
7.93135 -9.08069 -8.9509
10.506 -9.48436 -10.5261
6.13371 -14.1421 -11.3933
6.11284 -13.6911 -11.0234
6.14627 -12.6055 -10.3143
9.22553 -8.85342 -9.37952
9.31375 -9.10093 -9.49721
5.87941 -12.5341 -10.0567
9.38976 -9.01725 -9.29046
6.88177 -11.1576 -9.30305
5.62917 -12.9989 -10.0254
9.72433 -9.11122 -9.44346
7.63064 -9.37026 -8.49587
10.0312 -9.21765 -9.5703
10.9559 -9.52667 -10.1871
11.4846 -9.73546 -10.1106
8.40961 -8.6333 -7.97901
7.45291 -9.32604 -7.88761
8.19287 -8.74531 -7.92051
7.65096 -9.37966 -7.91879
7.86051 -9.42995 -7.86782
8.34599 -8.56121 -7.64283
0.355373 15.865 -10.1253
7.5505 -9.35201 -7.6486
10.9512 -9.64249 -9.27685
7.24958 -10.7363 -8.19863
8.18004 -8.52308 -7.44983
4.62134 -15.4287 -10.1287
8.73889 -8.72559 -7.64035
7.94521 -9.05928 -7.43234
4.055 -18.0389 -11.3885
8.2225 -8.65334 -7.29727
4.08949 -17.3134 -10.8548
0.141557 14.8687 -9.04759
6.67559 -11.2973 -7.98866
7.76535 -9.29487 -7.34857
10.1639 -9.34754 -8.37844
6.84188 -11.2855 -7.92232
8.08564 -9.23281 -7.36662
11.3127 -9.73427 -8.92243
5.41531 -13.8913 -8.84202
7.75851 -9.29401 -7.17945
9.38215 -9.06334 -7.72943
6.92439 -11.1501 -7.76771
8.00794 -9.15574 -7.13698
9.78733 -9.21986 -7.83579
14.926 7.45872 -9.69212
8.69623 -8.86034 -7.17342
6.95434 -10.9976 -7.4777
2.64544 -11.2326 -6.63641
7.88409 -9.09928 -6.89521
9.63915 -9.17235 -7.55798
10.8326 -9.52996 -8.13868
3.2776 -20.569 -11.7133
6.82089 -11.0133 -7.26197
10.1425 -9.32453 -7.71522
12.3947 -10.4 -9.0729
9.27136 -9.03747 -7.23449
4.62846 -14.3285 -8.39397
8.03011 -9.24634 -6.80119
14.8492 7.59202 -9.15737
9.73152 -9.13885 -7.33147
0.832675 17.4746 -9.55411
2.73835 -19.8138 -10.9068
11.1728 -9.68169 -8.02658
4.24759 -14.4664 -8.16064
14.7619 7.72018 -8.97449
15.1648 10.4709 -9.89625
14.0929 7.77515 -8.60159
10.9924 -9.65434 -7.77945
13.3255 -10.8512 -9.14084
3.04028 -19.2937 -10.268
11.4001 -9.86312 -7.66991
2.16699 -20.3418 -10.3253
10.2999 -9.37734 -7.00393
14.3354 -11.3383 -9.17612
13.8729 -11.2207 -8.93172
11.0514 -9.69315 -7.32322
7.53123 -9.36573 -5.95132
3.56813 -8.4797 -4.53375
-8.68463 -1.90683 -4.37135
2.21913 -20.0998 -9.9186
4.53786 -9.31047 -5.06534
0.400051 13.6616 -6.69104
7.63024 -9.29714 -5.86872
-8.42973 16.0825 -8.79208
-9.1829 -2.4276 -4.57647
15.0709 -11.6381 -9.14989
19.4837 5.57479 -9.69251
-10.2905 -2.54777 -5.01411
1.9084 -20.5161 -9.79769
17.3375 16.2938 -11.2707
7.60762 -11.2464 -6.40625
20.1427 5.43693 -9.82616
14.0914 -11.1561 -8.35734
2.93676 -17.3663 -8.18908
19.4634 5.75885 -9.37793
17.9471 -13.0789 -10.257
9.88261 -2.49627 -4.71003
20.3995 5.17054 -9.71039
17.4658 16.4254 -11.0503
1.80739 -20.1672 -9.26694
9.70205 -9.07208 -6.08203
-9.19243 -1.66853 -4.2606
9.46815 -3.47425 -4.59374
6.73514 -11.3533 -6.00381
9.93013 -2.62295 -4.65901
19.3561 5.90235 -9.11124
17.8667 17.7232 -11.3156
9.38379 -3.0912 -4.44747
15.512 -11.9362 -8.78286
7.06067 -11.5999 -6.0735
7.17212 -10.9479 -5.83334
9.57492 -3.41038 -4.52977
-9.93218 16.2756 -8.48667
17.7562 -12.9585 -9.7673
19.6447 5.65919 -9.06216
16.1897 7.34357 -7.8734
17.9779 18.16 -11.3036
16.514 -12.2815 -9.06988
-11.1558 16.9613 -8.92101
-6.51578 14.8849 -7.12217
-5.21852 4.89414 -3.11634
20.2489 5.49797 -9.1228
9.57382 -3.41064 -4.38642
18.3809 18.6313 -11.2512
15.9051 -12.2395 -8.63524
14.9387 7.46948 -7.12931
3.84527 -9.31767 -4.28242
-11.0836 16.8543 -8.53777
6.96457 -10.9376 -5.46721
-13.5312 3.3161 -5.86923
0.74277 -22.2946 -9.4008
15.8839 -12.0263 -8.33133
-5.14509 5.66484 -3.20075
0.996823 -22.1525 -9.29601
1.2322 -20.7474 -8.70705
14.2422 7.63879 -6.76092
18.7234 19.5135 -11.3016
3.78841 -8.96767 -4.05952
14.8509 7.77159 -6.97822
18.0823 19.3136 -10.9819
-9.49288 -1.08952 -3.94417
4.01106 -8.50989 -3.85443
14.1092 7.79093 -6.61759
6.86409 -11.0186 -5.30696
-13.5732 2.5355 -5.64824
-7.90931 15.3187 -7.00378
19.4496 21.1356 -11.6389
15.1549 7.28212 -6.7756
-5.24497 14.3165 -6.11131
14.0194 -11.0835 -6.99932
1.53499 19.3373 -7.5358
-8.68475 15.6819 -6.96416
19.1009 5.82519 -7.73825
-1.74974 13.2287 -5.16764
5.30706 -9.41375 -4.1673
-2.37702 13.4369 -5.24005
19.8 22.9064 -11.6124
4.66744 -8.52776 -3.69183
19.5319 5.60337 -7.73303
0.871634 -26.2862 -9.99615
14.9815 -11.5447 -7.11733
20.0962 5.44453 -7.79342
9.4588 -3.44623 -3.76405
0.53077 -22.4765 -8.37964
3.25798 -10.8246 -4.22275
20.4145 23.7522 -11.6336
0.908728 -8.71027 -3.24792
14.0934 -11.1611 -6.62853
20.5086 5.21619 -7.78145
18.0471 17.8337 -9.274
-12.9931 2.27625 -4.79548
21.0887 25.1852 -11.9165
2.2931 -13.288 -4.85748
13.0914 -10.5867 -6.05799
0.794316 15.4792 -5.54707
-8.18727 -2.79394 -3.0942
0.409092 -21.6892 -7.75543
-4.19262 13.7512 -5.11182
0.636845 -21.8029 -7.75197
15.9434 -12.0414 -7.08091
-15.6112 18.0466 -8.40787
5.94236 -11.3638 -4.50864
-10.9448 16.5146 -6.91806
0.0947171 -18.3986 -6.4683
14.332 -11.3581 -6.39381
20.4639 5.38943 -7.38714
0.655676 -22.8964 -7.91125
-4.98224 14.4563 -5.23728
3.64456 -8.46019 -3.17082
4.88533 -9.04896 -3.52375
-14.394 17.8691 -7.85239
2.27821 -10.8985 -3.81544
-8.8233 16.0031 -6.22747
3.04192 -13.7587 -4.80338
-14.8654 18.2443 -7.97653
20.281 5.5142 -7.06504
22.3435 27.6419 -11.882
36.5019 -20.6051 -14.006
-5.27125 13.9759 -4.9591
1.9225 20.8809 -6.95993
1.26754 -10.245 -3.4133
32.8202 -20.6319 -12.7475
-5.22007 14.3674 -4.96322
-12.4942 17.1033 -6.86951
18.6885 -13.3172 -7.45145
3.56263 -8.67878 -3.00787
6.23619 -10.139 -3.81449
2.31517 -11.0127 -3.58107
-4.49343 -33.7763 -10.8318
-1.12538 -23.6264 -7.5303
15.1182 10.4123 -5.79458
-13.1111 17.4454 -6.89637
-17.8391 19.2404 -8.24658
3.00243 -9.68274 -3.19837
6.9861 -11.133 -4.06308
1.38089 -21.7915 -6.75505
-2.54326 -27.1141 -8.36068
7.27897 33.6386 -10.5063
0.769592 15.072 -4.58516
-11.048 16.668 -6.02564
-2.66609 -26.1983 -7.93196
-14.2315 17.7928 -6.79694
-5.2282 -34.3032 -10.3332
0.83328 -24.8304 -7.42941
-5.35256 14.7162 -4.65634
2.09105 20.8457 -6.17463
-21.0892 19.6635 -8.50591
18.3174 5.82907 -5.65888
-4.26857 14.3289 -4.39451
-7.86711 15.2601 -5.03546
4.26492 -9.1625 -2.97025
4.6516 -11.654 -3.66864
-12.5756 2.21535 -3.6698
-32.3646 -45.8459 -16.1499
-15.0735 18.1326 -6.77717
6.98606 -11.1264 -3.78186
2.56718 -9.5573 -2.81167
12.9919 -10.5159 -4.75629
-8.4361 -2.45517 -2.49131
21.3557 27.5439 -9.87736
-8.5628 -2.25684 -2.50226
-2.51581 -25.69 -7.24561
-12.9801 1.98905 -3.6568
4.404 -11.3701 -3.38383
-9.23424 15.8789 -5.0415
-12.9516 17.2724 -5.92849
-5.35008 14.2741 -4.16486
-8.3494 -40.5607 -11.3323
-21.2693 19.8479 -7.81982
-9.65074 16.0015 -5.00642
-26.4464 20.3155 -8.87116
11.5154 11.5904 -4.31249
4.34344 -11.3376 -3.21595
47.7532 -13.8819 -13.1731
-8.03081 -37.9068 -10.1869
4.09917 -8.67781 -2.52686
11.2171 -9.97698 -3.92686
-14.3248 17.9352 -5.96738
6.55596 -10.4544 -3.19368
3.18497 -9.66621 -2.63086
-29.5694 -43.3081 -13.5427
-4.28621 -28.1221 -7.36195
3.55173 -10.4025 -2.83402
4.0784 -9.41031 -2.63588
15.6988 -11.8044 -5.01112
-7.08866 15.0995 -4.22056
-31.0112 -41.3578 -13.1098
4.3275 -11.1839 -3.03469
4.26337 -7.71955 -2.24428
6.56054 -10.7011 -3.13003
45.3882 -13.7228 -11.8212
-27.9621 21.0962 -8.65922
-11.4282 16.7891 -5.00559
-27.171 -39.6375 -11.8171
-9.69881 -38.1806 -9.71897
-24.2285 20.3498 -7.7748
4.36187 -10.3594 -2.76138
-11.9563 17.1251 -5.06294
-7.77541 15.1478 -4.10259
10.3119 -9.30132 -3.3249
40.7474 -13.5352 -10.2737
15.2041 7.60385 -4.04786
-6.19163 -35.4699 -8.57897
3.97307 -9.10406 -2.35356
47.6166 -12.7442 -11.6981
-11.878 -43.7407 -10.7393
4.21465 -9.01804 -2.37445
3.87889 -11.1248 -2.77617
4.92011 -8.71395 -2.354
-12.6623 17.255 -4.97986
11.051 -9.68441 -3.35813
-6.09384 -30.9099 -7.18999
-26.857 20.743 -7.69184
41.9977 -9.18477 -9.75534
-30.1338 21.8786 -8.34858
-35.0606 -22.9761 -9.39301
-5.28861 -25.1826 -5.73949
41.1847 -12.7315 -9.67804
5.46922 -9.49947 -2.44712
-12.3637 2.82113 -2.78252
41.0609 -12.033 -9.45296
43.0754 -12.2906 -9.85433
27.9455 39.3599 -10.5757
-5.32293 13.9626 -3.26577
13.4593 -10.8305 -3.80228
38.4618 -12.3603 -8.88058
-23.1385 20.1664 -6.65716
-28.4585 -70.1648 -16.4323
4.32194 -9.72737 -2.30802
4.55112 -9.20443 -2.21768
-14.4356 17.9848 -4.92415
-30.5527 22.1929 -8.06296
-31.4138 22.2932 -8.23391
-27.0523 -71.7763 -16.4446
-10.583 16.536 -4.16188
-8.28222 -35.1629 -7.68347
3.19983 -9.71372 -2.18061
3.97934 -9.8616 -2.26712
46.3554 -10.7476 -10.157
15.0355 7.53116 -3.56587
-15.0017 18.4667 -5.03651
5.17687 -9.07734 -2.19528
27.1433 39.2743 -9.97971
-27.3755 -26.7899 -7.95378
15.0784 7.8914 -3.53415
-29.8559 -23.0578 -7.82603
-31.5166 -80.8124 -17.961
40.9511 -11.0206 -8.76976
-11.3318 16.6956 -4.09948
-15.4611 18.2798 -4.87329
-34.6948 23.2898 -8.4909
44.9537 -9.80547 -9.38211
-12.9447 -41.6542 -8.86698
4.14802 -9.76266 -2.15789
11.6531 -9.68692 -3.0829
-11.8725 17.0373 -4.14445
-19.3187 -55.4472 -11.7368
-12.7094 -39.4833 -8.21343
4.08194 -9.95061 -2.12924
-33.7587 -23.0838 -8.06251
-26.4152 20.7317 -6.60854
-32.8043 -23.4654 -7.86263
-6.80906 15.0443 -3.2041
-25.7635 -60.5376 -12.7812
-33.2196 -22.1153 -7.69089
3.4455 -9.3884 -1.93092
46.4313 -10.7579 -9.15139
-12.6094 17.2156 -4.07864
4.00041 -9.37117 -1.9443
-36.0571 -21.9021 -7.98652
-20.9729 -34.0701 -7.60955
-15.2178 -43.9104 -8.7948
38.3 -12.6343 -7.62337
-35.4288 23.7951 -7.98689
-33.343 -23.0274 -7.61279
-32.3066 -23.6367 -7.51473
-20.7562 -51.423 -10.4359
-16.4952 -44.8071 -8.85816
3.82834 -9.22606 -1.84488
43.0678 -11.6076 -8.28228
5.77536 -9.74261 -2.07549
-23.8562 -54.0953 -10.8258
-19.9461 -49.5094 -9.65551
-14.3946 17.9432 -4.07829
-30.7731 -24.8192 -7.02782
-20.0913 -26.7725 -5.98627
-38.7621 24.4595 -8.0868
-26.4217 20.7462 -5.84678
-33.5988 22.9915 -7.06866
3.92207 -10.0818 -1.87559
4.78288 -8.63246 -1.71496
14.0851 7.56417 -2.75816
14.1631 8.12748 -2.79745
-30.4066 22.1113 -6.44508
42.7432 -12.093 -7.56189
42.527 -11.0142 -7.4777
-30.9309 -24.565 -6.70094
-20.8086 19.8176 -4.82509
-19.8703 -49.3906 -8.99668
14.9481 7.49208 -2.80492
-31.2631 22.1325 -6.3983
-22.9106 -54.6241 -9.78915
44.1025 -11.8809 -7.42326
-10.2255 16.2333 -3.09528
-20.1399 -49.9649 -8.59311
-34.5092 -23.8219 -6.60814
-22.4969 19.7655 -4.68906
-23.8701 20.377 -4.86405
-39.4625 23.8934 -7.14874
-11.0845 16.5898 -3.07952
3.48324 -9.55938 -1.57333
3.88408 -10.2708 -1.69999
-7.51115 15.234 -2.59343
-30.6274 22.2916 -5.79057
-31.4258 -24.2724 -6.03851
-27.6522 -25.8655 -5.73652
42.7237 -11.1069 -6.70931
45.432 -9.8981 -7.08332
-6.4476 14.3602 -2.35437
9.85573 -5.16612 -1.65161
-33.1305 -23.8955 -6.08358
-25.5635 -64.6394 -10.3106
10.2328 -9.20041 -2.05056
45.5812 -10.5447 -6.9473
-36.2332 -24.12 -6.40646
-31.1666 -25.7075 -5.91035
-12.3792 -41.0188 -6.30529
17.0271 -12.319 -3.07811
-25.0587 20.6316 -4.71708
-24.0443 -53.8749 -8.50247
-7.5109 15.043 -2.40347
-12.5542 17.1169 -3.02604
6.06412 -11.5853 -1.86826
-13.2415 17.6985 -3.10448
-34.1813 23.0903 -5.7994
6.7892 -11.0898 -1.81715
38.0186 -12.5469 -5.63029
-30.8211 -24.6969 -5.51246
-32.5076 23.3617 -5.54568
-20.0814 -48.4004 -7.23846
45.7364 -10.2318 -6.46199
-6.76472 14.9598 -2.24282
-21.9328 -57.2426 -8.32859
7.77685 -9.41135 -1.63829
-13.8295 17.6581 -3.02323
13.2853 -10.5961 -2.29911
-21.9399 19.9571 -3.98811
42.6493 -11.0271 -5.84774
45.4528 -9.95611 -6.15822
-22.3219 19.6435 -3.88815
-32.3366 -24.1969 -5.27564
-14.7089 18.0116 -3.00652
-33.5281 22.3783 -5.23354
-37.9446 -16.0217 -5.31848
7.04439 -10.4764 -1.61961
10.8398 8.87503 -1.79962
-33.4454 -23.0483 -5.19831
-30.9786 22.6153 -4.85197
-35.1995 -21.9648 -5.20085
42.5039 -10.9922 -5.49354
6.8228 -10.4085 -1.55494
-7.54249 15.086 -2.08777
-24.6837 20.7265 -3.94682
-32.8913 23.1809 -4.96385
6.32768 -12.1355 -1.66702
45.4027 -9.68666 -5.68575
15.0962 7.90906 -2.0496
-17.5727 -42.5607 -5.55294
7.11511 -10.5746 -1.53444
-20.3788 9.03169 -2.63854
-13.9795 -42.2885 -5.23777
-31.5112 -24.2945 -4.65285
-31.0003 -24.7923 -4.6454
42.5942 -11.4098 -5.1821
11.2794 -9.71363 -1.72441
-29.4503 22.3307 -4.25238
6.6702 -10.8681 -1.45966
7.51247 -9.24919 -1.36291
11.6349 -9.76729 -1.72526
9.47128 -4.62054 -1.19343
15.0734 7.74585 -1.91051
-10.2089 16.2523 -2.16569
-31.7003 23.1638 -4.39865
39.3562 -12.9557 -4.64594
9.3901 -9.05524 -1.4431
-10.9196 16.3771 -2.13952
6.83319 -12.8645 -1.5776
45.5485 -9.89938 -5.0526
10.8396 8.90765 -1.51277
16.8839 -12.5419 -2.25704
42.7957 -11.0994 -4.73685
9.6539 -9.01126 -1.39903
8.4045 -8.48989 -1.25142
-30.5745 -24.4666 -4.07782
-29.2754 -58.7209 -6.84546
15.0695 7.55761 -1.72293
-31.4545 -24.2534 -4.07556
-12.6871 17.2952 -2.17784
-12.6116 16.8966 -2.09564
10.2463 -9.12257 -1.34385
-20.2672 -51.4715 -5.42379
6.35319 -12.1666 -1.32821
16.7506 -12.255 -1.99477
42.685 -11.4701 -4.23621
-29.7634 -60.1633 -6.38127
-20.2048 -53.0238 -5.38937
-23.0044 20.1218 -2.85742
46.2751 -10.2945 -4.42736
9.75192 -9.01982 -1.2296
40.2105 -13.2645 -3.94505
-14.8224 18.1699 -2.1236
-29.4587 -13.4311 -2.9515
-31.3231 -61.0621 -6.32611
15.9559 -11.9429 -1.8128
8.6642 -8.7555 -1.11535
12.9566 -10.6951 -1.46281
45.856 -10.6287 -4.03186
9.43553 -9.06031 -1.09954
10.9975 -9.68473 -1.23163
-33.6289 23.0948 -3.39537
16.9527 -12.3625 -1.73758
-16.532 -43.0194 -3.69163
14.7677 -11.5474 -1.49468
-11.5306 -32.2805 -2.7058
-29.3812 22.3403 -2.85491
-32.5841 23.0318 -3.08097
-22.1123 -50.5106 -4.257
-50.1361 27.2865 -4.32327
-21.105 19.8632 -2.10863
-32.8085 23.2067 -2.91305
16.486 -12.3184 -1.50526
42.7168 -11.4312 -3.22115
-37.8612 -71.637 -5.84755
14.0522 -11.1182 -1.2822
-15.2111 -40.3512 -2.97648
10.8111 -9.6551 -0.992996
-23.0268 20.1623 -2.06755
12.9353 -10.6737 -1.12248
18.08 -13.1133 -1.48874
16.1449 -12.2118 -1.33669
-14.3397 -39.7583 -2.73411
44.5272 -11.5806 -2.87537
-30.8149 -62.436 -4.24877
36.2454 -8.79326 -2.28864
43.6628 -9.99379 -2.74944
6.09289 -13.1705 -0.867168
31.3049 -20.7144 -2.24563
-9.69295 16.1811 -1.10896
-15.2296 -39.7278 -2.42267
16.7203 -12.4959 -1.1718
-9.64535 -12.5036 -0.865484
15.0629 7.72782 -0.915742
13.9777 -11.0648 -0.954471
-12.612 17.0913 -1.10976
-16.1175 -39.9485 -2.28773
14.9571 7.86492 -0.828629
-15.935 -40.7319 -2.14597
-13.9587 17.6928 -1.07808
9.60038 -9.05575 -0.605258
-23.2847 -53.4123 -2.63634
12.5119 -10.2859 -0.750795
-15.5995 -43.4851 -2.05094
-16.8241 -41.4511 -1.91506
6.90026 -12.7416 -0.642725
-13.5718 -41.3715 -1.85453
-51.4929 28.0039 -2.37561
18.4724 -13.2712 -0.922861
16.9154 -12.5732 -0.820629
-39.7426 -77.1366 -3.27305
-17.7417 -46.5248 -1.83358
-33.1134 22.7522 -1.47022
43.2029 -11.1318 -1.60606
-33.2491 -66.1382 -2.47613
-25.0966 -54.9992 -2.03506
20.4571 23.6598 -1.0393
-21.1477 19.8176 -0.94488
8.18003 -14.4373 -0.557152
9.45558 -9.02684 -0.423704
11.3498 -9.99191 -0.491442
18.7298 -13.2434 -0.753666
35.2428 -13.2925 -1.2496
22.3275 27.0274 -1.12494
-27.1756 -13.6311 -0.953166
-22.5852 20.1124 -0.92227
-31.2163 22.1091 -1.19457
-24.1981 -55.632 -1.87852
-13.512 -38.2256 -1.24857
-20.8577 -53.2057 -1.72991
-16.1944 -43.8902 -1.33997
-33.67 -20.4148 -1.0489
11.4993 -9.75533 -0.403891
16.4445 -12.2312 -0.540094
-40.3221 24.9449 -1.25133
-29.8207 22.6909 -0.927808
-30.3401 22.2357 -0.890035
9.60265 -9.03982 -0.305465
-40.777 14.0937 -0.954361
-30.6466 -51.3183 -1.34584
21.4466 -14.3436 -0.566885
30.8687 -18.718 -0.814363
14.2975 3.95123 -0.302758
28.2929 49.4415 -1.0485
23.7307 -11.048 -0.460792
47.8791 -11.0252 -0.913454
-30.3281 -21.7948 -0.681085
-29.2177 -28.6976 -0.649325
-18.5113 -45.4223 -0.816353
12.784 -10.5127 -0.27222
18.6607 -13.4842 -0.351643
-29.042 -12.9084 -0.417439
-32.4624 -24.294 -0.564171
-32.1911 -64.8947 -0.977284
-26.8645 -57.1764 -0.865029
-33.5578 -22.9182 -0.530614
-29.8374 22.7002 -0.442172
17.1147 -12.7809 -0.253455
29.6584 -18.3897 -0.410268
-30.3027 22.2466 -0.419345
-18.6546 -42.7833 -0.498922
-11.7791 -35.4545 -0.375861
-32.4375 -57.1545 -0.604867
-14.1253 17.9178 -0.175626
-26.5153 -13.3682 -0.239916
-14.8068 18.0496 -0.160178
-22.2563 19.877 -0.154248
-20.7184 19.4333 -0.129882
-10.5115 -13.5135 -0.0601232
14.8242 7.78752 -0.020438
11.1567 -9.81052 -0.00774235
-34.1497 -18.7045 0.0593067
-11.1297 -33.0778 0.114085
17.0721 -12.4035 0.0917635
-18.3898 -42.2195 0.205279
18.9215 -13.3317 0.123148
7.21926 -12.4099 0.104831
26.2343 -10.7634 0.174684
-54.3544 19.4084 0.549317
16.3556 -12.1213 0.194534
37.9053 -7.73895 0.365421
-28.8701 -8.14068 0.350607
-35.8829 -21.6581 0.46222
-11.1334 -31.8986 0.36289
-53.2737 29.1973 0.741725
-12.4746 -34.5678 0.438087
-10.1086 -31.072 0.39256
6.37544 -13.0316 0.185238
7.24817 -11.1664 0.175089
-27.7783 21.8052 0.539911
11.3637 -9.9244 0.22691
-23.7925 20.347 0.515979
10.9475 -9.77487 0.230424
13.04 -10.7351 0.266224
36.8319 -7.88268 0.627019
-34.1775 -22.8983 0.748337
-30.7763 22.0054 0.742031
6.18631 -12.9254 0.278077
7.05518 -11.1029 0.253476
8.05449 -9.45146 0.242539
28.6102 58.8297 1.42192
7.75602 -9.47683 0.276902
10.1688 -9.21032 0.331058
-28.6081 -9.17342 0.723437
-23.003 20.0782 0.825338
-27.1931 21.4419 0.928588
-28.7365 -8.62853 0.790401
9.22204 -8.9268 0.346763
9.6594 -8.97775 0.359518
-25.2317 21.2657 0.895767
25.5658 -5.17205 0.726426
13.0498 -10.7056 0.502921
15.0594 24.533 0.887757
6.23232 -12.8571 0.44961
7.49604 -11.6852 0.435693
-28.2717 -7.97345 0.963541
-12.5237 -19.1752 0.754739
-27.9586 -8.73839 1.01254
16.2342 11.1115 0.710865
-29.573 -18.3253 1.21604
16.0599 27.8977 1.14844
-30.1935 -16.4696 1.27445
23.6952 -4.2788 0.870103
-27.5983 -19.6283 1.25496
-7.28376 -7.94177 0.406602
9.08237 -8.85672 0.471596
12.5385 13.7159 0.716334
26.9956 55.6903 2.34329
25.8262 54.9867 2.28705
-11.5241 -9.12181 0.579453
8.75143 -8.69699 0.488103
-25.3253 20.8621 1.33115
21.9707 -2.97767 0.898381
-28.5692 -17.353 1.36934
9.44743 -8.95806 0.533843
12.5701 14.4772 0.824703
6.61718 -12.5316 0.601768
15.0361 19.5371 1.08363
21.1412 29.2017 1.57866
-9.45627 -13.7495 0.733554
-9.9308 -15.5313 0.818455
7.63174 -10.9995 0.589855
8.65174 -8.74151 0.555825
24.3523 -3.73061 1.11253
-29.6548 -8.6418 1.40964
6.77312 -11.1349 0.599655
-8.25878 -8.12759 0.545255
21.9466 44.2799 2.3641
-28.3338 -17.5113 1.57446
-9.7291 -13.6469 0.797775
9.69483 -8.99516 0.622931
16.0039 44.4743 2.28772
-30.0287 -13.3006 1.56743
-6.7525 -8.23226 0.523868
14.9061 34.6647 1.9252
-29.5319 -11.5647 1.59145
-7.58238 -6.97223 0.520587
-6.69134 -7.58534 0.51162
16.4281 29.7595 1.76486
10.6213 12.4197 0.883035
14.3836 19.5737 1.30405
9.37678 -8.95589 0.69477
14.976 19.4857 1.35684
15.4919 23.9271 1.5694
-27.1876 19.143 1.82165
-6.96269 -8.18262 0.595764
-26.1181 20.0405 1.82939
6.13448 -12.9526 0.801793
-7.09349 -9.1416 0.659838
10.026 12.5231 0.943353
15.1307 25.4935 1.73181
6.50463 -13.0642 0.839816
14.0207 22.8744 1.58461
-8.24579 -8.10526 0.696591
11.6056 11.6858 0.982045
14.8264 19.7193 1.48218
-7.38217 -9.99331 0.772696
7.03973 -11.2184 0.807112
11.3055 -9.75173 0.905174
5.89077 -10.7988 0.763278
-7.18723 -6.64321 0.611488
14.6375 20.7644 1.60736
16.2214 7.20044 1.15233
-7.03027 -6.14238 0.612473
6.50708 -13.5377 1.00091
9.53009 21.5269 1.58812
10.4843 12.6369 1.12245
13.6779 18.3921 1.59861
12.5377 20.7875 1.67972
11.4138 12.057 1.16529
6.6181 -9.86993 0.841516
11.5614 11.8286 1.19696
9.82653 -6.93659 0.855891
12.4304 12.0337 1.27062
9.95172 -8.40415 0.954265
-6.13123 6.64504 0.674507
10.4767 9.22505 1.04858
12.03 17.9869 1.62813
11.5838 18.4554 1.64181
-6.93742 -7.6897 0.803027
10.9625 18.9213 1.67784
9.53974 -8.98172 1.01262
10.548 14.159 1.38419
-6.4124 -4.29675 0.608616
9.28271 18.5978 1.66107
10.102 -6.91277 0.980159
12.5218 11.6179 1.38081
9.84814 19.1212 1.73195
-7.25224 -9.61945 0.981275
6.73376 -9.40257 0.941074
12.3088 11.775 1.39573
12.2137 12.0118 1.42254
11.4857 12.0052 1.37549
-5.03922 -11.5014 1.05642
10.3766 12.9825 1.41417
-6.95486 -6.07742 0.795426
-6.81107 -6.69005 0.806343
-5.20042 -11.4058 1.06616
-7.29212 -7.73786 0.915571
9.30244 -7.26999 1.02008
-7.11238 -8.04841 0.939915
-7.00945 -7.6822 0.914536
9.44642 12.6091 1.39685
-6.94381 -8.36211 0.971036
10.8578 9.11044 1.29176
10.5306 13.5629 1.55144
10.5662 9.27984 1.28733
7.77993 14.1225 1.48315
-6.49152 -8.12748 0.953021
-6.8937 -9.00632 1.04683
11.252 10.8523 1.44245
11.2943 9.21503 1.36408
10.9205 10.8548 1.44341
6.55105 15.1389 1.55024
-11.3991 2.92028 1.1031
-6.35783 -4.16862 0.712082
-6.80036 -6.28894 0.858857
9.49448 13.39 1.58355
-6.00397 6.52387 0.87251
7.97245 -6.61923 1.00992
7.9885 13.3201 1.54296
-7.06099 -7.60929 1.04573
9.35879 11.7021 1.51146
7.0571 12.5304 1.45964
7.1174 13.1125 1.52115
9.57164 9.12919 1.36896
5.91962 14.112 1.5864
9.19689 12.5085 1.6188
-6.10379 -4.45425 0.791865
6.01696 13.8261 1.58855
6.27807 13.7519 1.58954
-6.9646 -4.42403 0.882355
8.80292 9.05458 1.34639
9.17909 10.2258 1.49456
7.37209 11.0695 1.44552
5.86889 11.5599 1.4097
-6.29325 -7.40338 1.06201
10.2957 6.47063 1.34552
9.02313 8.16673 1.34163
7.35948 11.7639 1.5324
6.89255 11.7148 1.50291
5.40217 11.9963 1.46405
4.91412 12.2154 1.47339
4.75822 13.8382 1.61025
9.89613 7.0758 1.35848
8.79514 9.34919 1.43444
5.42514 11.6084 1.44319
-6.83461 -6.71672 1.06649
6.90794 10.7824 1.44269
4.36832 13.3264 1.58542
9.76865 -3.2011 1.14623
-6.09997 -5.41031 0.943865
7.29804 -6.12737 1.08173
10.441 5.72874 1.36599
-7.37105 -0.984432 0.851885
-6.25262 -5.35205 0.94724
5.24782 -5.55643 0.880557
5.11086 11.7231 1.4859
-6.87699 -4.5552 0.955724
4.45565 -7.26536 0.985632
10.4317 5.1605 1.36581
8.91376 7.91144 1.39921
-5.9985 -4.36563 0.864473
-6.48057 -5.26919 0.986586
4.09555 -7.87277 1.05535
4.96653 -5.85013 0.9207
10.1887 4.76412 1.3484
8.54896 8.30135 1.44346
5.31796 11.5858 1.55645
9.06823 6.28207 1.35078
8.0408 8.36824 1.45391
-6.48431 -5.7419 1.07809
3.70838 -7.5768 1.05651
8.69976 6.7079 1.38153
-6.46273 -5.3402 1.06092
9.11298 6.02779 1.39506
8.20787 7.16194 1.38994
8.13997 7.53145 1.4161
5.77838 -5.34677 1.01076
-6.96602 -4.43934 1.06016
8.1299 8.02701 1.48203
-7.34762 -1.04101 0.958584
-6.91706 -2.82393 0.975524
8.99258 4.10883 1.29487
8.42573 6.64728 1.40899
4.99909 -6.02889 1.02949
4.91733 -6.19364 1.04723
6.87434 -4.28528 1.07832
-7.12557 -1.71639 0.98235
-7.0028 -2.21784 0.981865
-6.02216 -4.41997 0.998532
8.15834 6.67753 1.42938
8.62715 4.44851 1.32349
8.65069 5.17861 1.37723
8.05323 7.16027 1.46691
-6.80285 -3.73044 1.05332
8.87865 4.16764 1.34265
8.2858 5.84816 1.38895
-6.39365 -4.32613 1.0562
-5.95437 -4.52272 1.02104
5.388 9.0797 1.45856
3.67112 10.1566 1.50022
-7.35791 -1.09152 1.02987
-6.8982 -3.92364 1.10119
4.94897 -5.54367 1.02705
5.22893 -5.39899 1.04319
7.47032 -3.54023 1.15613
3.41511 10.2425 1.51334
8.41984 4.60822 1.3579
7.38164 -3.68146 1.17021
7.59425 -3.33809 1.18273
7.76968 -3.30903 1.19835
8.95349 2.81922 1.35119
4.83369 -5.63533 1.06721
7.36015 -2.85556 1.14943
-6.95208 -3.29711 1.12135
7.92652 -2.78257 1.22488
8.67566 -1.82239 1.30134
5.03594 8.62235 1.47422
2.97777 9.51882 1.48431
7.74035 -1.88993 1.17434
7.24943 5.77343 1.38096
3.48305 9.63613 1.51507
3.21392 9.88103 1.54046
-7.36012 -1.04194 1.10195
-7.06668 -2.02083 1.09517
6.96887 6.30858 1.41939
-6.25816 -2.26988 0.998849
-7.23086 -1.37354 1.11083
7.95829 4.82924 1.41832
5.73368 7.38829 1.41921
5.31745 7.66717 1.42033
5.08274 8.05492 1.44027
6.76426 -3.22796 1.13353
7.25254 -3.12742 1.20958
7.64364 -2.75822 1.23836
-7.3062 -0.731914 1.1211
-7.08919 -1.95225 1.1347
6.79397 -3.09508 1.15462
3.74942 -5.78598 1.06618
-7.04521 -2.07368 1.15118
-7.33601 -1.0914 1.16437
7.37893 4.78617 1.38926
-7.18937 -1.44167 1.1664
-7.26193 -1.29938 1.18347
-7.0894 -2.01672 1.19842
7.08681 4.7747 1.39506
-7.09299 -1.94321 1.20791
7.02663 4.87692 1.42088
6.63154 4.86415 1.37262
5.22553 6.2663 1.35947
4.69473 7.20537 1.43657
3.84455 7.97983 1.47273
-7.2398 -1.37173 1.22987
2.79045 -5.77293 1.08095
7.15817 4.43869 1.41906
6.53085 5.25227 1.41405
3.87317 -5.36463 1.11563
3.93591 -5.02005 1.07993
-7.26268 -1.25077 1.24995
-6.59219 -2.6228 1.20356
7.42917 2.85268 1.34988
7.04436 3.89917 1.37222
-6.40878 -2.75062 1.18639
6.7888 4.10727 1.36229
5.68529 -3.5214 1.15111
-7.38583 -1.03818 1.2896
-6.35129 -2.27842 1.15987
5.53773 -3.64953 1.14325
5.32084 -3.77538 1.14363
3.6151 7.19885 1.41743
-6.79198 -1.73325 1.23084
4.48027 -4.46771 1.11356
-7.08285 -0.913446 1.27196
4.7261 -4.45863 1.14987
4.34653 6.51992 1.39857
6.59808 3.48024 1.3473
6.63829 3.68958 1.36451
-6.4348 -1.49903 1.18814
3.60793 -5.32502 1.17014
5.09367 5.63062 1.39049
-6.15017 -2.1815 1.19578
3.41165 -5.15638 1.14991
3.40411 6.80438 1.42386
-1.69837 -5.78369 1.14486
6.45455 2.7361 1.33426
-2.14373 -5.72865 1.17571
6.31863 2.80027 1.33072
-2.78781 -5.37695 1.1867
-3.50972 5.32911 1.38179
4.4802 3.90181 1.35618
4.15065 -2.87843 1.17703
4.62959 -2.18673 1.23729
4.20698 3.29768 1.32438
3.70621 -2.92933 1.22362
4.02381 2.57818 1.33538
-1.44524 -4.1229 1.22295
-2.32335 -3.58293 1.21324
3.86482 2.36741 1.31337
-2.85493 3.51788 1.35761
-2.48308 -2.91916 1.19008
-2.38055 -2.94042 1.19506
1.83875 -2.8056 1.17974
1.86182 -2.78406 1.20977
1.98794 -2.52146 1.19631
-2.04022 2.80168 1.31729
2.80241 -0.555396 1.25888
2.78197 -0.336673 1.24071
-2.09158 -1.62075 1.21355
-2.07922 -1.45261 1.23856
-1.86459 -1.79788 1.28421
-1.99667 -1.1324 1.20492
-1.98812 -1.07127 1.23172
-1.94782 -0.881063 1.23187
-1.93206 -0.708937 1.22208
-1.93091 -0.702017 1.24928
-1.90712 -0.470021 1.22199
-1.87244 -0.345963 1.21915
-1.85735 -0.401469 1.22591
2.37565 -19.6561 -9.99084
-7.58329 -8.95303 0.463885
8.03713 -8.82017 -10.4916
8.2823 -8.64833 -10.5262
8.23379 -8.30844 -9.90742
6.97418 -11.9837 -11.4349
8.53829 -8.99645 -9.76593
7.86858 -8.95762 -9.15603
5.8626 -12.8236 -10.7501
9.45419 -8.85915 -9.77213
6.16087 -14.1224 -11.5984
8.30829 -8.70074 -9.04476
8.0382 -9.19194 -9.13099
7.30944 -9.26747 -8.7935
5.92381 -14.1825 -11.2135
7.73796 -9.32926 -8.74574
7.87516 -9.13913 -8.69
7.14529 -10.6043 -9.10361
6.83661 -11.0988 -9.24062
10.0863 -9.22279 -9.59847
6.55532 -11.2014 -8.88467
8.05289 -8.64886 -7.86906
7.37898 -9.30369 -7.89096
8.5382 -8.70365 -8.10406
7.74123 -9.49817 -8.04961
6.5043 -12.8065 -9.3788
7.95408 -9.20456 -7.93402
5.00901 -16.0555 -10.8171
-0.476176 13.9177 -8.90475
7.74736 -9.26768 -7.74563
7.35571 -10.8933 -8.36868
8.40008 -8.58868 -7.65358
10.9138 -9.65444 -9.24196
9.0139 -8.8426 -7.91901
11.8125 -10.0728 -9.72863
8.0945 -8.55872 -7.24722
4.04404 -16.848 -10.619
4.25556 -15.3965 -9.80779
7.86597 -9.3842 -7.3379
3.95589 -15.6369 -9.61803
11.5242 -9.86571 -9.08548
6.88289 -11.1064 -7.75814
7.7895 -8.83892 -6.97902
5.50052 -14.0282 -8.90229
6.50555 -12.7384 -8.37035
8.3838 -8.61662 -7.00593
9.71884 -9.11003 -7.7671
2.79637 -11.8168 -6.96016
5.49797 -13.9447 -8.48644
9.62632 -9.13515 -7.50173
6.63495 -11.0981 -7.28021
3.34461 -20.6652 -11.7325
8.90456 -8.96483 -7.08307
12.2404 -10.2692 -8.95065
6.84135 -11.0338 -7.23227
4.69517 -14.6463 -8.49968
6.23975 -12.6569 -7.76238
0.893627 18.6025 -10.1388
14.6932 7.76433 -9.03004
4.21474 -14.2767 -8.0392
14.7976 -11.7094 -10.1714
15.0499 7.47891 -8.95235
14.0809 7.75849 -8.54289
4.77561 -14.8765 -8.30147
12.1284 -10.188 -8.33523
1.8125 -20.4526 -10.5637
11.4572 -9.88749 -7.75302
2.08022 -20.1862 -10.2977
14.0285 -11.135 -9.05883
0.001404 14.2694 -7.16254
-7.23515 15.0359 -8.36156
10.6305 -9.6333 -7.20828
7.53582 -9.45189 -6.02245
-8.42984 15.9781 -8.73039
11.6872 -9.81528 -7.38677
10.5301 -9.61733 -6.84773
14.8556 -11.389 -9.02837
16.8244 15.9385 -11.011
7.50893 -11.098 -6.38384
15.0885 7.45542 -7.89712
13.9872 -11.0756 -8.33825
-11.8228 16.9287 -9.46004
15.918 -12.0612 -9.12348
9.79843 -2.45679 -4.64045
-9.0893 -1.65243 -4.201
18.8883 18.2274 -11.8448
3.921 -9.11668 -4.50417
-10.1059 16.5071 -8.69138
-5.32621 4.42892 -3.11471
6.88102 -11.328 -5.96651
9.45601 -9.1136 -5.79212
16.102 7.34563 -7.80844
-6.56794 14.9138 -7.11705
1.50215 -18.7467 -8.13403
-11.051 16.813 -8.66232
9.6034 -3.378 -4.3605
7.04039 -11.0812 -5.54967
15.9002 -12.0192 -8.34308
14.7241 7.78367 -6.98629
18.929 19.6948 -11.4172
1.0185 -22.5367 -9.39239
-4.49704 13.7502 -5.96043
-9.90752 -1.10815 -4.13161
14.1594 7.81864 -6.60462
20.6754 22.491 -12.4534
-13.0129 2.43865 -5.39323
15.1921 7.21833 -6.80288
-5.17205 14.1694 -6.06619
3.64502 -8.82437 -3.80013
12.4418 -10.3109 -6.33002
14.0059 -11.0589 -6.97384
19.5002 21.8257 -11.3541
18.9135 5.83233 -7.67502
1.54238 19.3287 -7.51878
-8.63143 15.5512 -6.85652
11.4421 -10.0884 -5.86736
19.4464 22.5467 -11.4699
0.680886 15.4057 -5.90591
-1.65511 12.6853 -4.92144
2.71593 -12.2517 -4.81472
-8.75057 -1.24981 -3.35981
0.701232 -23.5293 -8.88299
15.2598 -11.6942 -7.25034
9.51184 -3.47079 -3.8196
-14.3982 17.7496 -8.51821
-7.87824 -3.49969 -3.16178
1.09527 -10.4481 -3.86382
7.05161 -11.2735 -4.86255
14.2704 7.96822 -5.90115
-8.27827 -2.84224 -3.14735
0.788233 15.3216 -5.47092
-3.91229 13.2261 -4.87933
5.7544 -11.019 -4.37452
15.9169 -12.029 -7.0661
19.1912 5.92725 -7.06663
2.12796 20.8046 -7.33495
21.9193 26.4995 -11.9523
-14.6813 18.1224 -8.0058
2.97919 -13.371 -4.7148
-8.77602 15.8524 -6.19222
18.592 -13.1684 -7.80844
-4.98225 14.311 -5.15275
1.35576 -22.1435 -7.35204
1.7657 19.7216 -6.5417
1.44829 -10.3167 -3.44309
39.61 -20.2478 -14.5984
6.18381 -10.0711 -3.78284
17.6666 -12.4743 -6.92659
2.12721 20.7963 -6.65372
-13.1722 17.585 -6.92777
1.44446 -22.5924 -7.05424
-4.25233 14.551 -4.71097
-10.8015 16.366 -5.9433
-2.71321 -27.6267 -8.43475
3.06942 -9.48511 -3.02979
0.790685 -24.1085 -7.25472
19.2459 -13.6608 -7.00304
17.6954 5.59817 -5.44623
-7.77981 15.0599 -4.93493
4.2381 -10.5162 -3.2951
3.63018 -10.5955 -3.18759
4.2535 -10.9762 -3.30432
-13.1188 17.5349 -6.09215
-9.15264 15.646 -4.93156
-13.187 1.97678 -3.65625
-16.6693 19.1517 -6.89474
26.5318 -17.4663 -8.60678
-3.8482 -27.4445 -7.43415
3.78936 -9.16076 -2.65244
-9.65907 16.0563 -4.98795
47.8733 -13.978 -13.2243
10.5693 -9.42677 -3.74884
-6.34902 14.6993 -4.18304
-14.2078 17.8133 -5.97973
-7.83572 -37.0791 -9.87317
4.96909 -9.59243 -2.79624
6.57602 -10.5241 -3.2015
-7.09673 15.0614 -4.23247
-10.4017 16.2009 -4.9197
-9.66318 -38.2963 -9.82387
-8.81385 -38.0521 -9.53972
10.9818 -9.68088 -3.59978
-7.84662 15.2285 -4.15441
-11.553 16.7921 -4.93449
14.6915 7.76054 -3.94413
4.05275 -9.26615 -2.39367
15.2972 7.57599 -4.02345
3.75261 -8.92239 -2.27538
-6.40779 -31.9307 -7.54253
5.6383 -9.90525 -2.64167
45.2899 -10.96 -10.8301
-12.6189 17.1888 -4.9088
14.9494 7.65614 -3.80044
44.3047 -9.58433 -10.2684
-9.6407 16.0587 -4.19274
3.72237 -9.27253 -2.17382
43.4556 -11.148 -9.7914
15.2097 7.54559 -3.63633
-10.4757 16.3525 -4.16011
-21.5815 -33.9283 -8.63934
4.83184 -9.77297 -2.352
45.5938 -10.6756 -10.0187
-14.5647 18.0452 -4.87939
-31.8497 -23.5079 -8.391
42.1696 -14.1097 -9.40712
14.9353 7.89214 -3.52344
-34.8757 23.5848 -8.60957
-8.18307 -33.4723 -6.97934
3.96445 -11.5419 -2.45311
45.109 -9.73262 -9.38582
11.825 -9.78824 -3.07848
43.4792 -11.1929 -8.94651
-26.5819 20.0593 -6.61037
6.16107 -10.3121 -2.39159
46.5079 -10.8757 -9.32837
-12.5992 17.1908 -4.11928
-26.4485 20.7274 -6.53006
16.1685 12.2302 -3.87553
-6.76671 14.8952 -3.14082
-32.7341 -23.6769 -7.73313
-31.2577 -24.4769 -7.63002
-35.1007 23.3897 -7.94329
-33.2487 -21.9329 -7.52746
18.1231 5.69781 -3.54625
-33.7782 -20.3807 -7.36781
-14.6797 -42.3235 -8.34652
3.78047 -9.84671 -1.98597
-23.7401 -59.1044 -11.8473
-16.3781 -44.1237 -8.6099
3.98433 -9.65698 -1.88432
13.1247 -10.2556 -3.00381
45.9729 -10.2303 -8.45962
-14.5218 18.0108 -4.13428
-26.5936 20.8578 -5.96734
15.1753 8.03314 -2.9911
-29.934 -26.0854 -6.9209
43.3401 -11.1015 -7.68104
-7.80799 15.0412 -2.87094
-9.58095 17.6447 -3.392
45.2315 -10.6476 -7.85742
-30.2657 22.0456 -6.30425
-29.9424 -23.036 -6.31459
-20.5094 19.6104 -4.72131
-31.843 22.4884 -6.50387
16.0092 -11.9449 -3.27316
-10.1767 16.1566 -3.03797
-42.6053 25.0704 -7.84329
-31.2911 -23.507 -6.26584
-33.1068 -22.8359 -6.3348
3.44156 -9.51816 -1.58285
-23.4304 20.0153 -4.75938
17.0153 -12.0288 -3.2277
-11.005 16.4706 -3.00969
46.6537 -10.934 -7.27276
-22.2538 -51.5719 -8.48813
-29.0452 21.7833 -5.42897
-37.76 23.5444 -6.60536
-31.3058 -24.3008 -5.91282
45.2268 -9.69186 -6.88689
-33.3692 -24.1329 -6.01756
-48.9891 27.3528 -8.06814
-35.1461 -23.4429 -6.08152
6.76743 -12.9868 -2.12636
-35.8372 -20.8288 -5.86666
-6.81905 15.0343 -2.29273
-12.9225 17.4445 -3.02078
-31.6706 22.8015 -5.4551
-23.9471 -53.3314 -8.06217
-15.7126 -45.9339 -6.6774
37.106 -12.3401 -5.36275
-22.8511 20.0806 -4.04801
-31.9297 -23.9117 -5.20828
-30.3069 -24.8628 -5.18309
-33.5418 -23.1003 -5.21719
7.46819 -9.45931 -1.55841
43.3968 -11.1087 -5.74778
-33.0008 22.4565 -5.07532
-29.5364 -15.7609 -4.26779
6.05261 -7.83856 -1.26505
45.3833 -10.667 -5.91028
-30.6185 22.503 -4.74196
14.5832 -11.3616 -2.27116
-29.5669 22.2691 -4.47809
-32.1092 22.6984 -4.73475
-10.2001 16.2232 -2.21421
-31.2007 -22.44 -4.52189
-22.3768 -53.8672 -6.78642
13.0536 -10.5576 -1.96527
36.1925 -11.9597 -4.41041
6.36608 -10.3815 -1.39973
11.2395 -9.73982 -1.67565
16.5457 -12.3191 -2.32443
-10.9061 16.3534 -2.1766
6.79487 -12.6603 -1.57448
11.6505 -9.72939 -1.68095
43.234 -11.0866 -4.89993
-38.4094 23.9488 -4.85845
45.4479 -10.6199 -5.02498
14.9991 -11.5176 -2.01186
-12.7723 17.2556 -2.20524
14.8593 7.86487 -1.68052
14.0787 -11.1063 -1.79124
-13.8101 17.6627 -2.1748
6.43548 -12.3328 -1.33906
9.43596 -8.9504 -1.25706
17.1233 -12.5207 -2.07018
-28.6651 -13.6977 -2.99313
-14.7737 18.0913 -2.17753
-35.7905 -69.7266 -7.29602
-33.6338 -21.0462 -3.51343
16.235 -12.1654 -1.82553
38.9561 -12.9621 -3.67429
11.1591 -9.91952 -1.23385
43.6535 -11.1573 -3.75765
-15.8661 -41.2881 -3.55315
-38.5097 -75.3007 -6.58868
17.7339 -12.9227 -1.73287
-29.7572 22.5212 -2.85489
7.47066 -9.20266 -0.917514
-32.3834 22.9234 -2.94777
-16.2607 -40.2263 -3.243
-35.6288 -67.0447 -5.3998
-34.4829 -69.0638 -5.2884
12.6316 -10.5123 -1.10613
17.1775 -12.5111 -1.43647
-38.8452 24.1825 -2.99237
43.9169 -11.2438 -2.97546
-28.4687 -13.3867 -1.88423
-38.886 -75.1264 -5.12328
14.5878 -11.3726 -1.11449
31.5179 -20.7625 -2.06217
31.4766 -19.8385 -2.03341
15.436 7.62355 -0.893542
14.8717 7.88587 -0.86579
-12.6936 17.3223 -1.09
-24.0624 -53.0989 -2.99534
-13.2358 -36.0258 -1.90259
-26.9468 -15.563 -1.47707
-40.7305 -76.7635 -4.24385
9.69029 -9.12642 -0.665802
13.5183 -10.7504 -0.84829
16.0787 10.2286 -0.900631
16.3872 11.4859 -0.93211
6.86935 -12.5991 -0.682365
-19.9495 -5.88643 -0.893294
-29.2178 -52.0692 -2.63446
10.2957 -13.8999 -0.706933
18.1755 -13.1072 -0.915695
43.1164 -11.0136 -1.7706
-9.35858 -12.3779 -0.598716
44.6788 -10.4624 -1.80409
22.5132 27.0658 -1.20153
-32.3025 22.0819 -1.35673
-36.1514 -20.2722 -1.34948
-17.8424 -44.4678 -1.53953
16.5832 -12.3719 -0.674975
14.4534 3.91496 -0.441813
-25.1724 -57.8434 -1.89156
-22.5372 20.0761 -0.862698
-12.1047 -36.7048 -1.03928
43.535 -9.24822 -1.24426
-41.41 25.7575 -1.31915
-53.6838 19.304 -1.36748
44.2431 -10.2738 -0.976629
-30.6093 23.133 -0.767456
-30.2069 9.60805 -0.663252
32.3786 56.6901 -1.20111
-29.9021 22.0688 -0.712367
13.0339 -10.6797 -0.29191
-34.3419 -21.3718 -0.627141
-29.7694 -59.8695 -0.995002
17.6011 -12.6935 -0.315173
-12.3659 -37.3851 -0.508056
-14.0842 17.8793 -0.232397
-19.6732 -45.2133 -0.535717
30.5812 -19.1541 -0.325124
-22.5302 20.102 -0.205375
-9.89075 -12.6944 -0.0486911
7.05153 -11.7628 -0.0236826
14.6963 7.68539 0.000364424
-35.3337 -21.8184 0.221206
-23.5133 -40.1876 0.343346
-52.6909 28.8645 0.613476
6.72128 -11.9255 0.141854
8.03058 -9.13076 0.121562
-40.8043 -21.6937 0.507895
-11.3116 -32.0338 0.37913
11.1431 -9.71361 0.193882
-22.9185 19.5828 0.396382
-12.3229 -19.1195 0.330747
-30.8933 21.9836 0.675013
-34.9857 -23.455 0.753815
-34.4823 -25.4736 0.748087
10.6734 -9.59184 0.234233
7.81401 -9.63202 0.266575
7.91895 -9.24287 0.262675
-70.01 24.243 1.73119
18.2164 -13.2234 0.54829
-28.6023 -8.59287 0.799187
-27.7212 21.739 1.01444
11.6288 -9.96315 0.417772
17.3441 -7.51822 0.538405
-24.7795 21.016 0.967109
-7.89879 -9.26255 0.387401
12.7888 13.9045 0.671742
6.17457 -12.7223 0.497609
8.93417 -8.79148 0.428384
24.6722 -4.37204 0.838229
18.6719 17.8313 0.932219
14.0146 24.2609 1.05353
-56.2635 18.4937 2.13169
24.478 -4.75508 0.94489
-25.2526 20.6285 1.23233
9.40599 -8.94818 0.501996
22.4802 -3.09716 0.857486
12.2915 14.2362 0.769909
14.8938 19.2444 0.996493
6.54786 -12.4148 0.576191
18.2994 42.2959 1.92402
7.67544 -11.0606 0.567606
-7.55057 -7.43258 0.468084
-8.27028 -11.4421 0.630876
-29.4648 -11.6641 1.50925
16.4611 10.6861 0.978127
-7.72702 -7.18962 0.505441
15.4418 23.9903 1.47426
-6.95474 -8.18716 0.590528
14.6646 20.0812 1.36273
-25.8961 19.9408 1.80695
14.559 23.7105 1.61128
-7.12501 -9.18466 0.664279
6.85376 -13.5822 0.873312
9.95097 12.517 0.946527
14.8165 19.6855 1.54486
15.181 27.0184 1.90845
10.4954 29.4342 1.98779
-7.30312 -9.96785 0.790549
9.5935 21.8629 1.60279
11.4618 10.0822 1.08818
11.5024 12.1635 1.1819
13.775 15.9173 1.5066
8.21964 -12.6705 1.06626
10.7935 9.00987 1.03459
12.9517 14.5267 1.45645
-14.3302 8.45075 1.25777
-11.1182 2.09451 0.855708
12.4987 16.2698 1.59245
11.6536 18.5724 1.703
10.1089 -6.91808 0.956566
-7.67326 -8.11718 0.893592
12.7927 11.5801 1.40768
11.8917 11.6336 1.38115
-7.01108 -6.16869 0.758804
-7.06241 -6.90589 0.819307
-7.04466 -8.92096 0.979233
11.5031 12.0075 1.43409
9.08891 -7.14249 1.00651
10.6611 9.39147 1.29177
-11.3873 2.91586 1.08003
-7.62418 -7.10123 0.936032
11.6636 8.99978 1.41086
9.24513 13.0737 1.53785
7.21508 13.2762 1.48127
8.44471 13.13 1.56584
-6.74812 -6.72444 0.946917
7.86958 -6.54144 1.00171
9.70687 12.1582 1.55951
9.95404 10.1682 1.46985
-6.8861 -5.40553 0.910956
9.62909 9.16917 1.41771
8.21183 11.1646 1.45303
6.78216 13.1509 1.57683
9.60111 8.37806 1.34902
9.198 10.2447 1.50007
5.7074 12.5723 1.49501
-6.39126 -7.52705 1.06708
6.70241 11.4075 1.45601
5.26347 13.1886 1.56706
-6.82942 -3.9831 0.872972
-6.70048 -6.08118 0.996902
3.92174 -7.77229 0.963794
5.44009 -6.09482 0.917971
9.36403 7.53832 1.3513
9.07614 9.65901 1.49487
7.93528 11.3024 1.54402
6.78752 10.712 1.44641
-6.88259 -4.57155 0.937006
4.70929 -7.68369 1.04134
-10.6121 7.11404 1.48255
-7.09087 -2.13341 0.861603
9.01418 6.08941 1.29441
5.90443 12.0509 1.58633
4.98972 11.5394 1.48317
4.77104 -5.8602 0.889528
4.11441 -7.88874 1.0819
8.33588 3.86103 1.15165
10.9625 5.46796 1.50585
4.57389 12.7264 1.68382
-6.16216 -5.39134 1.00419
-9.13527 1.30216 1.14996
8.25911 7.55385 1.41677
-6.44071 -5.32298 1.05681
7.79397 8.18614 1.45341
-6.88983 -3.57449 1.00495
4.96647 -5.96454 1.00213
5.02103 -5.42468 0.963888
8.4018 6.91261 1.44145
7.94394 7.85519 1.48664
-7.20468 -1.72426 0.998052
-7.0331 -2.21007 0.987781
-6.48972 -4.37566 1.03973
4.82851 -6.08649 1.03395
8.38494 6.35489 1.43124
-6.85309 -4.22 1.08439
-6.05296 -4.4476 1.01015
4.94764 -5.53526 1.01955
7.41198 -3.52049 1.14219
8.3588 4.24378 1.33169
8.32257 4.57333 1.34767
-6.94249 -2.90821 1.07617
7.47941 -3.733 1.19376
7.01744 -3.05538 1.07978
4.93902 -5.78652 1.09828
8.19248 -1.73351 1.21285
-6.96189 -3.25903 1.14003
7.38465 5.56453 1.38898
5.75076 7.42483 1.41878
7.98042 3.9105 1.35812
7.90206 4.19068 1.3601
5.43094 7.79863 1.44517
5.07759 8.67357 1.5189
3.49995 9.57399 1.53837
-7.01086 -2.82779 1.15242
7.68083 -2.79423 1.25209
7.8457 -2.23588 1.25912
7.79545 -2.01675 1.24434
7.45774 4.20058 1.38038
7.06256 4.74901 1.39873
6.7364 4.90983 1.38629
5.37931 6.44632 1.3975
-7.20807 -1.36123 1.21449
4.98774 7.32493 1.47936
4.72004 7.22433 1.44899
-7.22228 -0.804522 1.21672
2.86461 -5.92711 1.10991
6.69436 4.08506 1.34013
6.50165 5.2227 1.41648
3.83299 7.93274 1.4791
-6.38245 -2.3019 1.15105
-6.28871 -2.68343 1.16599
3.77104 -5.23846 1.09908
-6.97665 -1.79658 1.25884
4.23418 -4.64097 1.10417
6.66127 3.50772 1.3598
5.05624 5.59281 1.37823
3.63111 -5.35899 1.17898
3.35795 6.73376 1.4033
6.49274 3.04675 1.36275
6.42554 2.71322 1.33185
-1.65112 -5.714 1.14167
-2.173 -5.76849 1.20171
6.2513 2.37667 1.337
3.93768 -4.57888 1.20138
-2.97898 5.5605 1.34453
-3.60237 5.18169 1.37491
4.20804 -2.92715 1.2051
-4.26291 3.91524 1.40985
4.58788 -2.18765 1.2338
4.47998 -1.26965 1.15803
3.70723 -2.93442 1.2319
3.67717 -2.58365 1.19256
3.42324 -2.97635 1.2245
-2.32276 -3.61899 1.20764
-2.50078 -2.92874 1.19773
1.86847 -2.48682 1.12975
1.93016 -2.64483 1.19442
-2.03671 2.79459 1.30981
-2.07317 -1.46474 1.1974
-1.82628 -1.83189 1.30302
-1.97756 -1.17252 1.20984
9.69061 -9.06446 -9.39244
9.25136 -8.93701 -7.66538
2.44474 -20.0343 -10.7185
3.67524 -9.30759 -4.51229
26.9186 33.444 -14.4195
2.08032 20.6427 -6.15287
-22.136 -30.8347 -7.08779
9.53185 -8.79415 -1.62116
8.77891 -8.6503 -1.23579
8.93016 -8.80787 -0.92981
19.2688 -13.6433 -1.2909
43.9389 -11.8019 -2.35526
-31.2242 -13.2056 0.341811
10.09 6.94446 1.30066
-3.47669 5.28948 1.35899
7.98677 -8.24533 -10.2984
7.8478 -8.27177 -10.0378
8.38164 -8.4715 -9.86954
6.8418 -11.8119 -11.2149
7.9796 -8.23982 -9.07386
8.01982 -8.71973 -9.10481
6.21655 -14.1523 -11.6299
