ply
format ascii 1.0 
element vertex 1878
comment /media/mkaihara/Seagate Backup Plus Drive/model_iterations/model_73.ply
property float32 x 
property float32 y 
property float32 z 
end_header 
-36.7355 -22.2297 0.450421
37.8917 -7.78802 0.402776
-35.5637 -22.2869 0.478062
-12.7335 -35.1695 0.436143
-13.2149 -35.536 0.459022
-11.3418 -32.659 0.420326
-9.74807 -30.1609 0.38329
25.1849 50.9948 0.741565
9.55375 -8.98609 0.169596
-12.868 -19.9399 0.323001
-11.0331 -33.4918 0.482639
8.53963 -8.48342 0.182523
6.25189 -12.7902 0.207343
7.11778 -10.9681 0.19961
9.31053 -9.02588 0.187317
8.00078 -9.07821 0.193554
9.68862 -8.971 0.217532
37.3759 -8.00772 0.627164
-24.1684 20.7257 0.570794
-33.4684 -22.5176 0.694059
-34.7957 -25.5293 0.755736
12.8487 -10.5552 0.272473
13.1572 -10.6122 0.316791
-9.9393 -12.6021 0.302987
6.7953 -11.1367 0.254418
7.95615 -9.35054 0.241444
25.7043 52.8865 1.17925
6.94415 -10.915 0.260107
9.14513 -8.65295 0.267512
11.473 -9.86126 0.331551
17.1528 -7.66148 0.378217
7.17738 -10.8897 0.295215
-9.47364 -12.2302 0.391265
-12.875 -19.7646 0.563364
7.61659 -9.27306 0.273383
7.79939 -9.3272 0.282307
-25.9774 21.8335 0.881996
-29.109 -9.33473 0.767217
9.58178 -8.91529 0.336726
17.3695 -12.6887 0.542324
18.1935 -13.1004 0.557592
-23.2612 20.3655 0.80601
-28.1035 22.2106 0.93567
-29.1212 -8.74025 0.796103
-33.4123 -17.8155 1.02838
-13.4433 -20.2999 0.646977
14.6685 -11.3974 0.495682
22.5838 -3.28589 0.642306
-12.271 -19.134 0.657461
24.7886 -4.69595 0.734396
16.0966 24.98 0.891098
-28.2524 -20.8132 1.03828
7.18849 -11.2603 0.401163
6.93205 -10.6452 0.386951
14.5077 23.6334 0.851824
-7.63237 -8.81936 0.356682
12.9567 -10.6019 0.511271
-7.32973 -9.5265 0.368164
-28.7448 -8.11338 0.994101
-11.9555 -17.4763 0.708954
7.83824 -9.31028 0.402757
16.0167 10.9428 0.694962
10.8055 -9.40888 0.520558
11.8293 -9.99459 0.564347
22.1437 44.5903 1.87042
-7.45781 -8.14217 0.412749
9.60883 -8.91979 0.489532
22.6513 -3.18027 0.878217
25.7765 53.2842 2.29265
-7.45943 -9.90096 0.484889
10.38 -9.46703 0.551172
12.6546 -10.4514 0.663185
21.4207 -2.62533 0.87995
-29.3721 -17.8194 1.40473
8.70286 -8.66374 0.507596
-6.93164 -8.47557 0.470688
9.3958 -8.88816 0.540781
12.5485 14.405 0.844012
-29.0881 -8.53685 1.33234
14.5341 18.9308 1.07298
14.7566 25.4076 1.30965
21.0277 41.3493 2.05218
6.1257 -13.6482 0.667177
10.7894 -9.46566 0.649213
18.3722 -1.63049 0.843945
18.9525 36.0861 1.91225
14.6923 25.8866 1.39607
-11.2244 2.78405 0.557198
-7.25496 -9.56292 0.578892
9.12747 -8.94618 0.605396
11.3411 -8.70104 0.669481
19.9768 -2.28927 0.968739
11.5331 11.7537 0.818027
15.599 37.514 1.99777
7.72604 -9.41635 0.59962
10.1356 -9.23118 0.678982
14.3237 24.2889 1.41238
19.5645 37.9391 2.16723
20.8574 -2.59826 1.06889
-7.41604 -8.52008 0.586077
9.34371 -8.89627 0.671896
16.43 24.0935 1.53237
16.1609 29.2978 1.74679
12.9285 -10.6565 0.890302
10.461 12.2289 0.860963
14.0284 19.0423 1.27087
11.0182 -9.55392 0.788669
14.8056 19.2904 1.34139
-26.6101 20.3982 1.83304
-6.97734 -8.1859 0.595114
10.1582 12.2811 0.89281
-7.27436 -9.39073 0.665342
9.89673 12.3286 0.917145
-28.0763 19.7666 1.95054
6.06318 -12.805 0.811316
11.0839 11.9819 0.938392
-6.88997 -6.79987 0.561533
11.1735 11.9147 0.962039
-6.81814 -8.42511 0.648737
6.20896 -12.481 0.814674
14.4434 19.2172 1.44582
13.8863 22.7039 1.58792
13.0714 30.2088 1.97574
-6.17084 6.57246 0.553963
-8.18179 -7.75258 0.681869
-7.12761 -8.17668 0.666251
5.68359 -12.3606 0.822831
-7.49156 -6.89738 0.633615
6.96708 -11.1005 0.810515
6.95251 -10.5074 0.786502
11.2796 -9.73662 0.920378
12.0606 -10.0892 0.974547
16.1068 7.13333 1.12258
14.6899 19.0298 1.52125
-7.24631 -6.31521 0.623554
10.2153 -9.32991 0.892965
-7.38814 -6.26783 0.635672
11.3742 12.0021 1.12688
9.36437 21.081 1.57086
-7.28675 -9.67243 0.809133
11.5293 12.5045 1.16699
-6.96256 -4.46194 0.568977
-6.76293 -8.21386 0.725677
-6.70614 -4.43799 0.554842
9.23404 -8.82836 0.889493
9.95929 -7.81376 0.891819
12.5653 15.8367 1.4619
-6.67785 -6.67032 0.655935
9.77199 -8.25201 0.935372
11.3176 16.9225 1.53066
11.2395 17.9189 1.58025
9.44984 17.9859 1.53225
8.86146 19.1507 1.58718
7.17426 21.3821 1.69552
10.6141 18.3204 1.61317
9.97755 -7.57008 0.957731
-7.03833 -7.19964 0.771614
-17.2669 -6.26287 1.4364
9.43908 -7.65231 0.952666
9.18676 18.3486 1.61966
-6.38631 -4.26427 0.608976
-6.8412 -8.23374 0.848733
4.83047 -5.72823 0.595843
8.86081 19.4941 1.69849
7.62508 18.6433 1.61958
5.02328 -5.78952 0.617654
12.6745 11.4368 1.38349
11.6798 11.7322 1.35573
6.70554 -9.35461 0.935713
12.1341 11.6059 1.38038
6.54202 19.2045 1.66066
-6.36248 -4.39217 0.630257
-7.1769 -9.49863 0.977203
11.4481 11.9937 1.372
10.4026 9.10039 1.17705
-5.05352 -11.5297 1.06339
6.11736 -6.03757 0.75035
9.18772 -7.15755 1.00181
-6.80431 -6.70187 0.811536
10.3385 12.2521 1.3996
8.76985 -7.30755 0.992423
10.735 12.1012 1.41587
-7.32185 -7.77743 0.936556
8.16698 -7.2707 0.970951
10.1154 12.3639 1.43623
-7.08302 -7.75435 0.931306
-6.95032 -8.35516 0.975471
10.5057 12.2121 1.46293
10.3993 13.4145 1.53791
-7.12973 -8.34325 0.999808
11.134 10.7546 1.42399
-6.32041 -4.23517 0.69978
-6.87384 -8.60927 1.00805
-6.33439 -4.39856 0.711046
11.0162 8.50145 1.30594
10.571 9.26706 1.31091
6.3972 15.1963 1.55078
10.4259 11.2162 1.44918
-11.2704 2.88805 1.0997
6.14901 -5.95707 0.816305
7.98533 -6.61991 0.996385
10.6713 9.13815 1.36402
9.4419 12.4236 1.51105
9.62651 12.3538 1.54314
7.59409 12.145 1.42296
7.83068 13.0905 1.51846
11.1596 8.01372 1.40034
7.0667 12.5749 1.45583
8.98749 11.2631 1.46629
6.9189 13.3948 1.54297
5.79293 13.7648 1.53315
9.12997 10.4086 1.43111
8.95234 12.1962 1.57202
11.3248 7.61537 1.4238
9.18758 9.93599 1.40912
4.9694 -5.81507 0.821284
-6.85421 -4.66175 0.874598
5.50395 13.7123 1.56831
-7.06797 -4.51237 0.894488
8.86048 10.6167 1.48486
-6.77624 -6.78594 1.02596
5.90269 -5.82618 0.895979
9.63407 8.48222 1.38371
8.90329 9.29916 1.38481
9.19151 10.2463 1.49253
4.71442 13.663 1.55987
4.22943 -8.04374 0.98457
6.41079 10.7251 1.37508
-6.80943 -3.92954 0.865613
6.28596 11.7862 1.48213
-6.90358 -3.86777 0.876892
9.66201 7.16909 1.34556
6.6104 11.2817 1.45635
9.75734 6.99586 1.34893
5.38018 11.4693 1.43248
5.38228 11.9677 1.48217
4.64902 12.0983 1.46648
9.78857 6.65304 1.349
-6.90063 -4.56946 0.948097
7.39369 -6.21915 1.10139
-7.34257 -0.786734 0.847078
-6.28242 -5.39705 0.954089
5.24592 -5.56463 0.882547
8.8292 7.84931 1.37648
4.41465 -7.17764 0.976295
10.3722 5.13488 1.3555
8.91316 7.75395 1.38886
5.19741 -5.60833 0.903463
8.55782 7.87734 1.38027
8.84958 9.00291 1.47711
-7.05813 -5.65937 1.07067
10.1032 4.73079 1.3293
-6.92742 -3.85667 0.955593
9.10283 6.11926 1.33044
5.16116 11.313 1.5074
-6.90184 -3.06941 0.918099
-6.88616 -3.25564 0.921414
4.87862 -5.94976 0.939227
5.9679 -6.12293 1.04115
9.33696 5.60042 1.34606
8.42318 7.19116 1.36948
-6.95953 -4.3162 1.00908
-6.89086 -4.54097 1.01738
8.21322 8.538 1.46993
4.98378 11.2081 1.52312
-6.55932 -5.62556 1.07564
3.70629 -7.56944 1.05043
8.46126 7.70458 1.43203
6.07247 -5.61243 1.03683
9.12988 6.03663 1.38716
-6.14228 -5.41992 1.0339
8.51282 6.58555 1.37267
8.04954 7.47364 1.39738
-7.1105 -1.78531 0.938064
-7.02263 -2.30902 0.944468
-6.45402 -5.32581 1.06786
8.79541 5.6388 1.33951
8.1132 8.00423 1.46903
-7.27396 -1.25504 0.946909
-6.90683 -4.1243 1.04032
7.40175 6.19604 1.25032
8.04208 7.00931 1.38344
7.92764 8.08319 1.46725
-6.91893 -2.82973 0.97354
-6.92021 -2.96979 0.973917
4.51416 9.99653 1.44148
8.96856 4.09757 1.29799
-7.25755 -1.60834 0.977298
6.83238 -4.2547 1.06982
4.92641 -5.94149 1.02339
-7.34353 -1.11874 0.994728
-7.02301 -2.20211 0.984934
-7.06022 -2.27147 0.991223
-6.001 -4.40269 0.994976
5.18437 -6.55976 1.11443
6.90294 -4.1716 1.08594
8.03586 7.1368 1.4561
-7.16062 -1.72046 0.990464
-7.09158 -1.95819 0.989886
8.76301 4.8379 1.35964
8.29917 5.85001 1.38065
-6.92975 -3.62361 1.06592
8.83834 4.14806 1.33928
3.31051 10.4043 1.49461
-7.32285 -1.2016 1.01625
-6.01628 -4.44603 1.02917
-5.99677 -4.54496 1.03041
7.13995 -3.92978 1.12028
8.03764 6.45831 1.42612
5.32023 8.99213 1.44684
-6.38941 -4.32633 1.05816
4.93174 -5.52454 1.02887
7.17749 -3.82559 1.13206
7.55038 -3.68185 1.16242
3.58567 9.94709 1.47225
3.39926 10.2279 1.50252
-7.37952 -1.08364 1.04172
-7.08235 -2.00626 1.0262
4.97123 -5.28653 1.01455
7.23902 -3.73366 1.14441
7.355 -3.66827 1.16583
7.86246 -3.35227 1.21521
-7.16363 -1.87705 1.0536
-7.01639 -2.94935 1.10335
-6.01409 -4.37793 1.07019
7.89694 -2.7794 1.225
8.20704 4.60633 1.379
4.96236 8.50088 1.4427
8.34419 4.49338 1.40078
7.82266 -2.33846 1.20367
7.1213 5.66892 1.36316
2.93445 9.36617 1.4674
-7.10227 -2.0219 1.10717
7.47763 -3.10714 1.22083
8.20389 4.53391 1.42095
5.75934 7.40688 1.4248
5.26528 7.59599 1.40843
5.10023 7.90185 1.42861
5.05323 8.00887 1.43329
7.32839 -3.16749 1.21949
7.67291 -2.75383 1.24153
-6.76339 -1.6846 1.05031
7.82461 -2.25481 1.24883
7.21217 5.40904 1.38443
-7.11184 -1.95471 1.145
-6.92761 -2.789 1.16114
6.79312 5.51002 1.3721
-7.36522 -1.09721 1.16359
-7.15281 -1.82633 1.15664
-7.05463 -2.0699 1.1524
-7.12937 -1.8747 1.15729
-6.90268 -2.93751 1.17808
4.7879 7.42385 1.40496
3.44644 -6.03226 1.10944
-7.28518 -1.3011 1.18601
3.52833 -5.70814 1.08113
3.56529 -5.61363 1.07054
7.06017 4.75902 1.38756
4.64228 7.34735 1.41452
-7.07941 -2.02589 1.20054
-7.10155 -1.94927 1.20889
6.9557 4.81992 1.39967
3.79928 7.8927 1.45023
6.05211 -3.31869 1.14988
6.62421 4.8663 1.3706
4.64527 7.13966 1.42091
3.83662 -5.30089 1.09988
7.09697 4.41934 1.40785
7.46895 2.85597 1.3515
6.3106 5.2754 1.39417
-7.28879 -1.25741 1.26007
6.74639 4.07884 1.35404
-6.45696 -2.7746 1.19959
5.5092 -3.62951 1.13337
5.69035 -3.51834 1.14873
2.74 7.80838 1.43058
-7.38292 -1.041 1.29315
5.33359 -3.78329 1.13996
-6.31682 -2.26178 1.16392
-6.2771 -2.41895 1.17835
4.28134 -4.66491 1.1073
4.49418 -4.47737 1.11288
4.59179 -4.44914 1.12175
-6.80889 -1.73458 1.23824
4.32062 6.48213 1.38971
-7.16934 -0.929554 1.29279
-6.14955 -2.25975 1.16747
6.63432 3.68908 1.3609
6.09388 4.35744 1.35896
3.60923 -5.32826 1.17042
5.13879 5.67538 1.40048
2.5042 7.16579 1.42581
6.48145 3.05047 1.35454
-1.70646 -5.78289 1.14148
6.42577 -1.38585 1.24731
6.27046 2.7767 1.32043
6.21626 2.38069 1.32817
-4.46687 3.95288 1.40313
4.32196 3.53179 1.33507
4.20793 3.28975 1.32236
4.66507 -1.67771 1.2449
4.81844 -1.38087 1.25398
-2.15511 4.8298 1.32221
3.72793 -2.95372 1.22274
3.67404 -2.5502 1.19397
3.40775 -2.9627 1.22625
4.00021 2.5668 1.32826
-2.59375 -3.53333 1.25094
-2.3251 -3.56925 1.21619
3.75132 2.05584 1.30056
3.7281 1.97832 1.30003
-2.8517 3.49731 1.39291
-2.29521 -2.41817 1.18723
1.95748 -2.78397 1.21407
-2.12874 2.7748 1.32929
-2.03339 2.7628 1.33545
2.25252 -1.87111 1.22625
2.38172 -1.49919 1.22313
-2.01868 1.88012 1.29905
-2.06328 -1.44228 1.22836
1.4514 -2.07253 1.247
-1.99133 -1.08724 1.21449
-1.92399 -0.70736 1.22018
-1.92575 -0.70316 1.24578
-1.95514 -0.344234 1.22933
-1.89204 -0.564457 1.23015
-1.89167 -0.53068 1.23526
8.20882 -8.68767 -7.45537
12.0876 -10.2551 -8.77281
-8.8479 15.796 -7.02642
20.3387 24.7665 -11.5113
-8.81997 -2.52589 -2.58519
-34.8396 -23.2729 -7.73944
-34.427 -22.5144 -6.06927
-34.1578 -23.213 -6.13283
-31.4763 -20.1869 -2.81193
9.26317 -8.82294 -0.390875
-7.80803 16.8302 -0.457703
-29.6742 -11.4829 0.733204
-6.93168 -8.28453 0.461508
16.4816 23.6667 1.5671
11.2865 15.873 1.61105
-6.7043 -6.6773 0.884953
4.18107 12.1319 1.4787
8.68551 9.04719 1.46706
7.9683 -8.75957 -10.3744
8.82702 -8.53488 -10.4915
6.95299 -11.9308 -11.508
6.86877 -11.3443 -10.8902
8.14827 -8.26054 -9.52792
7.01843 -12.0234 -11.321
7.06237 -10.9675 -10.451
7.99804 -8.37344 -9.19923
6.7241 -11.2792 -10.284
6.44195 -11.6916 -10.2084
7.75359 -8.84639 -8.96793
6.20204 -14.3092 -11.8022
8.29397 -8.69615 -9.09639
6.29673 -11.9036 -10.1708
6.14455 -12.0828 -10.1084
7.48719 -9.44032 -8.99652
7.90559 -9.05173 -8.92261
10.456 -9.43962 -10.477
6.11776 -14.1092 -11.3673
6.09971 -13.6655 -11.003
6.12829 -12.5712 -10.2868
9.18859 -8.81827 -9.34267
9.27631 -9.06473 -9.45981
5.86214 -12.4999 -10.0298
9.35217 -8.98153 -9.254
6.85714 -11.119 -9.2714
5.61309 -12.9649 -9.99965
9.68156 -9.07143 -9.4027
7.60496 -9.33929 -8.46813
9.98609 -9.17651 -9.52805
10.9048 -9.48265 -10.1404
11.4254 -9.68568 -10.0594
8.38001 -8.60325 -7.95149
7.42692 -9.29399 -7.86089
8.16277 -8.71346 -7.892
7.6238 -9.34684 -7.89147
7.83256 -9.39694 -7.84063
8.31588 -8.5306 -7.61578
0.360925 15.8796 -10.1339
7.52349 -9.31902 -7.622
10.8967 -9.59488 -9.23154
7.22083 -10.6946 -8.16737
8.15082 -8.49289 -7.42373
4.61146 -15.4023 -10.1118
8.70897 -8.69618 -7.61473
7.91717 -9.02773 -7.40675
4.04704 -18.0152 -11.3739
8.19338 -8.62301 -7.27195
4.08537 -17.3066 -10.8507
0.146744 14.8856 -9.0572
6.65015 -11.2555 -7.9597
7.73854 -9.2633 -7.3239
10.1129 -9.30077 -8.33712
6.81631 -11.2446 -7.89413
8.05576 -9.19911 -7.34007
11.2523 -9.68253 -8.87555
5.39794 -13.8506 -8.81666
7.7307 -9.26115 -7.15439
9.34304 -9.0259 -7.69783
6.89773 -11.1083 -7.73915
7.97879 -9.12283 -7.11164
9.74288 -9.17826 -7.80086
14.812 7.40133 -9.61587
8.66086 -8.82453 -7.1448
6.92836 -10.9577 -7.45102
2.63877 -11.2079 -6.62236
7.85527 -9.06639 -6.87061
9.5951 -9.13066 -7.52406
10.7795 -9.48364 -8.09953
3.27918 -20.5997 -11.7306
6.79695 -10.9759 -7.23771
10.0943 -9.28045 -7.67919
12.3171 -10.3351 -9.01703
9.23205 -8.99944 -7.20439
4.61254 -14.284 -8.36859
7.99836 -9.21008 -6.77492
14.7341 7.53276 -9.08425
9.68712 -9.0974 -7.29862
0.837746 17.4654 -9.54791
2.74145 -19.8588 -10.9313
11.1147 -9.63168 -7.98557
4.22924 -14.409 -8.12915
14.6477 7.65998 -8.90289
15.0296 10.3766 -9.80522
13.9852 7.71524 -8.53363
10.9348 -9.60404 -7.73941
13.2361 -10.7787 -9.08051
3.04372 -19.3346 -10.2895
11.338 -9.80965 -7.62883
2.16824 -20.3833 -10.3462
10.2464 -9.32873 -6.96815
14.2363 -11.2604 -9.11378
13.7728 -11.14 -8.8683
10.99 -9.63946 -7.28322
7.50182 -9.32947 -5.92867
3.56161 -8.46473 -4.52591
-8.71755 -1.91406 -4.38821
2.22365 -20.1692 -9.95237
4.52994 -9.29529 -5.05715
0.404581 13.6556 -6.68712
7.60074 -9.26153 -5.8466
-8.55167 16.3212 -8.92463
-9.21983 -2.43737 -4.59511
14.9537 -11.5478 -9.07981
19.3102 5.52502 -9.60476
-10.338 -2.55955 -5.03748
1.90904 -20.5573 -9.81725
17.1253 16.0928 -11.1291
7.57282 -11.1958 -6.37801
19.9582 5.38705 -9.73482
13.995 -11.0802 -8.30109
2.9257 -17.3146 -8.16548
19.2876 5.70673 -9.29182
17.7824 -12.9593 -10.1642
9.84867 -2.48762 -4.69331
20.2118 5.12287 -9.61974
17.2492 16.2202 -10.9097
1.81002 -20.2312 -9.29599
9.65857 -9.03169 -6.05525
-9.22997 -1.67533 -4.27825
9.43746 -3.4629 -4.57842
6.70329 -11.3005 -5.97654
9.89581 -2.61381 -4.64239
19.1807 5.84874 -9.02723
17.628 17.4848 -11.1605
9.35387 -3.08126 -4.43281
15.3829 -11.837 -8.71081
7.0262 -11.5443 -6.04502
7.14114 -10.9014 -5.80909
9.54339 -3.39907 -4.51443
-10.0814 16.5248 -8.61845
17.5918 -12.8388 -9.67812
19.466 5.60761 -8.97838
16.0531 7.28137 -7.80524
17.7335 17.9115 -11.146
16.3741 -12.1778 -8.99416
-11.3521 17.2632 -9.08211
-6.61161 15.1109 -7.23241
-5.25248 4.92668 -3.13796
20.0607 5.44678 -9.03672
9.54234 -3.39935 -4.37158
18.1227 18.3679 -11.0893
15.7731 -12.1383 -8.5647
14.8181 7.40888 -7.07001
3.83511 -9.29383 -4.27176
-11.2735 17.1467 -8.68799
6.93374 -10.8899 -5.44391
-13.638 3.34234 -5.91613
0.743096 -22.4085 -9.44832
15.7608 -11.9336 -8.26778
-5.18335 5.7079 -3.22611
0.998767 -22.2726 -9.3458
1.23127 -20.7853 -8.72301
14.1295 7.57794 -6.70559
18.4481 19.2249 -11.1315
3.77965 -8.94759 -4.05065
14.7299 7.70794 -6.91961
17.8222 19.0339 -10.82
-9.53406 -1.09424 -3.96151
4.00492 -8.49752 -3.84885
13.9965 7.72834 -6.56294
6.8332 -10.9699 -5.28399
-13.6757 2.55471 -5.69137
-8.04049 15.5776 -7.12438
19.1395 20.7968 -11.4492
15.0312 7.22243 -6.71865
-5.31898 14.5276 -6.20332
13.9151 -11.0012 -6.94802
1.52949 19.2 -7.47989
-8.83596 15.9591 -7.08943
18.9286 5.77255 -7.6672
-1.76038 13.3436 -5.21335
5.28993 -9.38387 -4.15437
-2.39594 13.5688 -5.29246
19.4594 22.5103 -11.4083
4.6569 -8.50891 -3.68379
19.353 5.55195 -7.66099
0.877813 -26.6018 -10.1147
14.8616 -11.4523 -7.06119
19.9091 5.39375 -7.71971
9.42832 -3.43507 -3.75156
0.533914 -22.75 -8.48
3.24378 -10.7791 -4.20565
20.0518 23.3281 -11.4226
0.909855 -8.72439 -3.2529
13.9899 -11.0793 -6.58064
20.3151 5.16691 -7.70694
17.7877 17.5761 -9.13747
-13.0866 2.29266 -4.83035
20.6924 24.7096 -11.6881
2.28372 -13.2411 -4.84095
13.0022 -10.5147 -6.01739
0.796073 15.4182 -5.52361
-8.21421 -2.80313 -3.10446
0.410029 -21.9056 -7.83165
-4.25656 13.9719 -5.19584
0.638435 -21.9692 -7.81028
15.8064 -11.938 -7.02096
-15.9281 18.4143 -8.58116
5.92089 -11.3242 -4.49326
-11.1557 16.8352 -7.05446
0.0931768 -18.555 -6.52227
14.2258 -11.2743 -6.34722
20.2701 5.3383 -7.31609
0.657906 -23.0964 -7.97945
-5.06863 14.7159 -5.33348
3.63671 -8.44233 -3.16427
4.87215 -9.02507 -3.51463
-14.6878 18.2353 -8.01532
2.27339 -10.8792 -3.8089
-8.99445 16.317 -6.35184
3.02135 -13.6709 -4.77374
-15.169 18.6184 -8.14204
20.0886 5.46179 -6.99693
21.8631 27.0457 -11.622
35.8073 -20.2135 -13.7418
-5.36666 14.2358 -5.05354
1.90929 20.6779 -6.8896
1.26698 -10.2461 -3.41362
-5.31285 14.6306 -5.05625
-12.746 17.4497 -7.01063
18.4925 -13.1776 -7.37435
3.55816 -8.66878 -3.00439
6.21189 -10.1001 -3.80017
2.31235 -11.0034 -3.57812
-4.60753 -34.6033 -11.0945
-1.14571 -23.9903 -7.64465
14.9652 10.3066 -5.73413
-13.3783 17.8026 -7.03947
-18.231 19.664 -8.42995
6.95016 -11.0763 -4.0429
1.38647 -21.9328 -6.79833
-2.59626 -27.6447 -8.52234
7.12465 32.8977 -10.2703
0.771106 15.0079 -4.56412
-11.277 17.0153 -6.15319
-2.72642 -26.7639 -8.10099
-14.5306 18.1679 -6.94202
-5.35256 -35.0918 -10.5687
0.840181 -25.1519 -7.52434
-5.45991 15.0186 -4.75424
2.07441 20.6262 -6.10702
-21.5609 20.1039 -8.6979
18.1538 5.77691 -5.60728
-4.34585 14.5992 -4.47938
-8.02684 15.5732 -5.14085
4.25192 -9.13502 -2.96157
4.63024 -11.6021 -3.65278
-12.6631 2.23077 -3.69549
-33.5609 -47.539 -16.7437
-15.3934 18.5186 -6.9231
6.9464 -11.0636 -3.76107
2.56192 -9.53936 -2.80654
12.9053 -10.446 -4.7251
-8.46484 -2.46352 -2.49979
20.9031 26.9578 -9.66389
-8.5928 -2.26474 -2.51102
-2.58056 -26.3266 -7.4227
-13.0716 2.00306 -3.68268
4.38151 -11.3133 -3.36746
-9.42967 16.2171 -5.15083
-13.2262 17.6398 -6.05629
-5.46199 14.5788 -4.25592
-8.64214 -41.9644 -11.7215
-21.7565 20.303 -8.00046
-9.85537 16.3427 -5.11505
-27.0755 20.7989 -9.08339
11.3932 11.4668 -4.26474
4.3205 -11.2789 -3.19984
46.7078 -13.578 -12.8862
-8.34543 -39.3802 -10.5795
4.08549 -8.64888 -2.51868
11.1501 -9.91754 -3.90384
-14.639 18.3295 -6.10017
6.528 -10.4105 -3.18056
3.17514 -9.63741 -2.62326
-30.6346 -44.8674 -14.0279
-4.42152 -28.9983 -7.58849
3.53672 -10.3596 -2.82274
4.06411 -9.37778 -2.62703
15.562 -11.7015 -4.96812
-7.25078 15.4479 -4.32006
-32.0682 -42.7669 -13.5543
4.30556 -11.1283 -3.02011
4.25207 -7.69888 -2.23839
6.52645 -10.6458 -3.11429
44.4258 -13.4317 -11.5719
-28.6562 21.62 -8.87523
-11.6778 17.157 -5.11692
-28.0214 -40.8768 -12.1847
-10.0676 -39.6243 -10.0835
-24.8037 20.8331 -7.96055
4.34428 -10.3184 -2.7508
-12.2177 17.5007 -5.17556
-7.94577 15.4822 -4.195
10.2579 -9.2527 -3.30779
39.9747 -13.2786 -10.0801
15.0715 7.53736 -4.01139
-6.41705 -36.7457 -8.88476
3.96191 -9.079 -2.34724
46.582 -12.4673 -11.4452
-12.4039 -45.6687 -11.2094
4.1961 -8.97816 -2.36429
3.85086 -11.0449 -2.75693
4.90341 -8.6844 -2.34621
-12.9418 17.6367 -5.09148
10.9873 -9.6287 -3.33913
-6.27644 -31.8256 -7.40086
-27.5107 21.248 -7.87994
41.1986 -9.00984 -9.57057
-30.9129 22.4444 -8.56525
-35.8116 -23.4682 -9.59333
40.4017 -12.4895 -9.49517
5.4475 -9.46196 -2.43771
-12.4519 2.84125 -2.80238
40.2748 -11.8025 -9.27303
42.2274 -12.0487 -9.66144
-5.4516 14.3046 -3.34778
13.3579 -10.7489 -3.77411
37.7779 -12.1406 -8.7237
-23.6874 20.6449 -6.81604
-30.5186 -75.2399 -17.6164
4.30332 -9.68576 -2.29846
4.53321 -9.16828 -2.20923
-14.7626 18.3928 -5.03709
-31.3587 22.7784 -8.27641
-32.2521 22.8882 -8.45436
-29.1674 -77.384 -17.7244
-10.8259 16.9166 -4.25915
-8.58423 -36.4377 -7.95963
3.18551 -9.6708 -2.17131
3.95988 -9.81362 -2.25646
45.3754 -10.5203 -9.94331
14.9044 7.46535 -3.5337
-15.346 18.8912 -5.15348
5.15757 -9.04358 -2.18733
26.2746 38.015 -9.65575
14.9432 7.82046 -3.50135
-30.447 -23.5143 -7.98016
-11.5912 17.0785 -4.19485
-15.8126 18.6958 -4.98529
-35.6729 23.9463 -8.73083
44.0358 -9.60509 -9.19145
-13.5364 -43.5558 -9.26892
4.1294 -9.71912 -2.14858
11.5796 -9.62582 -3.0638
-12.1445 17.4284 -4.24087
-20.4676 -58.7409 -12.4305
-13.2122 -41.0415 -8.5353
4.06333 -9.90563 -2.11993
-34.4668 -23.568 -8.23084
-27.0637 21.2407 -6.77143
-33.4872 -23.9539 -8.02553
-6.97934 15.4231 -3.28652
-27.3197 -64.1918 -13.5495
-33.8939 -22.5642 -7.84626
3.43065 -9.34818 -1.92292
45.4562 -10.5319 -8.96019
-12.8993 17.6119 -4.17368
3.98337 -9.33138 -1.93631
-36.8176 -22.364 -8.1542
-21.5618 -35.0265 -7.82185
-15.9233 -45.9442 -9.1996
37.6112 -12.4071 -7.48724
-36.4486 24.4799 -8.2172
-34.0359 -23.5059 -7.77025
-32.9781 -24.1281 -7.67018
-21.8307 -54.0829 -10.973
-17.2463 -46.845 -9.25869
3.81608 -9.19696 -1.83922
42.2141 -11.3774 -8.11908
5.74921 -9.69861 -2.06638
-25.149 -57.0258 -11.4096
-20.9112 -51.9024 -10.1199
-14.7302 18.3616 -4.17436
-31.4161 -25.3377 -7.17392
-20.5015 -27.3188 -6.10762
-39.9278 25.1949 -8.33025
-27.0744 21.2586 -5.99164
-34.5314 23.6296 -7.26517
3.90302 -10.0333 -1.86686
4.76668 -8.60321 -1.70929
13.9636 7.4988 -2.73339
14.0357 8.05427 -2.77127
-31.2098 22.6953 -6.61566
41.8963 -11.8533 -7.41303
41.6985 -10.7995 -7.33291
-31.5733 -25.0751 -6.83941
-21.304 20.2893 -4.94053
-20.8701 -51.8743 -9.44686
14.8166 7.42606 -2.77932
-32.0927 22.7197 -6.56834
-24.1563 -57.5922 -10.3188
43.2004 -11.6378 -7.27238
-10.4701 16.6222 -3.17051
-21.1691 -52.5169 -9.02994
-35.2513 -24.3342 -6.74958
-23.0288 20.2328 -4.80029
-24.4501 20.8721 -4.98258
-40.6393 24.6057 -7.36191
-11.3477 16.9842 -3.15367
3.46678 -9.51438 -1.56617
3.86218 -10.2132 -1.69077
-7.713 15.6443 -2.66467
-31.4448 22.8864 -5.94527
-32.0781 -24.7762 -6.16322
-28.2222 -26.3986 -5.85415
41.8844 -10.8886 -6.57836
44.4953 -9.69394 -6.93812
-6.62147 14.7489 -2.41951
9.82034 -5.14759 -1.64559
-33.8287 -24.3991 -6.21117
10.1766 -9.14983 -2.0395
44.6333 -10.3254 -6.8037
-37.0348 -24.6535 -6.54755
-31.8343 -26.2582 -6.03635
-12.9368 -42.8636 -6.58714
16.8647 -12.2016 -3.04929
-25.6756 21.1395 -4.83342
-25.3132 -56.7168 -8.94926
-7.70905 15.4408 -2.46824
-12.8496 17.5198 -3.09798
6.02219 -11.5054 -1.85578
-13.5594 18.1236 -3.17974
-35.139 23.7371 -5.96186
6.74666 -11.0204 -1.80612
37.3314 -12.32 -5.52938
-31.4612 -25.2098 -5.62637
-33.4178 24.0157 -5.70096
-21.0521 -50.7389 -7.58668
44.7825 -10.0183 -6.32804
-6.95623 15.3845 -2.30781
-23.2829 -60.7648 -8.83914
7.7406 -9.36753 -1.63084
-14.1558 18.0747 -3.09515
13.1854 -10.5164 -2.28217
-22.4668 20.4363 -4.0841
41.806 -10.809 -5.73294
44.5107 -9.74966 -6.03139
-22.8488 20.1071 -3.98007
-33.0133 -24.7033 -5.38551
-15.0566 18.4374 -3.07808
-34.4426 22.9885 -5.37614
-38.6945 -16.3384 -5.42303
7.00452 -10.4172 -1.61071
10.7425 8.79513 -1.78243
-34.1382 -23.5258 -5.30546
-31.8188 23.2284 -4.98346
-35.9322 -22.422 -5.30857
41.6733 -10.7774 -5.387
6.78426 -10.3497 -1.54642
-7.74699 15.4957 -2.14549
-25.2959 21.2404 -4.04471
-33.8094 23.8278 -5.10224
6.28084 -12.0459 -1.65511
44.4639 -9.48626 -5.56896
14.9575 7.83632 -2.02997
-18.308 -44.3411 -5.7842
7.0742 -10.5138 -1.52588
-20.6588 9.1557 -2.6745
-14.6237 -44.2358 -5.47778
-32.164 -24.7979 -4.74877
-31.6453 -25.3082 -4.74158
41.7536 -11.1846 -5.08066
11.2099 -9.65375 -1.71401
-30.2361 22.9263 -4.36567
6.63037 -10.8033 -1.45123
7.47902 -9.20807 -1.35699
11.5608 -9.70502 -1.7145
9.43934 -4.60494 -1.18929
14.9362 7.6753 -1.89236
-10.4644 16.6593 -2.22052
-32.5796 23.8061 -4.52041
38.6157 -12.7118 -4.55936
9.34225 -9.00908 -1.43591
-11.186 16.7766 -2.1922
6.77606 -12.7572 -1.56487
44.6038 -9.69399 -4.94858
10.7401 8.82571 -1.49793
16.72 -12.4201 -2.2356
41.9468 -10.8792 -4.64368
9.60376 -8.96442 -1.39191
8.36805 -8.45306 -1.24609
-31.2017 -24.9686 -4.16106
-30.9446 -62.0687 -7.23482
14.9333 7.48925 -1.70665
-32.1026 -24.7532 -4.15913
-12.9948 17.7146 -2.23097
-12.9096 17.2958 -2.1454
10.1904 -9.07279 -1.33669
-21.3664 -54.2625 -5.71705
6.30117 -12.067 -1.3177
16.5905 -12.1378 -1.97613
41.8364 -11.242 -4.15277
-31.5102 -63.6941 -6.75505
-21.3623 -56.0609 -5.69723
-23.5621 20.6094 -2.92646
45.2934 -10.076 -4.33421
9.70091 -8.97262 -1.22331
39.4356 -13.0088 -3.86986
-15.1795 18.6076 -2.17483
-29.908 -13.636 -2.9961
-33.163 -64.6486 -6.69705
15.8104 -11.8339 -1.79666
8.62386 -8.71471 -1.11027
12.8608 -10.616 -1.45228
44.883 -10.403 -3.94709
9.38709 -9.01377 -1.09403
10.931 -9.62609 -1.22436
-34.5694 23.7404 -3.48974
16.7897 -12.2436 -1.72129
-17.2711 -44.9425 -3.85626
14.6422 -11.4492 -1.48231
-11.9041 -33.326 -2.79311
-30.1672 22.9378 -2.93075
-33.4909 23.6725 -3.16609
-23.2268 -53.056 -4.47123
-51.9089 28.251 -4.47516
-21.6154 20.3433 -2.15925
-33.7208 23.8518 -2.99337
16.328 -12.2002 -1.49122
41.8617 -11.2022 -3.15741
-40.4944 -76.619 -6.25408
13.9383 -11.028 -1.2721
-15.8482 -42.0411 -3.10094
10.7459 -9.59685 -0.987181
-23.5866 20.6522 -2.11732
12.8393 -10.5944 -1.1144
17.8913 -12.9764 -1.47364
15.9922 -12.0962 -1.32442
-14.9438 -41.4331 -2.84915
43.6003 -11.3394 -2.81627
-32.7033 -66.262 -4.50923
35.6415 -8.64663 -2.25101
42.7854 -9.79287 -2.69486
6.031 -13.0367 -0.858679
30.7085 -20.3197 -2.2038
-9.94951 16.6092 -1.13832
-15.8448 -41.3322 -2.52053
16.5574 -12.3741 -1.16075
-9.71665 -12.5961 -0.871737
14.9238 7.65642 -0.906728
13.8657 -10.9761 -0.947087
-12.917 17.5045 -1.13633
-16.7607 -41.5426 -2.37912
14.8182 7.79182 -0.820382
-16.5936 -42.4153 -2.23483
-14.2965 18.1208 -1.10381
9.55022 -9.0084 -0.602202
-24.5477 -56.3093 -2.77972
12.4228 -10.2126 -0.745652
-16.335 -45.5352 -2.14791
-17.5249 -43.1777 -1.99511
6.83626 -12.6232 -0.637
-14.1965 -43.2754 -1.94016
-53.353 29.0152 -2.46002
18.2716 -13.1268 -0.913223
16.7472 -12.4481 -0.812812
-42.798 -83.0669 -3.5256
-18.6197 -48.8272 -1.92479
-34.0225 23.3766 -1.50954
42.3386 -10.9091 -1.5746
-35.414 -70.4447 -2.63822
-26.4718 -58.013 -2.14725
20.0034 23.1349 -1.01507
-21.6586 20.2962 -0.966928
8.08869 -14.276 -0.551214
9.40673 -8.98018 -0.421608
11.2764 -9.9272 -0.488417
18.5254 -13.0988 -0.74582
34.6344 -13.0629 -1.22865
21.7655 26.347 -1.09533
-27.5606 -13.8242 -0.966339
-23.1348 20.6015 -0.943873
-32.0495 22.699 -1.2254
-25.5755 -58.7988 -1.98621
-14.0478 -39.7407 -1.29851
-22.0203 -56.1706 -1.82706
-16.9539 -45.9485 -1.40341
-34.319 -20.8084 -1.06887
11.4254 -9.69264 -0.401442
16.2873 -12.1143 -0.535232
-41.5734 25.7186 -1.28886
-30.6279 23.3049 -0.951833
-31.1492 22.8285 -0.912666
9.55259 -8.99266 -0.303961
-41.7524 14.4306 -0.976009
-32.0162 -53.6115 -1.4067
21.1806 -14.1656 -0.560284
30.3142 -18.3816 -0.800443
14.1949 3.9229 -0.300287
26.9639 47.1182 -0.997155
23.4499 -10.9172 -0.455691
46.8084 -10.7784 -0.893723
-30.8941 -22.2016 -0.693666
-29.8802 -29.3483 -0.664159
-19.3561 -47.4951 -0.854451
12.6908 -10.436 -0.270409
18.4539 -13.3347 -0.348095
-29.4692 -13.0984 -0.423216
-33.1346 -24.7971 -0.575784
-34.2516 -69.0486 -1.0412
-28.3754 -60.3918 -0.914845
-34.2409 -23.3847 -0.541288
-30.6479 23.3165 -0.452963
16.9419 -12.6519 -0.251194
29.1478 -18.0731 -0.403846
-31.1055 22.8358 -0.429222
-19.4269 -44.5546 -0.520431
-12.2152 -36.7664 -0.390501
-34.1089 -60.0991 -0.637169
-14.4697 18.3544 -0.179085
-26.8791 -13.5517 -0.242899
-15.1663 18.4875 -0.163218
-22.7853 20.3494 -0.156829
-21.2094 19.8937 -0.131914
-10.5983 -13.6251 -0.0605703
14.6863 7.71505 -0.0198669
11.0858 -9.74803 -0.00780623
-34.7877 -19.0539 0.0606496
-11.5154 -34.2239 0.117178
16.9025 -12.2802 0.0905959
-19.1393 -43.9401 0.212551
18.7138 -13.1853 0.121493
7.15833 -12.305 0.103871
25.8985 -10.6256 0.172099
-56.0808 20.0247 0.568527
16.1988 -12.005 0.19244
37.2464 -7.60431 0.358639
-29.2655 -8.25221 0.355917
-36.6196 -22.1029 0.47184
-11.4935 -32.9301 0.373727
-12.9072 -35.7664 0.452273
-10.4334 -32.0699 0.404261
6.31214 -12.9021 0.183361
7.19916 -11.0908 0.173855
-28.4952 22.3678 0.555286
11.2901 -9.8601 0.225339
-24.3729 20.8431 0.529904
10.8788 -9.7135 0.228886
12.9409 -10.6534 0.264057
36.2056 -7.7485 0.615945
-34.8763 -23.3665 0.763669
-31.5885 22.5859 0.763152
6.12521 -12.7976 0.275323
7.00809 -11.0287 0.25175
8.01372 -9.40357 0.241274
26.8991 55.3105 1.33835
7.71703 -9.42912 0.27548
10.1116 -9.15851 0.329134
-29.0007 -9.29936 0.733835
-23.5553 20.5601 0.846575
-27.8872 21.9889 0.953821
-29.1299 -8.74671 0.801716
9.17527 -8.88147 0.344961
9.60864 -8.93051 0.357578
-25.8698 21.8033 0.919922
25.2751 -5.1132 0.71797
12.9506 -10.6241 0.498975
14.6734 23.9039 0.865661
6.17254 -12.7337 0.445331
7.44083 -11.5991 0.432464
-28.65 -8.08022 0.976951
-12.6896 -19.4293 0.764469
-28.3302 -8.8546 1.02648
16.0417 10.9798 0.702743
-30.0656 -18.6306 1.2364
15.5916 27.0838 1.1156
-30.6826 -16.7365 1.29529
23.4481 -4.23413 0.860874
-28.0533 -19.952 1.27565
-7.31024 -7.97067 0.408277
9.03707 -8.81248 0.469209
12.3621 13.5229 0.706659
25.4497 52.5005 2.21009
24.3265 51.7934 2.15523
-11.5928 -9.17621 0.583117
8.70992 -8.65568 0.485762
-25.9535 21.3794 1.3658
21.7597 -2.94902 0.88965
-29.0233 -17.6288 1.39122
9.39839 -8.9115 0.531035
12.3827 14.2613 0.812788
6.55919 -12.4217 0.596541
14.7395 19.1517 1.06269
20.5459 28.3793 1.53475
-9.53338 -13.8616 0.739467
-10.0282 -15.6836 0.826315
7.58198 -10.9277 0.586006
8.611 -8.70031 0.553188
24.0909 -3.69051 1.10043
-30.0704 -8.76296 1.42992
6.72778 -11.0603 0.595668
-8.29294 -8.16123 0.547715
20.9236 42.2156 2.25454
-28.783 -17.789 1.59952
-9.80779 -13.7573 0.804165
9.64336 -8.94735 0.619587
15.1151 42.0038 2.16122
-30.4825 -13.5016 1.59144
-6.77651 -8.26157 0.525906
14.2947 33.2427 1.8467
-29.961 -11.7328 1.61496
-7.60768 -6.99553 0.522573
-6.71243 -7.60925 0.513439
15.9051 28.812 1.70912
10.4812 12.2558 0.871688
14.0955 19.1816 1.27829
9.32846 -8.90969 0.691162
14.6809 19.1018 1.33045
15.1079 23.334 1.53088
-27.8143 19.5841 1.86533
-6.98787 -8.21225 0.5981
-26.7402 20.5177 1.8747
6.07482 -12.8266 0.794121
-7.12348 -9.18028 0.662758
9.89028 12.3536 0.930859
14.7213 24.8035 1.68529
6.44186 -12.938 0.831827
13.6786 22.3162 1.54627
-8.27973 -8.13866 0.699665
11.4645 11.5436 0.970361
14.5294 19.3242 1.45279
-7.4183 -10.0423 0.776561
6.99225 -11.1427 0.801718
11.2333 -9.68935 0.899336
5.85325 -10.73 0.758498
-7.20886 -6.66322 0.613593
14.3261 20.3225 1.57344
16.0677 7.13222 1.14153
-7.04963 -6.15932 0.61445
6.44191 -13.4023 0.991054
9.27021 20.9397 1.54496
10.3432 12.4667 1.10756
13.4185 18.0432 1.5685
12.2538 20.3167 1.64189
11.2697 11.9048 1.15077
6.58397 -9.81897 0.837225
11.4185 11.6823 1.18234
9.78479 -6.90711 0.852235
12.2754 11.8836 1.25495
9.90149 -8.36169 0.949424
-6.19347 6.71257 0.682305
10.3729 9.13362 1.03836
11.7977 17.6394 1.59684
11.3493 18.0817 1.60872
-6.96061 -7.71545 0.805922
10.7278 18.516 1.64203
9.48986 -8.9347 1.00731
-6.42509 -4.30527 0.610201
9.07177 18.1751 1.62336
10.0572 -6.88208 0.975791
12.3707 11.4777 1.36428
9.62305 18.684 1.6924
-7.28549 -9.6636 0.985869
6.70273 -9.35921 0.936784
12.1582 11.6309 1.37879
12.0615 11.8621 1.40494
11.3413 11.8542 1.35833
-5.06902 -11.5694 1.06255
10.2318 12.8012 1.39453
-6.97352 -6.09376 0.797865
-6.83028 -6.70895 0.808884
-5.23013 -11.4709 1.07214
-7.31773 -7.76508 0.919001
9.26348 -7.2395 1.01579
-7.13791 -8.07734 0.943482
-7.03297 -7.70802 0.917819
9.31505 12.4337 1.3775
-6.96943 -8.393 0.974788
10.7512 9.02096 1.27917
10.3768 13.3648 1.52885
10.4608 9.18725 1.27459
7.64464 13.8767 1.45734
-6.51345 -8.15499 0.956419
-6.92169 -9.04293 1.05121
11.1232 10.728 1.42602
11.1824 9.12369 1.35064
10.795 10.73 1.42689
6.41416 14.8223 1.5177
-11.4741 2.93949 1.11118
-6.37005 -4.17665 0.713854
-6.81842 -6.30567 0.861432
9.353 13.1904 1.55997
-6.06332 6.58849 0.882208
7.94676 -6.59787 1.00666
7.86127 13.1079 1.51834
-7.08462 -7.6348 1.04945
9.23855 11.5517 1.49205
6.94699 12.3346 1.43678
6.99975 12.8956 1.4959
9.47672 9.0386 1.35542
5.8005 13.8277 1.55423
9.06882 12.3343 1.59622
-6.11479 -4.46231 0.793688
5.90017 13.5574 1.55748
6.15983 13.4927 1.55939
-6.98084 -4.43438 0.884824
8.71534 8.96442 1.33302
9.07648 10.1114 1.47784
7.27513 10.9238 1.42644
5.7782 11.3809 1.38774
-6.31143 -7.42481 1.06531
10.2179 6.42168 1.33537
8.94191 8.09316 1.32957
7.2552 11.5971 1.51058
6.79241 11.5444 1.48095
5.31037 11.7921 1.43891
4.8242 11.9914 1.44609
4.65162 13.5278 1.57374
9.81691 7.01913 1.34763
8.70458 9.25286 1.41966
5.33687 11.4192 1.41947
-6.85406 -6.73589 1.06981
6.81747 10.641 1.4237
4.27237 13.0329 1.55007
9.73449 -3.1899 1.14221
-6.1121 -5.4211 0.946098
7.27904 -6.11142 1.07892
10.3674 5.68835 1.35638
-7.39245 -0.987286 0.854957
-6.26565 -5.36324 0.949572
5.24219 -5.55046 0.879616
5.02365 11.5227 1.46024
-6.8928 -4.5657 0.958331
4.44807 -7.253 0.983997
10.3622 5.12612 1.35673
8.83568 7.84209 1.38694
-6.00889 -4.37323 0.866383
-6.49483 -5.28082 0.989124
4.0865 -7.85537 1.0531
4.96153 -5.84423 0.919777
10.1242 4.73393 1.33987
8.4703 8.2249 1.43014
5.23053 11.3951 1.53053
9.00245 6.23646 1.34098
7.96537 8.28967 1.44021
-6.49939 -5.75529 1.08094
3.70248 -7.56477 1.05489
8.63353 6.65679 1.37099
-6.47698 -5.35202 1.06363
9.04876 5.98527 1.38521
8.14175 7.10418 1.3787
8.0712 7.46775 1.40408
5.77042 -5.3394 1.00936
-6.98232 -4.44977 1.06308
8.05688 7.95485 1.46864
-7.36868 -1.04399 0.961952
-6.93273 -2.83034 0.978256
8.94249 4.08591 1.28764
8.3621 6.59703 1.39831
4.9934 -6.02203 1.02833
4.91149 -6.18629 1.04599
6.86165 -4.27737 1.07631
-7.14383 -1.72079 0.985456
-7.01955 -2.22316 0.984773
-6.03275 -4.42779 1.00072
8.09648 6.62684 1.41848
8.57778 4.42302 1.31589
8.59627 5.146 1.36853
7.98819 7.10237 1.45499
-6.81771 -3.73862 1.0561
8.82909 4.14434 1.33513
8.22935 5.80826 1.37944
-6.4063 -4.33473 1.05873
-5.96467 -4.53059 1.02323
5.32389 8.97145 1.44094
3.60923 9.9846 1.47431
-7.37888 -1.09463 1.03344
-6.91368 -3.93248 1.10413
4.94473 -5.53891 1.02616
5.2237 -5.39358 1.04213
7.45423 -3.5326 1.15361
3.35424 10.0592 1.48567
8.37103 4.58146 1.34998
7.36608 -3.67369 1.16772
7.57734 -3.33066 1.18007
7.75154 -3.3013 1.19552
8.9109 2.80579 1.34473
4.82974 -5.63072 1.06632
7.34493 -2.84967 1.14702
-6.96784 -3.30461 1.12441
7.90724 -2.7758 1.22187
8.65002 -1.81701 1.29745
4.97801 8.52292 1.45694
2.92646 9.35362 1.4579
7.72178 -1.8854 1.17149
7.20083 5.73465 1.37161
3.42624 9.47828 1.48969
3.15769 9.7072 1.51271
-7.38123 -1.04493 1.10576
-7.08407 -2.02582 1.09846
6.91819 6.26261 1.40895
-6.2702 -2.27426 1.00134
-7.25043 -1.37726 1.11447
7.91131 4.80069 1.40988
5.68191 7.32142 1.40618
5.26584 7.59257 1.40628
5.02919 7.96985 1.4248
6.75285 -3.22252 1.13158
7.23799 -3.12114 1.20711
7.62634 -2.75198 1.23552
-7.32765 -0.734058 1.12507
-7.10682 -1.95712 1.13813
6.78236 -3.08979 1.15261
3.74957 -5.78621 1.06619
-7.06239 -2.07875 1.15459
-7.35682 -1.0945 1.16833
7.33625 4.75844 1.38113
-7.2085 -1.44551 1.17015
-7.28179 -1.30293 1.18736
-7.10695 -2.02173 1.202
7.0461 4.74721 1.38694
-7.11065 -1.94806 1.21153
6.98566 4.84842 1.41247
6.59302 4.83583 1.36452
5.18538 6.21797 1.34878
4.65007 7.1366 1.42256
3.79855 7.88394 1.45458
-7.25937 -1.37544 1.23385
2.79319 -5.77852 1.08193
7.11911 4.41442 1.41121
6.49043 5.21968 1.40515
3.87369 -5.36534 1.11573
3.93694 -5.02136 1.08015
-7.28264 -1.25421 1.25406
-6.60589 -2.62827 1.20664
7.39748 2.84047 1.34404
7.00938 3.87975 1.3653
-6.42138 -2.75606 1.18929
6.75415 4.08625 1.35522
5.67994 -3.51809 1.14998
-7.40697 -1.04114 1.29398
-6.3639 -2.28297 1.16278
5.53309 -3.64648 1.14224
5.31721 -3.77281 1.1428
3.57625 7.12103 1.40165
-6.80801 -1.73736 1.23439
4.47985 -4.46729 1.11339
-7.10215 -0.915926 1.27614
4.72465 -4.45725 1.14946
4.30882 6.46309 1.38606
6.56824 3.46444 1.34109
6.607 3.67213 1.35796
-6.44891 -1.50232 1.19141
3.60934 -5.32707 1.17053
5.05841 5.5915 1.3806
-6.16164 -2.18559 1.19863
3.41405 -5.15997 1.15063
3.36917 6.73402 1.40864
-1.69719 -5.78035 1.14453
6.42945 2.72541 1.32895
-2.14279 -5.72656 1.17563
6.294 2.7893 1.32541
-2.78735 -5.37635 1.18695
-3.54062 5.37703 1.39575
4.45862 3.88286 1.34933
4.15197 -2.87935 1.17726
4.62853 -2.18624 1.23686
4.18978 3.28406 1.31863
3.70901 -2.93151 1.22435
4.01088 2.56976 1.33074
-1.4425 -4.11616 1.22151
-2.32056 -3.57902 1.21253
3.85344 2.3603 1.30914
-2.86945 3.53678 1.36629
-2.4803 -2.91619 1.18955
-2.37775 -2.93731 1.19447
1.84475 -2.81435 1.183
1.86772 -2.79247 1.21302
1.99372 -2.52849 1.19923
-2.04742 2.81311 1.32403
2.80407 -0.555742 1.25916
2.78317 -0.336856 1.24078
-2.08897 -1.619 1.21315
-2.07678 -1.45117 1.23828
-1.86177 -1.7956 1.28349
-1.99442 -1.13134 1.20479
-1.98595 -1.0703 1.23164
-1.94583 -0.880329 1.23194
-1.93026 -0.708395 1.22229
-1.92914 -0.701499 1.24952
-1.9056 -0.469691 1.22243
-1.87104 -0.345705 1.21969
-1.85585 -0.401168 1.22638
2.37752 -19.6967 -10.0112
-7.61599 -8.99168 0.466039
8.01066 -8.79155 -10.4579
8.25697 -8.62239 -10.4948
8.20867 -8.2835 -9.87782
6.95177 -11.9471 -11.4005
8.50819 -8.96519 -9.73231
7.84363 -8.92973 -9.12777
5.84583 -12.7898 -10.7222
9.41712 -8.82479 -9.73455
6.14307 -14.0854 -11.5685
8.27966 -8.67113 -9.01426
8.01051 -9.16077 -9.10037
7.28566 -9.23786 -8.76577
5.90519 -14.1418 -11.182
7.7112 -9.2975 -8.71635
7.8485 -9.10868 -8.66136
7.12226 -10.5713 -9.07563
6.8136 -11.0628 -9.21112
10.0403 -9.18111 -9.55558
6.53322 -11.165 -8.85635
8.0258 -8.62013 -7.84316
7.35348 -9.27201 -7.86448
8.50771 -8.67293 -8.0757
7.71242 -9.46328 -8.02049
6.48042 -12.7618 -9.3467
7.92542 -9.17183 -7.90616
4.99915 -16.0309 -10.8009
-0.47217 13.9416 -8.91951
7.7202 -9.23566 -7.71921
7.32718 -10.852 -8.33754
8.3693 -8.55747 -7.62606
10.8594 -9.60669 -9.19674
8.98 -8.80973 -7.88981
11.745 -10.0156 -9.67406
8.06453 -8.52723 -7.22089
4.03972 -16.84 -10.6141
4.24687 -15.3723 -9.7927
7.83646 -9.34943 -7.31109
3.95121 -15.6267 -9.61188
11.4602 -9.81121 -9.03591
6.85651 -11.065 -7.72974
7.76478 -8.81135 -6.95742
5.48238 -13.9858 -8.87596
6.4815 -12.6935 -8.34145
8.35368 -8.58598 -6.98124
9.67542 -9.0696 -7.73303
2.78844 -11.7874 -6.94348
5.4718 -13.8815 -8.44897
9.58237 -9.09366 -7.4681
6.61068 -11.0588 -7.25486
3.34983 -20.7184 -11.7622
8.86896 -8.92932 -7.05532
12.1676 -10.2084 -8.8983
6.81635 -10.9947 -7.20707
4.6784 -14.5991 -8.47295
6.21492 -12.6087 -7.73345
0.897242 18.5604 -10.1141
14.5807 7.70433 -8.95865
4.19977 -14.2311 -8.01426
14.6871 -11.6223 -10.0967
14.9331 7.42041 -8.88074
13.9743 7.69921 -8.47596
4.76135 -14.8375 -8.28025
12.0589 -10.13 -8.2883
1.81408 -20.5064 -10.5912
11.394 -9.83321 -7.71097
2.08155 -20.2295 -10.3196
13.927 -11.0546 -8.99429
0.00630734 14.2792 -7.16672
-7.3362 15.2524 -8.48412
10.5756 -9.58376 -7.17168
7.50522 -9.41381 -5.99862
-8.55513 16.2214 -8.86546
11.618 -9.75726 -7.34371
10.4764 -9.56854 -6.81343
14.7438 -11.3036 -8.96147
16.6256 15.7485 -10.8773
7.47262 -11.045 -6.35402
14.9676 7.39534 -7.83195
13.8925 -11.001 -8.28275
-12.0272 17.2246 -9.62766
15.7908 -11.9652 -9.0517
9.76518 -2.44838 -4.62415
-9.12596 -1.65909 -4.2182
18.6221 17.9691 -11.674
3.91038 -9.09259 -4.49259
-10.2735 16.7849 -8.83987
-5.35799 4.45592 -3.13453
6.84765 -11.2739 -5.93867
9.41413 -9.07351 -5.76693
15.9673 7.28389 -7.74137
-6.6676 15.1469 -7.23049
1.49955 -18.7482 -8.13496
-11.2448 17.1112 -8.8182
9.57169 -3.36677 -4.34569
7.00707 -11.0295 -5.52435
15.7759 -11.9258 -8.27892
14.6049 7.72026 -6.92791
18.6497 19.4024 -11.2448
1.02056 -22.6607 -9.44349
-4.54974 13.9225 -6.03666
-9.95273 -1.1132 -4.15069
14.0457 7.75548 -6.54979
20.3189 22.1014 -12.2343
-13.1077 2.45646 -5.43297
15.0678 7.15903 -6.74558
-5.24598 14.3809 -6.1587
3.63491 -8.80028 -3.79005
13.9031 -10.9779 -6.92345
19.1891 21.4753 -11.1689
18.7442 5.77999 -7.60503
1.53767 19.2015 -7.46699
-8.78241 15.8271 -6.9804
11.3778 -10.0321 -5.83501
19.1204 22.1666 -11.2733
0.683759 15.359 -5.8865
-1.66411 12.7884 -4.96216
2.71232 -12.2407 -4.81054
-8.78433 -1.25461 -3.37295
0.703423 -23.7261 -8.95635
15.1348 -11.5985 -7.19183
9.48085 -3.45942 -3.80679
-14.666 18.0818 -8.67949
-7.90258 -3.5105 -3.17161
1.09645 -10.4667 -3.87042
7.01781 -11.2203 -4.84011
14.152 7.90178 -5.85052
-8.3059 -2.85172 -3.15793
0.790141 15.2642 -5.44884
-3.97281 13.4416 -4.96093
5.72921 -10.9717 -4.35623
15.7818 -11.927 -7.00702
19.0151 5.87278 -7.00062
2.10236 20.506 -7.22603
21.4662 25.9498 -11.7007
-14.9795 18.4922 -8.17112
2.96555 -13.3153 -4.6958
-8.94538 16.1617 -6.31526
18.4027 -13.0343 -7.72999
-5.06414 14.5551 -5.24265
1.36248 -22.3098 -7.40653
1.75565 19.5498 -6.48224
1.4479 -10.319 -3.44383
38.8026 -19.8353 -14.3031
6.16068 -10.0341 -3.76923
17.4976 -12.355 -6.86125
2.11274 20.6015 -6.58887
-13.441 17.9456 -7.07169
1.45523 -22.8165 -7.1232
-4.32412 14.8086 -4.79625
-11.0215 16.7012 -6.06701
-2.77951 -28.2712 -8.62909
3.06065 -9.459 -3.02171
0.796381 -24.3959 -7.34005
19.0357 -13.5115 -6.92756
17.5426 5.54976 -5.39817
-7.93539 15.3644 -5.0367
4.22162 -10.4764 -3.28301
3.61435 -10.5505 -3.17451
4.23319 -10.9249 -3.28937
-13.4005 17.9126 -6.22513
-9.34643 15.9793 -5.03854
-13.281 1.99087 -3.68241
-17.0417 19.5804 -7.05066
26.1399 -17.2085 -8.48116
-3.96975 -28.2987 -7.66256
3.77855 -9.13516 -2.64523
-9.86257 16.3967 -5.09549
46.83 -13.6735 -12.9376
10.5108 -9.37463 -3.72843
-6.48924 15.0281 -4.27874
-14.5131 18.1971 -6.11011
-8.11827 -38.4035 -10.2228
4.94977 -9.55546 -2.78576
6.54578 -10.4762 -3.18728
-7.25846 15.4076 -4.3319
-10.6225 16.5464 -5.02632
-10.0495 -39.8199 -10.2115
-9.19309 -39.6824 -9.94493
10.9163 -9.62315 -3.57868
-8.019 15.5656 -4.24822
-11.8055 17.1603 -5.04427
14.5626 7.69233 -3.90834
4.04044 -9.23854 -2.38672
15.1644 7.51007 -3.9874
3.74129 -8.89578 -2.26878
-6.60564 -32.9057 -7.77063
5.61524 -9.86514 -2.63125
44.3646 -10.7361 -10.6099
-12.8967 17.5681 -5.01856
14.8184 7.58893 -3.766
43.4205 -9.39292 -10.0644
-9.85703 16.4205 -4.28881
3.707 -9.23438 -2.16517
42.5922 -10.9264 -9.59786
15.0759 7.47905 -3.60324
-10.7123 16.7229 -4.25581
-22.1744 -34.86 -8.87513
4.81082 -9.7307 -2.34213
44.6518 -10.455 -9.81269
-14.8953 18.4554 -4.9915
-32.5043 -23.991 -8.56262
41.3425 -13.8331 -9.22383
14.8017 7.82143 -3.49083
-35.8674 24.2553 -8.85496
-8.4997 -34.764 -7.24615
3.94053 -11.4736 -2.43907
44.1877 -9.5337 -9.19503
11.7483 -9.72474 -3.05887
42.6137 -10.97 -8.76938
-27.2173 20.5389 -6.76898
6.12867 -10.258 -2.3794
45.5247 -10.6457 -9.13217
-12.8877 17.585 -4.21492
-27.098 21.2364 -6.69103
15.9768 12.0849 -3.82813
-6.93815 15.2749 -3.22264
-33.418 -24.1715 -7.8939
-31.9108 -24.9883 -7.78864
-36.0957 24.0526 -8.16886
-33.9217 -22.3769 -7.6791
17.9592 5.64625 -3.51342
-34.4461 -20.7837 -7.51281
-15.3356 -44.2129 -8.71672
3.76219 -9.79939 -1.97675
-25.1951 -62.7246 -12.5698
-17.1117 -46.098 -8.99287
3.96804 -9.61789 -1.87693
13.0332 -10.1842 -2.98324
45.0171 -10.0175 -8.28464
-14.8597 18.4302 -4.23151
-27.2533 21.3751 -6.1158
15.037 7.95977 -2.96284
-30.5737 -26.6428 -7.06805
42.4735 -10.8793 -7.52837
-7.9999 15.4122 -2.94311
-9.84185 18.1265 -3.48606
44.297 -10.4275 -7.696
-31.0607 22.6246 -6.47016
-30.5309 -23.4888 -6.43805
-20.9948 20.0745 -4.83363
-32.7025 23.0953 -6.6797
15.8675 -11.8392 -3.2447
-10.4184 16.5411 -3.11129
-43.9451 25.8586 -8.08993
-31.9273 -23.985 -6.3926
-33.787 -23.3052 -6.46433
3.42671 -9.47743 -1.57629
-23.9903 20.4936 -4.87344
16.8517 -11.9131 -3.1972
-11.2644 16.8592 -3.08161
45.6579 -10.7005 -7.11845
-23.411 -54.2528 -8.92747
-29.8014 22.3504 -5.57048
-38.8608 24.2305 -6.79788
-31.9544 -24.8042 -6.03471
44.3023 -9.49369 -6.74693
-34.0781 -24.6456 -6.1448
-50.7081 28.3124 -8.35102
-35.902 -23.9471 -6.21171
6.70881 -12.8746 -2.10855
-7.01473 15.4667 -2.36006
-13.2307 17.8607 -3.09354
-32.5366 23.4249 -5.60429
-25.2178 -56.1607 -8.48825
-16.5051 -48.2495 -7.01231
36.4561 -12.1239 -5.26964
-23.4016 20.5643 -4.1457
-32.5899 -24.4061 -5.31543
-30.9355 -25.3785 -5.29005
-34.2383 -23.58 -5.325
7.43301 -9.41477 -1.55125
42.5263 -10.8857 -5.63332
-33.9013 23.069 -5.21366
-30.0102 -16.0137 -4.33579
6.03433 -7.81485 -1.26126
44.438 -10.4447 -5.788
-31.4443 23.1097 -4.86974
14.4622 -11.2672 -2.25271
-30.3523 22.8605 -4.59692
-32.9878 23.3193 -4.86412
-10.4549 16.6285 -2.27017
-31.8095 -22.8778 -4.60966
12.9585 -10.4807 -1.95127
35.5722 -11.7546 -4.33555
6.33056 -10.3236 -1.39217
11.17 -9.67951 -1.66551
16.3881 -12.2017 -2.30276
-11.1708 16.7504 -2.22996
6.73904 -12.5565 -1.56199
11.5756 -9.66676 -1.67037
42.3671 -10.8642 -4.80249
-39.5484 24.6588 -5.00207
44.4976 -10.3978 -4.92071
14.8712 -11.4194 -1.99509
-13.0801 17.6715 -2.2587
14.7235 7.7929 -1.66443
13.9653 -11.0168 -1.77716
-14.1407 18.0854 -2.22704
6.38235 -12.231 -1.32839
9.38834 -8.90521 -1.25086
16.9551 -12.3977 -2.0503
-29.0935 -13.9024 -3.03745
-15.1284 18.5255 -2.2299
-38.2376 -74.4937 -7.79411
-34.297 -21.4612 -3.5823
16.0829 -12.0514 -1.80885
38.2278 -12.7197 -3.60638
11.0889 -9.85716 -1.2263
42.7657 -10.9303 -3.68199
-16.5364 -43.0321 -3.70286
-41.3966 -80.9453 -7.08224
17.5494 -12.7881 -1.71529
-30.5595 23.1282 -2.93131
7.43476 -9.15833 -0.913218
-33.278 23.5564 -3.02855
-16.9147 -41.8441 -3.37315
-37.9268 -71.3689 -5.74796
-36.8514 -73.8075 -5.65157
12.5403 -10.4362 -1.09837
17.0087 -12.3882 -1.42275
-40.0104 24.9076 -3.08125
43.0157 -11.013 -2.91513
-28.8872 -13.5835 -1.91155
-41.7585 -80.6755 -5.50191
14.4657 -11.2774 -1.10546
30.9167 -20.3664 -2.02376
30.896 -19.4725 -1.99679
15.293 7.55285 -0.884723
14.7337 7.81268 -0.857199
-13.0058 17.7481 -1.11653
-25.3329 -55.9025 -3.15374
-43.8041 -82.5562 -4.56465
9.63831 -9.0774 -0.662344
13.4146 -10.6679 -0.842019
15.9017 10.1159 -0.890071
16.1907 11.3482 -0.920234
6.80771 -12.4859 -0.676482
-20.1341 -5.94093 -0.90115
-30.5843 -54.5041 -2.75803
10.1943 -13.7628 -0.700279
17.9818 -12.9674 -0.906318
42.2486 -10.7919 -1.73563
-9.42597 -12.467 -0.602907
43.751 -10.245 -1.7673
21.9491 26.3873 -1.17011
-33.1683 22.6735 -1.39205
-36.8806 -20.6811 -1.37641
-18.6401 -46.4553 -1.60888
16.4237 -12.2529 -0.668801
14.3492 3.88673 -0.43831
-26.6665 -61.2767 -2.00467
-23.0844 20.5633 -0.882784
-12.5879 -38.1698 -1.08126
42.6622 -9.06267 -1.2199
-42.7324 26.5796 -1.35994
-55.3893 19.917 -1.40945
43.3329 -10.0623 -0.957162
-31.4577 23.7738 -0.787571
-30.7388 9.7771 -0.674004
30.646 53.6559 -1.13451
-30.6962 22.6546 -0.730149
12.9365 -10.5999 -0.289913
-35.0263 -21.7978 -0.639446
-31.5004 -63.3509 -1.05404
17.4229 -12.5649 -0.312288
-12.8669 -38.8995 -0.529389
-14.4252 18.312 -0.237227
-20.5467 -47.2206 -0.560427
30.0303 -18.809 -0.319933
-23.0733 20.5865 -0.209247
-9.96525 -12.7901 -0.0489906
6.99844 -11.6741 -0.0235909
14.5611 7.61468 0.000736527
-36.0553 -22.264 0.225856
-24.3191 -41.5649 0.35423
-54.6049 29.913 0.637788
6.66929 -11.8332 0.140706
7.99207 -9.08692 0.120939
-41.7174 -22.1792 0.51947
-11.6739 -33.0596 0.390372
11.0735 -9.65294 0.192575
-23.4583 20.0438 0.406986
-12.4838 -19.3691 0.33487
-31.7078 22.5629 0.694331
-35.7204 -23.9476 0.769669
-35.2322 -26.0276 0.764291
10.609 -9.5339 0.232735
7.77356 -9.58208 0.265161
7.88049 -9.19793 0.261369
-72.874 25.2343 1.80431
18.0212 -13.0817 0.542165
-28.9922 -8.71006 0.810574
-28.4341 22.2979 1.0421
11.5518 -9.89714 0.414913
17.2054 -7.45805 0.533966
-25.4003 21.5423 0.992848
-7.93525 -9.30533 0.389335
12.6068 13.7065 0.662599
6.11658 -12.6027 0.492983
8.89056 -8.74851 0.42626
24.4022 -4.32412 0.828888
18.3484 17.5224 0.916499
13.6473 23.625 1.0265
-58.0534 19.082 2.20149
24.2122 -4.70341 0.934458
-25.8713 21.1338 1.26411
9.35745 -8.90195 0.499367
22.2589 -3.06662 0.848934
12.1105 14.0266 0.758972
14.6041 18.87 0.977569
6.49149 -12.3079 0.571274
17.433 40.2925 1.83365
7.62464 -10.9873 0.563844
-7.57704 -7.45865 0.469951
-8.32124 -11.5126 0.634796
-29.8929 -11.8337 1.53155
16.2698 10.5619 0.966995
-7.75402 -7.21476 0.507447
15.0581 23.3942 1.43804
-6.9799 -8.21681 0.592845
14.3642 19.6697 1.33516
-26.5097 20.4132 1.8515
14.1939 23.1158 1.57121
-7.15489 -9.22317 0.667194
6.78238 -13.4406 0.864334
9.81606 12.3472 0.933965
14.5199 19.2915 1.51422
14.7398 26.233 1.85329
10.0785 28.2647 1.90897
-7.33871 -10.0165 0.794483
9.32827 21.2582 1.55863
11.3394 9.97454 1.07674
11.356 12.0087 1.16706
13.5522 15.6598 1.48242
8.15096 -12.5646 1.05741
10.6888 8.92242 1.02472
12.7588 14.3103 1.43493
-14.4941 8.54741 1.27327
-11.1852 2.10715 0.861603
12.2863 15.9933 1.56553
11.417 18.1953 1.66855
10.0641 -6.88736 0.9523
-7.70293 -8.14861 0.897245
12.639 11.4409 1.39089
11.7473 11.4923 1.3645
-7.03034 -6.18566 0.761184
