ply
format ascii 1.0 
element vertex 1872
comment /media/mkaihara/Seagate Backup Plus Drive/model_iterations/model_47.ply
property float32 x 
property float32 y 
property float32 z 
end_header 
32.6375 -20.5172 -12.6772
-5.24807 14.4467 -4.99126
-12.5697 17.2071 -6.91182
18.6284 -13.2744 -7.42783
3.56129 -8.67591 -3.00689
6.22858 -10.1269 -3.81004
2.31473 -11.0121 -3.58089
-4.53121 -34.0516 -10.9193
-1.13223 -23.7515 -7.56967
15.0725 10.3808 -5.77652
-13.1912 17.5524 -6.93927
-17.9567 19.3675 -8.30163
2.99742 -9.66682 -3.19334
6.9749 -11.1154 -4.05683
1.38363 -21.8512 -6.77333
-2.56112 -27.2946 -8.4157
7.23604 33.4315 -10.4402
0.770273 15.0574 -4.58029
-11.1165 16.7719 -6.0638
-2.68575 -26.3836 -7.98737
-14.321 17.9051 -6.8404
-5.27003 -34.57 -10.4129
0.836081 -24.949 -7.46446
-5.38488 14.8072 -4.68578
2.08692 20.7882 -6.15685
-21.2305 19.7955 -8.56346
18.2683 5.81343 -5.64338
-4.292 14.4106 -4.42019
-7.91492 15.3537 -5.06699
4.26076 -9.15377 -2.96752
4.64513 -11.6384 -3.6639
-12.6022 2.22005 -3.67766
-32.7281 -46.3605 -16.3305
-15.1692 18.2481 -6.82087
6.9736 -11.1067 -3.77536
2.5657 -9.55249 -2.81032
12.9652 -10.4943 -4.74666
-8.44524 -2.45783 -2.49404
21.2211 27.3695 -9.81376
-8.57232 -2.25934 -2.50506
-2.53669 -25.8961 -7.30298
-13.0079 1.99331 -3.6647
4.39708 -11.3527 -3.37885
-9.29257 15.9798 -5.07413
-13.0336 17.3821 -5.96668
-5.38364 14.3654 -4.19214
-8.44363 -41.0135 -11.4579
-21.4152 19.9841 -7.87391
-9.71184 16.1033 -5.03886
-26.6349 20.4603 -8.93479
11.4791 11.5537 -4.2983
4.33634 -11.3195 -3.21102
47.4326 -13.7887 -13.085
-8.12869 -38.3657 -10.3092
4.09461 -8.66822 -2.52418
11.1961 -9.95839 -3.91967
-14.4186 18.0529 -6.00704
6.54711 -10.4406 -3.18956
3.18194 -9.65747 -2.62858
-29.8906 -43.7784 -13.6892
-4.32874 -28.398 -7.43332
3.54708 -10.3893 -2.83058
4.07376 -9.39983 -2.63305
15.6565 -11.7726 -4.99784
-7.13697 15.2033 -4.2502
-31.3294 -41.782 -13.2438
4.32068 -11.1667 -3.03021
4.25942 -7.71238 -2.24227
6.54966 -10.6835 -3.12503
45.0931 -13.6335 -11.7447
-28.17 21.253 -8.72395
-11.5026 16.8987 -5.03879
-27.4314 -40.0171 -11.9298
-9.81346 -38.6298 -9.83247
-24.4006 20.4944 -7.83041
4.35635 -10.3466 -2.75811
-12.0343 17.2371 -5.09655
-7.82616 15.2474 -4.13011
10.2949 -9.28602 -3.31953
40.5104 -13.4565 -10.2143
15.1645 7.58401 -4.03695
-6.26326 -35.8761 -8.67638
3.96938 -9.09583 -2.35151
47.2987 -12.6591 -11.6203
-12.0399 -44.3346 -10.8842
4.20841 -9.00469 -2.37108
3.8699 -11.0993 -2.77005
4.9145 -8.70405 -2.35142
-12.7456 17.3687 -5.01314
11.031 -9.66696 -3.35219
-6.15203 -31.2023 -7.25736
-27.0524 20.8939 -7.7481
41.7534 -9.13127 -9.69878
-30.3668 22.0478 -8.41341
-35.2894 -23.126 -9.45416
40.9442 -12.6571 -9.62181
5.46209 -9.48719 -2.44406
-12.3904 2.82722 -2.78857
40.8199 -11.9623 -9.39774
42.8147 -12.2163 -9.79499
27.6581 38.9547 -10.4654
-5.36119 14.0642 -3.29014
13.4277 -10.8051 -3.79351
38.2519 -12.2929 -8.83239
-23.3026 20.3094 -6.70468
-29.0657 -71.661 -16.7816
4.3158 -9.7137 -2.3049
4.54509 -9.1923 -2.21487
-14.5331 18.1064 -4.95782
-30.7934 22.3678 -8.12677
-31.6644 22.4711 -8.29987
-27.6714 -73.4181 -16.8194
-10.6552 16.6491 -4.1908
-8.37597 -35.559 -7.76934
3.19517 -9.69985 -2.17763
3.97294 -9.84589 -2.26365
46.0549 -10.6779 -10.0914
14.9963 7.5115 -3.55624
-15.1043 18.5931 -5.07136
5.17042 -9.06608 -2.19265
26.8814 38.8946 -9.88193
-27.5507 -26.9613 -8.00451
15.038 7.87018 -3.52431
-30.0356 -23.1966 -7.87299
-32.3296 -82.8963 -18.4228
40.7142 -10.9568 -8.71926
-11.4089 16.8094 -4.12784
-15.5658 18.4037 -4.90667
-34.9873 23.4861 -8.56271
44.6723 -9.74403 -9.32359
-13.1228 -42.2267 -8.98808
4.14185 -9.7483 -2.15485
11.63 -9.66773 -3.07691
-11.9534 17.1535 -4.17312
-19.6612 -56.4295 -11.9438
-12.8633 -39.9607 -8.31213
4.07578 -9.93579 -2.1262
-33.9744 -23.2314 -8.11391
-26.6088 20.8837 -6.65722
-33.0125 -23.6144 -7.91242
-6.8596 15.1567 -3.22856
-26.2259 -61.6235 -13.0097
-33.4253 -22.2523 -7.73839
3.44052 -9.375 -1.92828
46.1314 -10.6883 -9.09251
-12.6956 17.3333 -4.10689
3.99464 -9.35774 -1.94163
-36.2895 -22.0433 -8.0379
-21.1519 -34.3608 -7.67418
-15.4294 -44.5208 -8.91638
38.0885 -12.5645 -7.58151
-35.7332 23.9995 -8.05569
-33.5538 -23.173 -7.66082
-32.5108 -23.7862 -7.56213
-21.0775 -52.2184 -10.5966
-16.7211 -45.4202 -8.97877
3.82414 -9.21616 -1.84298
42.8053 -11.5368 -8.23203
5.76671 -9.72808 -2.0725
-24.2388 -54.9625 -10.9987
-20.2378 -50.2328 -9.79599
-14.4944 18.0675 -4.10686
-30.9692 -24.9774 -7.07251
-20.2176 -26.9408 -6.02374
-39.1097 24.6787 -8.15946
-26.6165 20.899 -5.89004
-33.877 23.1818 -7.12734
3.91572 -10.0657 -1.87272
4.77725 -8.62233 -1.71302
14.0487 7.54462 -2.75073
14.125 8.10559 -2.7896
-30.6461 22.2854 -6.496
42.4825 -12.0192 -7.516
42.2721 -10.9481 -7.4331
-31.1267 -24.7205 -6.74327
-20.9562 19.958 -4.8595
-20.169 -50.1327 -9.13131
14.9088 7.47233 -2.79723
-31.5102 22.3074 -6.449
-23.2828 -55.5111 -9.94756
43.8249 -11.8061 -7.37677
-10.298 16.3484 -3.11757
-20.4466 -50.7254 -8.72341
-34.7349 -23.9777 -6.65126
-22.6554 19.9047 -4.72223
-24.0428 20.5244 -4.89939
-39.813 24.1055 -7.2123
-11.1625 16.7066 -3.10151
3.47754 -9.54384 -1.57088
3.87673 -10.2516 -1.69693
-7.57076 15.3551 -2.61447
-30.8709 22.4687 -5.83671
-31.6245 -24.4258 -6.07661
-27.8266 -26.0287 -5.77262
42.4653 -11.0397 -6.66893
45.1436 -9.83523 -7.03855
-6.4989 14.4748 -2.37359
9.84451 -5.16024 -1.64971
-33.343 -24.0488 -6.12253
-26.0684 -65.9152 -10.5136
10.2149 -9.1843 -2.04705
45.2893 -10.4772 -6.90301
-36.4769 -24.2822 -6.44948
-31.3704 -25.8756 -5.94892
-12.5493 -41.5818 -6.39139
16.9765 -12.2824 -3.06913
-25.2426 20.783 -4.7518
-24.4211 -54.7189 -8.63529
-7.56937 15.1604 -2.42258
-12.6417 17.2363 -3.04738
6.05042 -11.5592 -1.86421
-13.3358 17.8245 -3.12682
-34.4667 23.2831 -5.84788
6.7753 -11.0671 -1.81357
37.807 -12.4771 -5.59917
-31.0162 -24.8533 -5.5473
-32.7788 23.5565 -5.592
-20.3724 -49.1015 -7.34298
45.4426 -10.1661 -6.42066
-6.82118 15.0849 -2.26198
-22.3326 -58.2858 -8.47993
7.76491 -9.39693 -1.63586
-13.9262 17.7815 -3.04456
13.2539 -10.571 -2.29379
-22.0966 20.0995 -4.01669
42.3897 -10.96 -5.81234
45.1627 -9.89252 -6.11909
-22.4788 19.7816 -3.91557
-32.5426 -24.3511 -5.30921
-14.812 18.1378 -3.02775
-33.8003 22.56 -5.27605
-38.1722 -16.1178 -5.35033
7.03129 -10.457 -1.61671
10.811 8.85134 -1.7945
-33.6558 -23.1934 -5.23098
-31.2287 22.7977 -4.89116
-35.4219 -22.1036 -5.23368
42.2477 -10.926 -5.46062
6.81008 -10.3891 -1.55215
-7.60277 15.2068 -2.10479
-24.8658 20.8794 -3.97598
-33.1643 23.3733 -5.00506
6.31244 -12.1064 -1.66317
45.1135 -9.62492 -5.6497
15.0546 7.88727 -2.04369
-17.7952 -43.0997 -5.62305
7.10167 -10.5546 -1.53164
-20.4627 9.06886 -2.64936
-14.1741 -42.8769 -5.31038
-31.7095 -24.4475 -4.68211
-31.1968 -24.9495 -4.67483
42.3351 -11.3403 -5.15076
11.2573 -9.6946 -1.72112
-29.6841 22.5079 -4.28613
6.65706 -10.8468 -1.4569
7.50138 -9.23556 -1.36096
11.6114 -9.74753 -1.72185
9.4611 -4.61557 -1.19212
15.0323 7.72472 -1.90504
-10.2844 16.3725 -2.1819
-31.9617 23.3547 -4.43489
39.1278 -12.8805 -4.61918
9.37466 -9.04034 -1.44079
-10.9983 16.4951 -2.1551
6.8146 -12.8296 -1.57348
45.257 -9.83598 -5.02044
10.81 8.88331 -1.50834
16.8327 -12.5038 -2.25034
42.5339 -11.0315 -4.70806
9.63773 -8.99615 -1.39674
8.39257 -8.47783 -1.24968
-30.765 -24.6192 -4.10323
-29.7674 -59.7078 -6.96039
15.0287 7.53711 -1.71802
-31.6519 -24.4057 -4.10114
-12.7781 17.4192 -2.19356
-12.6997 17.0145 -2.11036
10.2284 -9.10658 -1.34156
-20.5945 -52.3027 -5.51125
6.33592 -12.1336 -1.32474
16.7006 -12.2184 -1.98894
42.423 -11.3997 -4.21039
-30.2791 -61.2058 -6.49178
-20.5481 -53.9248 -5.48082
-23.1703 20.2668 -2.87799
45.9721 -10.227 -4.39854
9.73548 -9.0046 -1.22758
39.9714 -13.1856 -3.9218
-14.9282 18.2996 -2.1388
-29.5954 -13.4934 -2.96517
-31.8627 -62.1139 -6.43506
15.9103 -11.9087 -1.80774
8.65101 -8.74216 -1.1137
12.9263 -10.67 -1.45948
45.5559 -10.5591 -4.00564
9.41984 -9.04524 -1.09776
10.9763 -9.666 -1.22931
-33.9085 23.2867 -3.42349
16.9017 -12.3253 -1.73248
-16.7535 -43.5959 -3.74109
14.7283 -11.5165 -1.49079
-11.6434 -32.5964 -2.73226
-29.6147 22.5178 -2.87749
-32.8533 23.222 -3.1063
-22.4461 -51.2732 -4.32131
-50.6616 27.5724 -4.36839
-21.2563 20.0056 -2.12367
-33.0797 23.3984 -2.93698
16.4365 -12.2813 -1.50085
42.4527 -11.3605 -3.2014
-38.6268 -73.0857 -5.96595
14.0163 -11.0897 -1.27902
-15.4023 -40.8584 -3.01393
10.7902 -9.63644 -0.991139
-23.1931 20.3078 -2.08237
12.9049 -10.6485 -1.11993
18.0209 -13.0705 -1.48401
16.097 -12.1755 -1.33283
-14.5208 -40.2603 -2.76869
44.2408 -11.5061 -2.85704
-31.3688 -63.5583 -4.32534
36.0592 -8.74802 -2.27698
43.3916 -9.93166 -2.7325
6.07238 -13.1262 -0.864373
31.1193 -20.5916 -2.23259
-9.76845 16.3071 -1.11761
-15.4128 -40.2056 -2.45191
16.6692 -12.4577 -1.16832
-9.66814 -12.5332 -0.867537
15.0211 7.70638 -0.913007
13.9423 -11.0368 -0.952137
-12.702 17.2133 -1.11762
-16.3106 -40.4271 -2.31527
14.9154 7.84297 -0.826125
-16.1315 -41.2342 -2.17258
-14.0585 17.8192 -1.0857
9.58401 -9.04029 -0.604267
-23.6579 -54.2685 -2.67885
12.4836 -10.2626 -0.74916
-15.8204 -44.1009 -2.08017
-17.0343 -41.969 -1.93917
6.87902 -12.7023 -0.640839
-13.7567 -41.935 -1.87997
-52.0436 28.3033 -2.4007
18.4095 -13.2259 -0.919833
16.8625 -12.5339 -0.818166
-40.6345 -78.8678 -3.34697
-18.0035 -47.2114 -1.86089
-33.3832 22.9375 -1.48195
42.935 -11.0628 -1.59624
-33.8855 -67.4041 -2.52395
-25.5022 -55.8881 -2.06829
20.3196 23.5008 -1.03189
-21.2992 19.9594 -0.95145
8.15025 -14.3847 -0.555228
9.43964 -9.01162 -0.423026
11.3263 -9.97118 -0.490476
18.6658 -13.1981 -0.751198
35.0543 -13.2213 -1.24307
22.1567 26.8207 -1.11587
-27.2933 -13.6901 -0.957289
-22.7482 20.2574 -0.928714
-31.4636 22.2842 -1.20378
-24.6082 -56.575 -1.91072
-13.6714 -38.6762 -1.26352
-21.1991 -54.0764 -1.75857
-16.421 -44.5045 -1.35901
-33.8671 -20.5344 -1.05508
11.4757 -9.73528 -0.40311
16.395 -12.1944 -0.538556
-40.6926 25.1739 -1.26252
-30.0602 22.873 -0.934988
-30.5803 22.4117 -0.896809
9.58636 -9.02447 -0.30498
-41.0681 14.1942 -0.960912
-31.0539 -52.0004 -1.36409
21.3635 -14.288 -0.564806
30.696 -18.6132 -0.809996
14.2665 3.94269 -0.301991
27.8846 48.7279 -1.03261
23.6434 -11.0073 -0.459181
47.5478 -10.9488 -0.907269
-30.4995 -21.918 -0.68501
-29.4191 -28.8954 -0.653955
-18.7617 -46.0366 -0.827757
12.7543 -10.4883 -0.271642
18.5959 -13.4373 -0.350519
-29.172 -12.9662 -0.419298
-32.666 -24.4464 -0.567812
-32.7969 -66.116 -0.996244
-27.3106 -58.1257 -0.879883
-33.7645 -23.0593 -0.533968
-30.0776 22.8828 -0.445423
17.0603 -12.7403 -0.252734
29.4992 -18.291 -0.408234
-30.5407 22.4213 -0.422328
-18.886 -43.314 -0.505475
-11.9097 -35.8474 -0.38033
-32.9302 -58.0224 -0.61455
-14.2269 18.0466 -0.176669
-26.6262 -13.4241 -0.240921
-14.9129 18.1788 -0.161099
-22.4134 20.0173 -0.155055
-20.8637 19.5695 -0.130519
-10.539 -13.5488 -0.0603241
14.7827 7.76573 -0.0202379
11.1339 -9.7904 -0.00776325
-34.3416 -18.8096 0.0595908
-11.2463 -33.4241 0.11494
17.0187 -12.3647 0.0914068
-18.6141 -42.7344 0.207347
18.8564 -13.2858 0.122643
7.19895 -12.3749 0.104501
26.1303 -10.7207 0.173916
-54.8672 19.5915 0.554904
16.3062 -12.0846 0.193884
37.7016 -7.69732 0.363388
-28.99 -8.17451 0.352121
-36.1052 -21.7924 0.464994
-11.2428 -32.212 0.366104
-12.6045 -34.9277 0.44226
-10.207 -31.3742 0.396029
6.3542 -12.9882 0.184595
7.23169 -11.141 0.174665
-27.9907 21.9719 0.544414
11.34 -9.90371 0.226406
-23.9644 20.4939 0.520059
10.9254 -9.75508 0.229928
13.0085 -10.7091 0.265538
36.6385 -7.84123 0.62366
-34.3889 -23.04 0.752849
-31.0171 22.1774 0.748234
6.1657 -12.8823 0.277135
7.0393 -11.0779 0.252885
8.04087 -9.43546 0.242111
28.0767 57.7324 1.39599
7.74292 -9.46079 0.276418
10.1502 -9.19346 0.330431
-28.727 -9.21154 0.726487
-23.1665 20.2209 0.831583
-27.3986 21.6038 0.936009
-28.8557 -8.66435 0.793733
9.20666 -8.91189 0.346168
9.64281 -8.9623 0.358883
-25.4206 21.4248 0.902872
25.476 -5.15385 0.723852
13.0182 -10.6796 0.501668
14.9421 24.3419 0.881096
6.21213 -12.8154 0.448153
7.47756 -11.6564 0.434605
-28.3863 -8.00579 0.967508
-12.5751 -19.2539 0.757683
-28.0715 -8.77368 1.01668
16.1761 11.0718 0.70845
-29.7223 -18.4178 1.2221
15.9183 27.6515 1.13857
-30.3424 -16.5509 1.28068
23.6189 -4.265 0.86729
-27.7367 -19.7268 1.26115
-7.29252 -7.95132 0.407104
9.06742 -8.84211 0.470806
12.4854 13.6578 0.713454
26.5136 54.6956 2.30188
25.3558 53.9852 2.24581
-11.5458 -9.13893 0.580547
8.73767 -8.68328 0.487325
-25.5112 21.0152 1.34136
21.9057 -2.96884 0.895727
-28.7069 -17.4366 1.37587
9.43133 -8.94277 0.532921
12.5137 14.4122 0.821148
6.59763 -12.4946 0.599996
14.9462 19.4203 1.07733
20.9596 28.9509 1.56534
-9.48054 -13.7848 0.735356
-9.96136 -15.5791 0.82086
7.61497 -10.9753 0.588552
8.63818 -8.72779 0.554946
24.2716 -3.71821 1.10883
-29.7805 -8.67844 1.41568
6.75774 -11.1096 0.598294
-8.26989 -8.13852 0.546
21.6299 43.641 2.33028
-28.4701 -17.5955 1.58196
-9.75383 -13.6816 0.799723
9.67799 -8.97951 0.621837
15.7284 43.7086 2.24859
-30.1661 -13.3614 1.57459
-6.76051 -8.24201 0.524495
14.7171 34.2252 1.901
-29.6616 -11.6155 1.59845
-7.59069 -6.97986 0.521185
-6.69845 -7.59338 0.51218
16.2682 29.4698 1.74788
10.5793 12.3706 0.879666
14.2965 19.4552 1.29631
9.36089 -8.9407 0.693584
14.8867 19.3696 1.3489
15.3751 23.7468 1.55774
-27.3734 19.2737 1.83454
-6.97106 -8.19245 0.596486
-26.3023 20.1818 1.84276
6.11422 -12.9098 0.799177
-7.10334 -9.15428 0.660743
9.98535 12.4724 0.939641
15.0063 25.2839 1.71773
6.48339 -13.0215 0.837103
13.9169 22.7051 1.57303
-8.25683 -8.1161 0.697535
11.5634 11.6433 0.978579
14.7366 19.5999 1.47334
-7.39398 -10.0093 0.773905
7.02364 -11.1928 0.805278
11.2822 -9.73159 0.903294
5.87773 -10.7749 0.761608
-7.19438 -6.64981 0.61213
14.5434 20.6309 1.59716
16.1749 7.17985 1.1491
-7.03673 -6.14802 0.613078
6.48509 -13.492 0.997577
9.45103 21.3484 1.57503
10.4421 12.586 1.11803
13.5996 18.2869 1.58957
12.4518 20.6451 1.66833
11.3706 12.0114 1.16097
6.60632 -9.85234 0.840029
11.5184 11.7846 1.19259
9.81294 -6.92699 0.854705
12.3838 11.9886 1.26594
9.9353 -8.39026 0.952686
-6.14947 6.66482 0.676772
10.4457 9.19773 1.04555
11.9601 17.8824 1.61875
11.5131 18.3428 1.63188
-6.94519 -7.6983 0.80394
10.8918 18.7991 1.66708
9.52334 -8.96626 1.01087
-6.4167 -4.29962 0.609097
9.21909 18.4704 1.64973
10.0874 -6.90278 0.978744
12.4764 11.5758 1.37588
9.78027 18.9895 1.72006
-7.26311 -9.63386 0.982721
6.72301 -9.38755 0.939584
12.2636 11.7318 1.39068
12.1681 11.967 1.4173
11.4424 11.9599 1.37037
-5.049 -11.5237 1.05838
10.3333 12.9283 1.40832
-6.9611 -6.08287 0.796184
-6.81745 -6.69629 0.807131
-5.21014 -11.427 1.06806
-7.30055 -7.7468 0.916643
9.2896 -7.25994 1.01867
-7.1208 -8.05793 0.941036
-7.01723 -7.69071 0.915565
9.40726 12.5569 1.39111
-6.95227 -8.37229 0.972219
10.8259 9.08367 1.28802
10.4845 13.5036 1.5447
10.5347 9.2522 1.28355
7.73943 14.049 1.47545
-6.49886 -8.13665 0.954102
-6.90292 -9.01835 1.04822
11.2135 10.8151 1.43755
11.2607 9.18763 1.36007
10.8829 10.8175 1.43849
6.50997 15.044 1.5405
-11.4216 2.92604 1.10548
-6.36199 -4.17134 0.712627
-6.80635 -6.29446 0.859655
9.45215 13.3304 1.57653
-6.02136 6.5428 0.875331
7.96375 -6.61199 1.00882
7.95047 13.2567 1.53563
-7.06881 -7.61771 1.04691
9.32286 11.6572 1.50569
7.02417 12.4719 1.45283
7.08227 13.0477 1.51363
9.54328 9.10216 1.36494
5.88394 14.0269 1.57679
9.15852 12.4564 1.61206
-6.10759 -4.45701 0.792433
5.98202 13.7458 1.57928
6.24275 13.6746 1.58056
-6.96998 -4.42744 0.883115
8.77681 9.02773 1.34243
9.14845 10.1917 1.48959
7.34318 11.0261 1.43986
5.84179 11.5065 1.40316
-6.29937 -7.41056 1.06306
10.2724 6.45598 1.3425
8.99891 8.14482 1.33806
7.32839 11.7142 1.52592
6.86266 11.664 1.49638
5.37475 11.9354 1.45656
4.88721 12.1484 1.46524
4.72646 13.7458 1.5994
9.87245 7.05889 1.35526
8.76813 9.3205 1.43005
5.39883 11.552 1.43614
-6.84108 -6.72307 1.06754
6.88098 10.7403 1.43705
4.33949 13.2383 1.57482
9.75778 -3.19753 1.14496
-6.10421 -5.41406 0.944582
7.29145 -6.12183 1.08076
10.4189 5.71665 1.36313
-7.37771 -0.985312 0.852794
-6.25707 -5.35585 0.947976
5.24536 -5.55381 0.880146
5.08487 11.6634 1.47828
-6.88224 -4.55866 0.956531
4.45231 -7.2599 0.984906
10.4108 5.1502 1.36311
8.89047 7.89078 1.39557
-6.00209 -4.36823 0.86507
-6.48537 -5.27308 0.987381
4.09165 -7.86528 1.05437
4.96421 -5.84739 0.920272
10.1693 4.75508 1.34586
8.52552 8.2786 1.43951
5.29195 11.5291 1.54876
9.04857 6.26847 1.34787
8.01837 8.3449 1.44986
-6.48938 -5.74637 1.07899
3.70547 -7.57086 1.05571
8.68002 6.69269 1.37841
-6.46755 -5.34418 1.06178
9.09379 6.01511 1.39214
8.18817 7.14476 1.38661
8.11951 7.51253 1.41254
5.77523 -5.34385 1.01021
-6.97139 -4.44276 1.06107
8.10817 8.00556 1.47806
-7.35418 -1.04193 0.959585
-6.92213 -2.82599 0.976354
8.97756 4.10197 1.29272
8.40677 6.63233 1.40583
4.99652 -6.02579 1.02897
4.91469 -6.19031 1.04667
6.86989 -4.2825 1.07762
-7.13134 -1.71777 0.98328
-7.00815 -2.21953 0.982741
-6.0258 -4.42263 0.999219
8.13992 6.66246 1.42616
8.61237 4.4409 1.32124
8.63442 5.16889 1.37465
8.03388 7.14307 1.46339
-6.80774 -3.73312 1.05417
8.86379 4.16067 1.34042
8.26898 5.83629 1.38613
-6.39791 -4.32901 1.05699
-5.95793 -4.52542 1.02173
5.36901 9.04768 1.45336
3.65272 10.1055 1.49254
-7.36444 -1.09248 1.03093
-6.9033 -3.92654 1.1021
4.94692 -5.54136 1.02663
5.2266 -5.39658 1.04272
7.46492 -3.53766 1.15529
3.39703 10.1882 1.50515
8.40524 4.60024 1.35555
7.37639 -3.67883 1.16938
7.58862 -3.33561 1.18185
7.76368 -3.30647 1.19742
8.94065 2.81519 1.34926
4.83171 -5.63301 1.06677
7.3551 -2.8536 1.14863
-6.95721 -3.29954 1.12229
7.92023 -2.78035 1.22391
8.66754 -1.82067 1.30012
5.01879 8.59296 1.46913
2.96254 9.46988 1.47649
7.73439 -1.88847 1.17343
7.23498 5.76192 1.3782
3.46623 9.58946 1.50758
3.19723 9.82951 1.53224
-7.36669 -1.04287 1.10309
-7.0722 -2.02241 1.09616
6.9538 6.29494 1.4163
-6.26208 -2.27129 0.999605
-7.23699 -1.37469 1.11192
7.94428 4.82075 1.41582
5.71837 7.36854 1.41537
5.30219 7.64515 1.41619
5.06691 8.02982 1.43571
6.76034 -3.22608 1.13287
7.24766 -3.1253 1.20876
7.63796 -2.75617 1.23744
-7.31284 -0.73257 1.12228
-7.09478 -1.95378 1.13574
6.78998 -3.09326 1.15394
3.74865 -5.78479 1.06595
-7.05068 -2.07528 1.15221
-7.34249 -1.09236 1.16555
7.36623 4.77794 1.38686
-7.19537 -1.44286 1.16752
-7.26814 -1.30048 1.18463
-7.09497 -2.0183 1.1995
7.0747 4.76654 1.39266
-7.09859 -1.94473 1.209
7.01444 4.86847 1.4184
6.62011 4.85577 1.37023
5.21365 6.25203 1.35632
4.68156 7.18513 1.43246
3.83098 7.9516 1.46739
-7.24593 -1.37288 1.23106
2.79046 -5.77293 1.08094
7.14656 4.43149 1.41674
6.51886 5.24262 1.41143
3.87258 -5.36381 1.11545
3.93553 -5.01957 1.07981
-7.26892 -1.25184 1.25118
-6.59664 -2.62456 1.2045
7.41966 2.84903 1.34814
7.03393 3.8934 1.37018
-6.4129 -2.75239 1.18728
6.77849 4.10104 1.3602
5.68316 -3.52008 1.15067
-7.39241 -1.03909 1.29091
-6.35538 -2.27988 1.16076
5.5358 -3.64826 1.14284
5.3192 -3.77421 1.14327
3.60366 7.17598 1.4128
-6.79705 -1.73454 1.23191
4.47952 -4.46696 1.11336
-7.08886 -0.914211 1.27321
4.72504 -4.45762 1.1496
4.33542 6.50322 1.3949
6.58918 3.47555 1.34546
6.62897 3.6844 1.36257
-6.43929 -1.50006 1.18912
3.60761 -5.32454 1.17003
5.08328 5.61912 1.38759
-6.15391 -2.18282 1.19665
3.41165 -5.15637 1.14989
3.39383 6.78373 1.4194
-1.69831 -5.78357 1.14489
6.44704 2.73292 1.33269
-2.14378 -5.72881 1.17581
6.31126 2.797 1.32914
-2.78805 -5.37744 1.18689
-3.51869 5.34301 1.38582
4.47385 3.89625 1.35418
4.15064 -2.87842 1.17699
4.62892 -2.18642 1.23707
4.20191 3.29369 1.3227
3.70664 -2.92965 1.22371
4.01998 2.57571 1.33402
-1.44461 -4.1213 1.2226
-2.32277 -3.5821 1.21311
3.86145 2.36532 1.31213
-2.85916 3.52336 1.36011
-2.48249 -2.91853 1.18999
-2.37993 -2.93971 1.19494
1.8402 -2.80772 1.18052
1.86325 -2.78609 1.21055
1.98935 -2.52317 1.19702
-2.04232 2.80499 1.31922
2.80276 -0.555465 1.25891
2.78221 -0.336705 1.24069
-2.09096 -1.62032 1.21347
-2.07864 -1.45225 1.23851
-1.8639 -1.79731 1.28404
-1.99613 -1.13214 1.20491
-1.9876 -1.07103 1.23173
-1.94734 -0.880878 1.23191
-1.93164 -0.708799 1.22216
-1.93049 -0.701885 1.24937
-1.90676 -0.469933 1.22213
-1.87212 -0.345891 1.21932
-1.857 -0.401387 1.22606
2.37706 -19.6756 -10.0007
-7.59407 -8.96577 0.464542
8.02952 -8.81199 -10.482
8.27508 -8.64098 -10.5173
8.22654 -8.30128 -9.89893
6.96802 -11.9738 -11.4255
8.52954 -8.9874 -9.75621
7.86137 -8.94961 -9.14792
5.85814 -12.8148 -10.7429
9.44333 -8.84912 -9.76117
6.15625 -14.113 -11.5909
8.29992 -8.69212 -9.03589
8.03014 -9.18291 -9.12213
7.30255 -9.25895 -8.78553
5.91892 -14.1721 -11.2055
7.73017 -9.32006 -8.73725
7.86738 -9.13028 -8.68169
7.13873 -10.595 -9.09573
6.83008 -11.0887 -9.23234
10.0726 -9.21047 -9.5858
6.54906 -11.1912 -8.87675
8.04489 -8.64042 -7.86147
7.37149 -9.29444 -7.88324
8.52917 -8.69458 -8.09571
7.73273 -9.48793 -8.04108
6.49767 -12.7943 -9.37001
7.94561 -9.19492 -7.92584
5.00697 -16.0512 -10.8143
-0.475065 13.9269 -8.91055
7.73933 -9.25826 -7.73787
7.34741 -10.8814 -8.35969
8.39091 -8.57941 -7.64542
10.8976 -9.64024 -9.22852
9.00377 -8.83281 -7.91033
11.7923 -10.0557 -9.71232
8.0855 -8.54929 -7.23936
4.04361 -16.8494 -10.6199
4.25368 -15.3921 -9.80505
7.8572 -9.3739 -7.32998
3.95519 -15.6368 -9.61801
11.505 -9.84939 -9.07064
6.87519 -11.0944 -7.74992
7.78213 -8.83074 -6.97263
5.49572 -14.0173 -8.8955
6.49877 -12.7259 -8.36231
8.37476 -8.60746 -6.99857
9.70579 -9.09791 -7.7569
2.79433 -11.8096 -6.95613
5.49054 -13.9269 -8.47594
9.61307 -9.12267 -7.49163
6.62789 -11.0868 -7.27291
3.34734 -20.6886 -11.7456
8.89383 -8.95416 -7.07475
12.2185 -10.251 -8.93493
6.83404 -11.0224 -7.22497
4.69082 -14.6344 -8.49297
6.23267 -12.6433 -7.75424
0.894913 18.594 -10.1337
14.66 7.74663 -9.00895
4.21078 -14.265 -8.03283
14.7643 -11.6832 -10.1489
15.0153 7.46161 -8.93114
14.0494 7.74099 -8.52311
4.77215 -14.8675 -8.29661
12.1075 -10.1705 -8.3211
1.81366 -20.477 -10.5761
11.4381 -9.87108 -7.74032
2.0814 -20.2071 -10.3083
13.9979 -11.1108 -9.03936
0.00285584 14.2749 -7.16512
-7.26593 15.1018 -8.39885
10.6139 -9.61829 -7.19721
7.52651 -9.44034 -6.01524
-8.468 16.0521 -8.77149
11.6661 -9.79764 -7.3737
10.5138 -9.6025 -6.83732
14.8217 -11.3632 -9.00814
16.7659 15.8825 -10.9716
7.49795 -11.082 -6.37487
15.0526 7.4376 -7.87777
13.9585 -11.053 -8.32145
-11.8847 17.0182 -9.51075
15.8795 -12.0321 -9.10175
9.78833 -2.45424 -4.63552
-9.10082 -1.65453 -4.20643
18.8091 18.1506 -11.7939
3.91783 -9.10961 -4.50079
-10.1567 16.5912 -8.73634
-5.33569 4.43697 -3.12062
6.87096 -11.3117 -5.95817
9.44319 -9.10135 -5.78444
16.062 7.32728 -7.78848
-6.59819 14.9844 -7.15144
1.50197 -18.7551 -8.13774
-11.1097 16.9032 -8.70948
9.59369 -3.37456 -4.35598
7.03025 -11.0656 -5.54201
15.8624 -11.9908 -8.32359
14.6888 7.76487 -6.96896
18.8462 19.6081 -11.366
1.01963 -22.5859 -9.41266
-4.51324 13.8029 -5.98378
-9.92157 -1.10972 -4.13756
14.1256 7.7999 -6.58833
20.5691 22.3748 -12.388
-13.0418 2.44408 -5.40537
15.1551 7.20068 -6.7858
-5.19456 14.2337 -6.0943
3.64193 -8.81712 -3.79712
12.4196 -10.2927 -6.31896
13.9745 -11.0341 -6.95844
19.4083 21.7221 -11.2993
18.8629 5.81668 -7.65406
1.5414 19.2958 -7.50534
-8.67692 15.6342 -6.89382
11.4224 -10.0711 -5.85744
19.3497 22.4339 -11.4115
0.681909 15.3956 -5.90162
-1.65809 12.718 -4.93439
2.71534 -12.2509 -4.81445
-8.76117 -1.25132 -3.36396
0.702311 -23.6031 -8.91053
15.2216 -11.665 -7.23246
9.50229 -3.46729 -3.81567
-14.4788 17.8495 -8.56672
-7.88617 -3.50321 -3.16501
1.09589 -10.4566 -3.86689
7.04127 -11.2573 -4.85574
14.2352 7.94848 -5.88608
-8.28715 -2.84529 -3.15077
0.789001 15.3084 -5.46576
-3.93069 13.2914 -4.90407
5.74664 -11.0045 -4.36894
15.8756 -11.9978 -7.04803
19.1384 5.91094 -7.04682
2.12089 20.7208 -7.30434
21.7838 26.335 -11.8769
-14.7708 18.2334 -8.05543
2.97557 -13.3567 -4.70994
-8.82689 15.9452 -6.22916
18.5341 -13.1273 -7.78444
-5.00708 14.3848 -5.17996
1.3587 -22.2089 -7.3735
1.76331 19.6769 -6.52616
1.4485 -10.3201 -3.4442
39.3629 -20.1215 -14.508
6.17657 -10.0596 -3.77862
17.6148 -12.4377 -6.90655
2.12366 20.7455 -6.63674
-13.2528 17.6931 -6.97092
1.44885 -22.6782 -7.08065
-4.27417 14.6292 -4.73685
-10.8673 16.4663 -5.98032
-2.7348 -27.8377 -8.49841
3.06677 -9.47737 -3.02742
0.79305 -24.2152 -7.28641
19.1814 -13.615 -6.97987
17.6496 5.58366 -5.4318
-7.82634 15.1509 -4.96536
4.23301 -10.504 -3.29142
3.62533 -10.5818 -3.18365
4.24724 -10.9604 -3.29976
-13.2029 17.6477 -6.13188
-9.21041 15.7453 -4.96345
-13.2156 1.98106 -3.66423
-16.7807 19.28 -6.94142
26.4117 -17.3873 -8.56828
-3.88621 -27.712 -7.50573
3.78585 -9.15252 -2.65014
-9.71986 16.1579 -5.02007
47.5531 -13.8845 -13.1362
10.551 -9.41043 -3.74246
-6.39091 14.7975 -4.21161
-14.2991 17.928 -6.0187
-7.92445 -37.4956 -9.98319
4.96279 -9.58042 -2.79286
6.56642 -10.5089 -3.19702
-7.14491 15.1644 -4.26208
-10.4676 16.3039 -4.9515
-9.78228 -38.7664 -9.94355
-8.92939 -38.5491 -9.66332
10.9613 -9.66281 -3.59319
-7.89797 15.3289 -4.18235
-11.6282 16.9019 -4.96722
14.6528 7.74012 -3.93339
4.04869 -9.25711 -2.39142
15.2576 7.55635 -4.01268
3.74882 -8.91356 -2.27322
-6.47058 -32.2406 -7.61509
5.63081 -9.89225 -2.63832
45.0058 -10.8912 -10.7624
-12.7017 17.3017 -4.94151
14.9102 7.63604 -3.79011
44.0338 -9.52566 -10.2058
-9.70507 16.1663 -4.22132
3.71723 -9.25986 -2.17097
43.1907 -11.08 -9.73195
15.1697 7.52569 -3.62641
-10.5461 16.4627 -4.18859
-21.7623 -34.2125 -8.71136
4.82491 -9.75909 -2.34878
45.3046 -10.6079 -9.95538
-14.6632 18.1674 -4.9128
-32.0497 -23.6555 -8.44355
41.9153 -14.0246 -9.3507
14.8953 7.87098 -3.51365
-35.1719 23.7851 -8.68293
-8.27922 -33.8647 -7.06045
3.95689 -11.5204 -2.44872
44.8264 -9.67159 -9.32723
11.8009 -9.7683 -3.07233
43.2133 -11.1244 -8.89202
-26.7715 20.2025 -6.65776
6.15053 -10.2946 -2.38765
46.2058 -10.8051 -9.26801
-12.6849 17.3079 -4.1477
-26.6424 20.8793 -6.57814
16.1111 12.1867 -3.86131
-6.81758 15.0078 -3.16509
-32.9426 -23.8277 -7.78227
-31.4568 -24.6328 -7.67849
-35.3976 23.5875 -8.01065
-33.4538 -22.0682 -7.57379
18.0738 5.68229 -3.53634
-33.9813 -20.5033 -7.41202
-14.8767 -42.8911 -8.45783
3.77438 -9.83102 -1.98294
-24.1719 -60.179 -12.0619
-16.5985 -44.717 -8.72508
3.97883 -9.64385 -1.88186
13.0961 -10.2333 -2.9974
45.6788 -10.1648 -8.40572
-14.6222 18.1355 -4.1632
-26.7904 21.012 -6.01166
15.134 8.01121 -2.98263
-30.1287 -26.255 -6.96581
43.0738 -11.0332 -7.63407
-7.86459 15.1506 -2.89223
-9.65837 17.7876 -3.41992
44.9442 -10.5799 -7.80772
-30.5029 22.2183 -6.35379
-30.1215 -23.1738 -6.35227
-20.6541 19.7487 -4.75482
-32.0991 22.6692 -6.55632
15.9652 -11.9121 -3.26432
-10.2483 16.2705 -3.05969
-43.0038 25.3048 -7.91673
-31.4845 -23.6523 -6.30449
-33.3138 -22.9788 -6.37434
3.43644 -9.50417 -1.58062
-23.5972 20.1578 -4.79339
16.9644 -11.9928 -3.21821
-11.0819 16.5858 -3.03101
46.3471 -10.862 -7.22517
-22.5961 -52.3649 -8.61821
-29.2705 21.9523 -5.47118
-38.0878 23.7487 -6.66276
-31.5034 -24.4542 -5.95007
44.9421 -9.63082 -6.84372
-33.5851 -24.2891 -6.05643
-49.4996 27.6378 -8.15225
-35.3757 -23.5961 -6.12119
6.74852 -12.9507 -2.12064
-36.0612 -20.959 -5.90327
-6.8767 15.1616 -2.31256
-13.0139 17.5679 -3.04237
-31.9284 22.9871 -5.49957
-24.3227 -54.1679 -8.18828
-15.9484 -46.623 -6.77717
36.9059 -12.2735 -5.33404
-23.015 20.2247 -4.07714
-32.1303 -24.062 -5.24095
-30.498 -25.0196 -5.21573
-33.7533 -23.2461 -5.25006
7.45661 -9.44465 -1.55607
43.1286 -11.04 -5.71245
-33.2691 22.6389 -5.1166
-29.6813 -15.8382 -4.28869
6.04627 -7.83034 -1.26376
45.092 -10.5984 -5.87253
-30.8643 22.6835 -4.78004
14.5452 -11.332 -2.26537
-29.801 22.4454 -4.51356
-32.3707 22.8831 -4.77331
-10.2754 16.3429 -2.23075
-31.3866 -22.5737 -4.54881
-22.7358 -54.7311 -6.89504
13.0236 -10.5334 -1.96087
36.0014 -11.8964 -4.38729
6.35424 -10.3622 -1.39723
11.2174 -9.72065 -1.67243
16.4965 -12.2824 -2.31766
-10.9843 16.4707 -2.19239
6.77667 -12.6265 -1.57043
11.6267 -9.70951 -1.6776
42.9668 -11.018 -4.86984
-38.7481 24.1599 -4.90122
45.1548 -10.5514 -4.99276
14.959 -11.4868 -2.0066
-12.8634 17.3787 -2.22108
14.8186 7.84331 -1.67567
14.043 -11.0782 -1.78681
-13.908 17.7878 -2.19028
6.41799 -12.2993 -1.33557
9.42053 -8.93576 -1.25506
17.0708 -12.4823 -2.06397
-28.7956 -13.76 -3.00673
-14.8788 18.22 -2.19307
-36.5011 -71.1109 -7.44085
-33.8351 -21.1721 -3.53445
16.1874 -12.1297 -1.82031
38.7316 -12.8874 -3.6533
11.1367 -9.8996 -1.23144
43.3796 -11.0873 -3.73424
-16.066 -41.8083 -3.59791
-39.3501 -76.944 -6.73256
17.6763 -12.8807 -1.72737
-29.9955 22.7015 -2.87765
7.45865 -9.18783 -0.916091
-32.6493 23.1115 -2.97184
-16.4572 -40.7124 -3.2822
-36.2997 -68.3071 -5.50163
-35.1742 -70.4485 -5.39458
12.6027 -10.4882 -1.10367
17.1245 -12.4725 -1.43216
-39.1911 24.3977 -3.01883
43.6385 -11.1725 -2.95676
-28.5961 -13.4466 -1.89265
-39.7218 -76.7411 -5.23366
14.5493 -11.3426 -1.11164
31.3307 -20.6392 -2.05019
31.2958 -19.7245 -2.02198
15.3931 7.60232 -0.890865
14.8302 7.86391 -0.863183
-12.7859 17.4481 -1.09786
-24.4382 -53.9281 -3.04233
-13.3827 -36.4255 -1.92383
-41.6228 -78.4453 -4.33719
9.67341 -9.1105 -0.664686
13.4855 -10.7243 -0.846305
16.0255 10.1948 -0.897427
16.3279 11.4444 -0.928492
6.84892 -12.5616 -0.68043
-20.0061 -5.90315 -0.895775
-29.6217 -52.7889 -2.67113
10.2631 -13.8558 -0.704801
18.1148 -13.0634 -0.912746
42.8479 -10.945 -1.75971
-9.3802 -12.4065 -0.600116
44.3921 -10.3952 -1.79265
22.3415 26.8593 -1.1919
-32.5595 22.2575 -1.36727
-36.3722 -20.396 -1.35776
-18.0781 -45.055 -1.56013
16.5331 -12.3346 -0.67303
14.4219 3.90644 -0.440733
-25.6169 -58.865 -1.92536
-22.6995 20.2206 -0.868696
-12.2496 -37.1442 -1.05196
43.2653 -9.19086 -1.23666
-41.8015 26.0008 -1.3313
-54.189 19.4856 -1.38003
43.9616 -10.2083 -0.970536
-30.8608 23.3229 -0.773474
-30.3656 9.65851 -0.666534
31.8414 55.7493 -1.18033
-30.1376 22.2425 -0.717695
13.0029 -10.6543 -0.291273
-34.549 -21.5007 -0.630989
-30.2802 -60.8968 -1.01258
17.5451 -12.6531 -0.314256
-12.5163 -37.8397 -0.514548
-14.1849 18.007 -0.233844
-19.9344 -45.8135 -0.54322
30.4093 -19.0464 -0.323471
-22.6913 20.2457 -0.206564
-9.91447 -12.7249 -0.0488438
7.03382 -11.7332 -0.0236631
14.6557 7.66417 0.000504213
-35.5514 -21.9528 0.222481
-23.756 -40.6024 0.346505
-53.2577 29.175 0.620573
6.70386 -11.8946 0.141458
8.01771 -9.11611 0.121348
-41.0793 -21.8399 0.511241
-11.4211 -32.3436 0.382446
11.1207 -9.69406 0.193461
-23.0784 19.7193 0.399481
-12.3724 -19.1964 0.331947
-31.1348 22.1554 0.680683
-35.2074 -23.6037 0.758471
-34.7086 -25.6408 0.752846
10.6526 -9.57315 0.23375
7.80045 -9.61527 0.266095
7.90604 -9.22779 0.262231
-70.8533 24.5349 1.75257
18.1549 -13.1788 0.546376
-28.7204 -8.62836 0.802539
-27.9325 21.9046 1.02258
11.6041 -9.94192 0.416856
17.3007 -7.49939 0.537034
-24.9632 21.1718 0.974682
-7.9107 -9.2765 0.387979
12.7341 13.845 0.669027
6.15503 -12.682 0.496039
8.91976 -8.77728 0.42768
24.5889 -4.35725 0.835385
18.574 17.7379 0.927513
13.9033 24.0682 1.04538
-56.7954 18.6685 2.1523
24.3958 -4.73909 0.941702
-25.4358 20.7781 1.2417
9.39005 -8.933 0.501132
22.412 -3.08773 0.854885
12.237 14.1732 0.766653
14.806 19.131 0.990803
6.52883 -12.3787 0.574521
18.0326 41.6792 1.89628
7.65838 -11.036 0.566337
-7.55925 -7.44111 0.468643
-8.28667 -11.4648 0.632081
-29.5943 -11.7154 1.51589
16.4032 10.6486 0.9748
-7.73586 -7.19783 0.506044
15.3254 23.8096 1.46333
-6.96311 -8.197 0.591245
14.5738 19.9569 1.35444
-26.0778 20.0806 1.82009
14.4481 23.5299 1.59916
-7.13473 -9.19716 0.665174
6.8298 -13.5346 0.870288
9.91056 12.4662 0.942793
14.7267 19.5663 1.53563
15.0468 26.7796 1.89173
10.3678 29.0763 1.96372
-7.31478 -9.98375 0.791782
9.5126 21.6786 1.58937
11.425 10.0499 1.08477
11.4585 12.1171 1.17748
13.7078 15.8396 1.49934
8.19687 -12.6354 1.06332
10.7621 8.98369 1.03166
12.8937 14.4616 1.45001
-14.3789 8.47948 1.26234
-11.1384 2.09831 0.857438
12.4347 16.1865 1.58438
11.5823 18.4588 1.69265
10.0943 -6.90808 0.955184
-7.68299 -8.12747 0.894734
12.7466 11.5384 1.40268
11.8484 11.5912 1.37618
-7.01744 -6.17427 0.759535
-7.06948 -6.91279 0.820157
11.4597 11.9622 1.42874
9.0769 -7.13304 1.00518
10.629 9.36317 1.28793
-11.4097 2.92161 1.08237
-7.6325 -7.10896 0.937082
11.6295 8.97347 1.40678
9.20468 13.0165 1.53115
7.17911 13.21 1.47389
8.40618 13.0701 1.55872
-6.75441 -6.73068 0.947832
7.86123 -6.53449 1.00065
9.6684 12.11 1.55336
9.92148 10.1349 1.46508
-6.89176 -5.40997 0.911764
9.60044 9.14191 1.41352
8.18063 11.1222 1.44753
6.7477 13.084 1.5688
9.57494 8.35524 1.34537
9.16725 10.2104 1.49508
5.67741 12.5062 1.48711
-6.39772 -7.53464 1.06817
6.67394 11.359 1.44981
5.23253 13.111 1.55777
-6.83442 -3.98601 0.873697
-6.70617 -6.08633 0.997795
3.91824 -7.76536 0.962957
5.43683 -6.09116 0.917425
9.34058 7.51946 1.34794
9.04751 9.62855 1.49018
7.90431 11.2583 1.53799
6.76104 10.6702 1.44076
-6.88785 -4.57504 0.937799
4.70499 -7.67666 1.04041
-10.6422 7.13421 1.48707
-7.09643 -2.13508 0.8624
8.9951 6.07654 1.29169
5.8757 11.9923 1.57855
4.96453 11.4811 1.47561
4.76899 -5.85768 0.889149
4.1105 -7.88125 1.0809
8.32289 3.85502 1.14988
10.9395 5.45649 1.50271
4.54651 12.6501 1.6736
-6.16649 -5.39512 1.00496
-9.1483 1.30403 1.15179
8.23832 7.53485 1.41322
-6.44548 -5.32691 1.05766
7.77258 8.16368 1.44941
-6.89487 -3.5771 1.00578
4.96402 -5.96159 1.00164
5.019 -5.42248 0.963498
8.38226 6.89654 1.4381
7.92307 7.83457 1.48273
-7.21059 -1.72567 0.999006
-7.03851 -2.21177 0.988667
-6.49417 -4.37865 1.04053
4.82611 -6.08346 1.03344
8.36676 6.34112 1.42814
-6.85817 -4.22313 1.08529
-6.05666 -4.45031 1.01085
4.9456 -5.53297 1.01913
7.40671 -3.51798 1.14138
8.34502 4.23679 1.3295
8.30826 4.56548 1.34536
-6.94761 -2.91035 1.07708
7.47394 -3.73027 1.19288
7.01304 -3.05347 1.0791
4.93676 -5.78386 1.09777
8.18548 -1.73202 1.21182
-6.96704 -3.26143 1.14099
7.37037 5.55378 1.38629
5.73533 7.4049 1.41493
7.96807 3.90445 1.35601
7.88938 4.18396 1.35792
5.41517 7.77597 1.44092
5.06024 8.64391 1.51363
3.48322 9.52809 1.53084
-7.0161 -2.82989 1.15341
7.67506 -2.79212 1.25115
7.83954 -2.23411 1.25813
7.78938 -2.01517 1.24337
7.44598 4.19396 1.37819
7.05055 4.74093 1.39633
6.7247 4.9013 1.38386
5.36676 6.43126 1.39418
-7.21413 -1.36237 1.21567
4.97383 7.30448 1.47515
4.70678 7.204 1.44483
-7.22869 -0.805227 1.21796
2.86443 -5.92671 1.10983
6.68427 4.0789 1.33809
6.48976 5.21315 1.41386
3.81954 7.90484 1.47377
-6.38658 -2.30338 1.15193
-6.29261 -2.68509 1.16684
3.7707 -5.23799 1.09897
-6.98206 -1.79797 1.25997
4.23366 -4.64039 1.10402
6.65221 3.50295 1.35793
5.04598 5.58145 1.37537
3.63075 -5.35845 1.17885
3.34787 6.71346 1.39893
6.48471 3.04298 1.36104
6.41812 2.71009 1.33029
-1.65103 -5.71379 1.14169
-2.17312 -5.76884 1.20184
6.24464 2.37414 1.33555
3.93749 -4.57865 1.2013
-2.9877 5.57717 1.34903
-3.61123 5.19467 1.37877
4.20796 -2.92709 1.20504
-4.26999 3.92187 1.41259
4.58727 -2.18736 1.2336
4.47922 -1.26943 1.15779
3.70765 -2.93475 1.23199
3.67761 -2.58396 1.19266
3.42392 -2.97693 1.22469
-2.32218 -3.61816 1.20751
-2.50021 -2.92812 1.19764
1.86994 -2.4887 1.1305
1.93159 -2.6467 1.19516
-2.03882 2.79791 1.31174
-2.07258 -1.46437 1.19735
-1.82559 -1.8313 1.30284
-1.97699 -1.17223 1.20981
9.67835 -9.05312 -9.38082
9.23999 -8.92615 -7.65618
2.44605 -20.0531 -10.7285
3.6729 -9.30208 -4.5097
26.7168 33.1925 -14.3097
2.07734 20.5965 -6.13845
-22.2983 -31.0606 -7.13951
9.51681 -8.78028 -1.61867
8.76553 -8.6371 -1.23396
8.91623 -8.79411 -0.928404
19.2008 -13.5951 -1.28647
43.6584 -11.7265 -2.34038
-31.3731 -13.2686 0.343446
10.0662 6.92807 1.29762
-3.48555 5.30323 1.36295
7.97975 -8.23823 -10.2896
7.84081 -8.26452 -10.0291
8.37323 -8.46311 -9.85988
6.83597 -11.8025 -11.2061
7.97193 -8.23201 -9.06535
8.01198 -8.71136 -9.09617
6.21229 -14.1439 -11.6231
5.86346 -14.1667 -11.227
9.08439 -8.83114 -9.2885
7.62764 -9.20611 -8.6655
7.85633 -9.10938 -8.60011
7.21379 -10.6888 -9.17626
10.2288 -9.31204 -9.6971
6.42313 -11.0709 -8.74556
8.17034 -9.07239 -8.1874
7.33587 -9.3243 -7.91926
7.95778 -9.20158 -7.99854
5.02971 -15.9532 -10.791
-0.525408 14.3368 -9.20882
7.30229 -10.7868 -8.35638
7.60761 -9.13506 -7.60667
10.9987 -9.81415 -9.35888
7.05269 -10.9227 -8.1042
8.19238 -8.60036 -7.37941
0.10992 14.3473 -8.74352
7.76189 -8.72971 -7.03831
11.4953 -9.75917 -9.09975
8.98204 -8.91057 -7.47762
6.57691 -12.843 -8.51228
5.51403 -13.9788 -8.83138
7.05085 -11.0948 -7.54614
5.11252 -12.8364 -7.75906
3.1622 -19.3134 -10.9736
6.61327 -11.0981 -7.23955
7.8553 -9.05463 -6.72234
12.1979 -10.2173 -8.89839
-0.488865 14.3196 -7.86322
9.70582 -9.50799 -7.45087
13.2911 -10.6549 -9.18858
15.1124 10.351 -9.84189
15.0803 7.40968 -8.97973
13.8982 7.6629 -8.39475
11.4247 -9.85949 -7.75434
-0.065786 15.2104 -7.69448
2.36408 -19.4699 -9.90795
10.6845 -9.57834 -7.21915
7.34771 -9.28042 -5.93859
14.1383 -11.2139 -9.08672
18.0931 -12.9374 -10.8219
18.6704 5.76493 -9.49488
2.65912 -19.5193 -9.56714
12.8689 -10.6311 -8.07096
15.4338 -11.7508 -9.41045
7.30777 -10.7728 -6.2698
15.0481 7.37677 -7.80012
7.09399 -10.913 -6.06685
6.22724 -10.6369 -5.70859
10.0109 -2.51204 -4.74542
17.4191 -12.7276 -9.91277
-11.7099 16.8075 -9.3355
3.54372 -9.03823 -4.39818
-10.1472 16.5876 -8.73729
16.0368 7.25346 -7.87657
-11.1616 16.9795 -8.76234
-7.0295 6.81727 -4.21677
-6.45148 6.43502 -3.87827
1.19979 -15.4587 -6.59113
20.0766 20.8011 -12.1343
16.2637 -12.2916 -8.57215
15.2042 7.47201 -7.08027
-10.0502 -1.09671 -4.19822
20.0653 21.8424 -12.1808
14.1403 7.81309 -6.57653
16.4569 7.41255 -7.25194
15.0531 7.74601 -6.79165
1.48838 -17.9163 -7.02061
18.7338 5.78035 -7.58838
19.5783 21.8492 -11.3486
0.768048 16.3103 -6.27415
-9.2222 -1.33753 -3.61039
0.709176 -24.0487 -9.15105
16.9574 -12.5426 -7.88969
14.2032 7.9312 -5.88139
0.53601 -22.5144 -7.9382
-4.03103 13.5512 -4.96042
-10.5213 16.1684 -6.75075
-0.85504 -22.7003 -7.98662
-14.8771 18.3582 -8.17109
-8.83225 15.9532 -6.25665
-4.98971 14.2095 -5.07626
1.27571 17.6898 -5.91097
-5.30736 14.1384 -4.97764
38.8749 -19.9745 -14.4289
12.5052 -10.3439 -5.23017
8.02778 -9.19743 -3.9117
7.40968 -8.80096 -3.56145
-4.20239 14.141 -4.43812
11.5606 -9.80486 -4.57555
15.1675 9.54661 -5.13324
13.6898 -10.6897 -4.98382
-5.45864 14.5503 -4.37309
-13.3217 17.8782 -6.29103
15.7362 10.6366 -5.2323
-9.53257 16.0179 -4.953
-26.819 20.7714 -8.8577
-23.6473 19.8642 -7.98846
-7.07414 15.0152 -4.24319
-7.86054 15.2505 -4.183
-25.7992 20.3598 -8.00826
-3.26692 13.36 -3.29269
-11.6266 16.8687 -4.89567
3.10897 -9.54808 -2.37486
14.8181 7.90454 -3.96505
-33.0661 -25.9588 -9.85866
5.40406 -11.652 -3.02622
49.7971 -12.0102 -11.905
-7.13308 -34.8946 -8.18599
-9.63985 16.1666 -4.3019
15.12 7.40879 -3.81485
-29.8246 21.6836 -8.18563
-12.0847 -43.2505 -9.86413
3.72958 -9.42286 -2.23206
42.8603 -10.8601 -9.55159
-34.5662 -22.7027 -8.8148
-14.6507 18.1795 -4.848
14.6954 7.84902 -3.46064
-31.7094 -23.9942 -8.18635
9.31103 -9.21749 -2.71718
43.6032 -11.085 -9.22884
46.3836 -9.8369 -9.56928
-28.2076 21.1715 -6.95617
-20.9645 -34.0783 -7.86625
5.548 -10.4382 -2.26433
-32.9321 -23.793 -7.68216
-34.3743 -22.6823 -7.69147
-14.6286 18.1845 -4.23823
15.3757 7.53928 -3.01766
-5.20837 13.8965 -2.61062
-18.3771 19.6633 -4.7579
-21.536 -51.2776 -9.69907
-22.1722 -35.7678 -7.26294
-33.5761 22.7474 -6.87925
9.14311 -8.99291 -2.17658
-30.8096 22.4431 -6.20328
-31.8161 -23.9051 -6.35553
-19.8023 -52.7041 -8.99303
42.9545 -10.9061 -7.06905
-43.9209 25.9412 -8.03815
-36.7663 -23.0181 -6.72687
6.45345 -10.8922 -1.97793
-29.0081 -25.8583 -5.87152
-30.3662 -24.9154 -5.88812
-19.9183 -49.0732 -7.86843
6.49734 -12.4444 -2.09651
-32.853 -23.6274 -5.7924
-30.8648 -24.297 -5.57479
-31.8694 22.8166 -5.4818
-12.9081 17.4273 -2.95164
-32.6053 -24.3765 -5.5127
-29.9755 -25.7885 -5.36791
-31.5768 -19.6378 -4.88324
-33.4901 -23.085 -5.36582
-33.0908 22.4445 -5.0387
-30.2699 22.5293 -4.61432
-40.2552 23.7776 -5.74682
12.9879 -10.5012 -1.95873
9.72607 -9.10643 -1.53238
10.572 -9.24924 -1.54736
-12.943 17.4996 -2.29255
15.1579 -11.6561 -2.04139
-30.702 -24.2806 -3.9699
46.2295 -9.82527 -4.72443
17.1962 -12.5472 -2.09567
42.6702 -11.4686 -4.16672
-32.8069 -67.3017 -6.64119
-23.1115 20.2222 -2.69097
-28.8044 -12.9268 -2.74351
6.96411 -10.7043 -1.12168
17.1097 -12.363 -1.82817
-29.1064 -25.9695 -3.2914
9.86589 -8.95794 -1.10009
13.7625 -10.9424 -1.41496
-33.9588 23.0226 -3.13799
-29.6702 22.2307 -2.74259
16.8109 -12.2625 -1.52076
-17.1474 -42.0438 -3.25678
7.35778 -9.12827 -0.855018
-25.221 -57.888 -4.3474
9.59084 -9.03434 -0.874574
9.73039 -4.73842 -0.682913
11.3374 -9.82262 -0.944967
-14.6823 -40.3118 -2.52613
15.2764 7.5037 -0.932381
14.7103 7.87608 -0.907571
11.8168 -10.0334 -0.800512
16.9626 -12.7043 -1.0134
-12.4339 17.0324 -1.01477
-35.6869 -63.7629 -3.51084
-26.5809 -53.2184 -2.85214
-34.8066 -19.6405 -1.34456
-17.8632 -44.2119 -1.59103
-24.5749 -56.8333 -1.79256
-21.6543 -58.4097 -1.80799
15.5227 13.543 -0.397804
11.6001 11.2859 -0.303782
23.9954 29.2993 -0.646212
13.2739 -10.9225 -0.317129
-21.6494 -47.5443 -0.858165
-19.4301 5.63164 -0.106422
-33.9939 -65.2475 -0.394864
30.0084 -18.9294 -0.235513
18.6749 -12.9771 -0.0243295
14.8478 7.68298 0.0338816
-31.4088 -13.1769 0.236973
6.53628 -12.212 0.158359
11.4104 -9.9708 0.165666
-12.2422 -18.9071 0.297896
26.1334 -5.07213 0.754915
21.9448 44.9628 1.57047
-7.84489 -9.25622 0.419368
-30.4722 -14.5272 1.27073
16.2623 29.3445 1.44992
-10.7771 -16.8332 0.844074
14.8642 19.7261 1.13148
19.067 37.2654 1.89297
16.9028 32.4077 1.71431
6.57792 -12.455 0.664591
-6.95703 -8.45508 0.562326
15.6444 25.8753 1.61775
6.32378 -13.7743 0.785716
-6.7369 -4.54819 0.480836
-11.6105 -8.86326 0.864334
-7.52673 -10.3924 0.85353
10.9975 9.11108 1.01661
6.26493 -12.9958 1.01353
-7.16135 -6.34524 0.681583
7.0857 -10.8326 0.922151
12.9632 20.2307 1.84205
-14.9678 8.36616 1.31856
11.0066 -4.92313 0.916844
9.47889 -8.89611 1.03786
10.4259 12.5494 1.47147
6.51115 -6.1952 0.832603
11.04 9.12428 1.34605
6.48097 13.4862 1.42723
4.6052 12.7426 1.32402
9.76559 12.2608 1.57714
7.64889 10.4705 1.35235
6.6353 12.8592 1.54112
8.22011 -6.63474 1.11059
10.1446 9.59405 1.49239
7.13671 10.7673 1.39093
8.80727 9.35876 1.45354
4.74116 -5.85338 0.848492
9.91303 5.46709 1.29328
7.0469 11.1925 1.5423
5.9437 10.6763 1.44793
-7.0217 -2.0959 0.850952
8.4789 8.61591 1.43353
-7.18765 -0.81726 0.865848
-6.87563 -3.96339 0.943508
4.44648 12.2804 1.59015
-7.02602 -2.33069 0.892142
-7.45142 -0.986101 0.924869
-9.15715 1.33939 1.15706
8.34873 7.62188 1.43588
4.84168 -5.26648 0.934456
7.7708 8.20492 1.48699
-7.2597 -4.50723 1.15336
7.26847 -3.87272 1.14255
7.46955 -3.54207 1.15305
7.47302 -3.27293 1.13954
8.15388 4.14747 1.30746
7.42706 -3.70826 1.18577
8.34774 4.58621 1.36381
7.71274 -3.02227 1.20191
7.93037 -1.92162 1.17364
5.71286 7.38527 1.40853
5.20701 -5.61206 1.17258
-7.13746 -1.82804 1.154
-7.18001 -1.32916 1.16141
5.3031 6.37208 1.37309
-6.41031 -2.3142 1.13769
6.8271 4.19519 1.3635
-7.32926 -0.956347 1.25359
2.98401 -6.16616 1.15313
-6.96056 -1.7668 1.26232
3.9978 -5.11043 1.12902
4.70534 -4.47748 1.15112
3.54752 -5.22969 1.16023
5.02156 5.55753 1.36872
-7.24455 -1.15694 1.33913
3.84471 -5.22201 1.20787
-7.05059 -0.808874 1.34641
6.33439 2.83387 1.33525
3.69205 -4.57132 1.13559
-2.25123 -5.37955 1.17149
4.94306 -6.43855 1.59911
3.81062 -4.42011 1.15508
4.15842 -4.32764 1.22929
-6.40733 1.47812 1.36456
-2.88278 4.82585 1.17916
-1.34315 -4.9913 1.14572
4.03721 -3.75914 1.22198
4.46301 -2.75751 1.21379
-4.4523 3.91905 1.37935
4.80069 -1.93937 1.24616
-2.72817 4.68876 1.27957
4.34189 -2.67874 1.23101
-1.0169 -4.21582 1.16714
-1.42848 -4.01 1.18127
-2.14942 -3.81676 1.21687
4.00151 2.55729 1.33326
1.84202 -3.17827 1.21816
-2.04518 -2.43277 1.27349
2.5767 -1.81618 1.32106
2.47346 -1.91615 1.32187
-2.16972 -1.7792 1.21368
2.36112 -1.3004 1.19578
-2.00508 -1.48986 1.20338
7.75246 -8.299 -10.0053
8.16024 -8.18658 -9.55795
6.74649 -11.7861 -11.0943
8.00733 -8.36171 -9.1313
8.05245 -8.92285 -9.09051
6.26505 -13.9265 -11.4879
9.04049 -8.87929 -9.29552
7.26328 -9.45485 -8.74419
7.37677 -10.8603 -9.33439
8.16978 -8.89886 -8.19301
8.92649 -8.94102 -8.3843
6.3839 -12.5137 -9.15158
5.23986 -16.1029 -10.9745
7.27731 -10.6061 -8.28389
10.6249 -9.65703 -9.21639
7.89462 -8.3494 -7.01057
0.110597 15.6409 -9.42218
12.1717 -10.2834 -9.6107
8.27213 -9.14718 -7.37196
-0.324986 13.2343 -7.7069
7.42964 -10.8623 -7.24989
7.83061 -9.0072 -6.59643
5.84633 -12.6673 -7.6049
15.0432 10.2072 -9.81981
13.7133 -10.9191 -9.46857
14.1906 7.87221 -8.51867
0.295427 14.7364 -7.7336
5.74984 -10.0284 -6.04912
10.6121 -9.62876 -7.22494
12.785 -10.671 -8.12589
15.4437 -11.6518 -9.41505
10.06 -2.53063 -4.72938
16.1585 7.4178 -7.86903
9.62074 -3.45835 -4.53975
14.6984 7.97788 -7.29762
20.0577 20.5247 -12.0627
14.1748 -11.2112 -7.65063
15.6718 7.4457 -7.27314
9.6887 -3.27087 -4.25715
14.2152 7.91628 -6.53426
15.5669 7.99395 -6.96803
17.1295 15.9734 -9.33782
-9.40221 -1.36249 -3.74191
0.615888 -25.1097 -9.79832
0.8717 16.9707 -6.60685
16.0542 -12.0555 -7.69172
15.0845 11.5876 -6.95961
10.4988 -9.48222 -5.12501
-0.374349 -23.1269 -8.21161
-0.872565 -25.9726 -9.03672
-4.06653 13.6841 -4.93684
-13.6511 17.8655 -7.75538
1.39915 17.7889 -5.91313
-5.14326 14.1765 -4.96268
-2.77707 -25.9397 -8.26676
-11.0555 16.9734 -6.35281
-4.20347 14.1879 -4.51951
3.82905 -12.6075 -3.98338
-5.48556 15.0977 -4.66073
3.58017 -10.4484 -3.19794
-3.83025 -27.2934 -7.44119
-23.3044 19.498 -8.08695
3.22263 -10.4009 -2.8658
5.05522 -9.71139 -2.8331
-26.7944 20.921 -8.60426
-29.8859 21.828 -9.39977
-31.2345 -44.1174 -13.0704
-9.53903 16.1032 -4.37203
-8.86131 -42.2937 -10.2972
-34.5238 -22.5743 -9.20445
-21.1225 20.029 -6.37996
-14.467 -41.0573 -9.50378
10.3534 -9.27894 -3.06633
-27.731 -71.6606 -16.0243
43.5457 -10.682 -9.29453
-27.9885 20.7073 -6.72254
14.7773 8.04156 -3.17314
-4.93778 13.5324 -2.62722
-31.8567 -23.9078 -6.49272
6.76058 -12.7972 -2.24621
-21.3242 19.0593 -4.14749
-31.3281 22.3254 -5.45119
47.5099 -10.3117 -6.8164
-34.112 -65.6481 -9.38591
-30.3432 22.7023 -4.5816
-34.451 -22.4236 -4.28944
14.7941 8.07317 -1.67906
-23.4251 -63.2929 -5.99669
-23.2417 20.3365 -2.4721
-30.5475 22.9704 -2.7375
43.5355 -10.682 -3.31198
-22.8009 -51.7747 -3.94697
8.04363 -11.3425 -0.912478
7.21541 -9.08444 -0.755387
16.9898 -12.4299 -1.37802
14.9702 8.14006 -1.00874
29.5923 -19.0729 -1.92962
15.0735 7.74214 -0.591301
-23.211 -51.7309 -1.30905
-18.2469 -49.7288 -1.20762
-22.8776 20.3261 -0.541108
-35.9481 -21.2633 -0.344204
-38.1991 -25.1865 -0.257657
9.58534 -9.0133 -0.107453
19.8371 -13.6176 -0.1852
15.6797 8.05585 0.134684
-31.5023 22.2848 0.373553
25.3096 -4.97235 0.878589
-6.60276 14.5928 0.635282
16.2474 10.2911 0.875022
10.8907 12.9896 0.724773
14.1808 18.827 1.07563
6.72203 -12.7345 0.648775
7.47747 -10.7527 0.567878
6.28896 -10.336 0.591296
16.0544 25.9225 1.6054
-7.29374 -8.02247 0.54915
-6.65035 -8.01823 0.536779
10.3269 -9.4369 0.760241
9.13873 18.2284 1.36307
-7.31606 -10.2336 0.901095
10.6173 -4.78639 0.833659
-14.3312 7.89637 1.27205
6.66438 -11.6682 1.05377
-6.19812 -4.25914 0.676099
-7.42097 -7.86828 0.929035
6.46682 13.3976 1.3537
9.65935 9.13583 1.26516
7.17142 10.9185 1.36345
7.42097 12.765 1.52153
8.09422 -6.52474 1.10102
-9.01825 1.36432 1.11062
7.00347 -4.51488 0.993101
7.31398 11.7259 1.69321
5.52101 -5.49011 0.983073
-7.37081 -0.916083 0.941042
7.17781 5.65257 1.22217
4.96717 -5.50518 0.987717
9.27644 -3.12433 1.30959
-6.93621 -4.28757 1.12301
7.12693 -4.33499 1.13742
7.64612 -3.55469 1.1571
-6.9799 -1.72716 1.03301
8.81605 -2.08523 1.26802
7.61083 4.94591 1.29665
-6.42564 -2.15391 0.997046
5.19723 -5.47941 1.15397
5.97348 5.11852 1.25911
7.90681 -2.16564 1.28511
3.85029 -6.17771 1.17699
4.64592 7.10944 1.40969
-7.36244 -0.922668 1.22152
-6.36349 -2.31738 1.1293
-6.51811 -2.7132 1.19114
6.9133 4.25881 1.38666
4.20138 -4.6342 1.11263
-7.19313 -1.14503 1.34736
3.57822 -5.28031 1.19091
4.14394 -5.60161 1.33647
3.72502 -4.32498 1.16168
3.9199 -3.60559 1.16823
4.45313 3.77051 1.35753
3.6474 -2.85971 1.19965
-2.20059 -3.87478 1.21037
4.04563 2.54308 1.35373
-2.37749 -2.98314 1.17703
-2.26642 -2.53105 1.10877
17.4896 -12.7692 -9.9085
12.1018 -10.0914 -6.96765
0.535242 -22.2069 -7.81583
22.2089 28.0256 -11.9978
-33.7311 -25.5722 -8.95354
44.1424 -10.8641 -7.28315
29.452 -9.90979 -3.91162
45.026 -11.1129 -5.45812
6.51044 -6.61978 0.287328
9.39994 8.34431 1.44451
5.71475 11.6707 1.65225
-7.08295 -1.93286 1.09399
7.66724 -8.08103 -8.73039
6.37762 -13.9599 -11.5697
5.95099 -10.8106 -9.21652
6.74644 -10.7094 -9.38227
7.41986 -10.7665 -9.25137
9.97336 -9.17771 -9.57819
7.80692 -9.07636 -8.27668
