ply
format ascii 1.0 
element vertex 1863
comment /media/mkaihara/Seagate Backup Plus Drive/model_iterations/model_44.ply
property float32 x 
property float32 y 
property float32 z 
end_header 
-35.503 -21.8638 0.518806
-13.5479 -20.5665 0.283329
-12.7496 -20.0071 0.31468
-13.2327 -19.822 0.341542
15.0932 -11.576 0.280659
-30.0235 -12.9911 0.576277
-36.2902 -19.546 0.796648
-14.0179 -21.9955 0.519213
-30.1859 -13.241 0.696498
-35.6586 -19.8537 0.831531
18.3075 -13.141 0.47112
10.5383 -9.26708 0.299815
10.4445 -9.27325 0.346933
-8.20135 -9.73007 0.359318
10.5657 -9.30549 0.418082
13.5835 -10.8495 0.5381
10.4076 -9.48799 0.463131
13.2914 -10.7122 0.563508
-9.23004 -13.0276 0.593809
10.5503 -9.50484 0.529616
13.2847 -10.6452 0.671536
-30.107 -16.7969 1.39399
-31.9625 -18.4846 1.5016
9.57427 -9.14539 0.559531
-28.9151 -17.2644 1.47507
23.1175 45.8306 2.27671
9.64063 -8.97735 0.584652
10.5154 -9.41453 0.669842
12.3419 -10.306 0.752015
-6.11584 6.58355 0.444
-6.86893 -8.15593 0.534154
-7.12442 -9.24426 0.574766
-28.1737 -11.1139 1.58718
-6.82643 -8.45643 0.561209
11.9793 11.8236 0.894585
16.7341 24.9876 1.59726
16.1511 24.4566 1.54056
8.91039 -8.6583 0.667222
8.69163 -8.59983 0.673138
14.978 25.6971 1.6534
-28.509 -8.54994 1.65964
-7.52141 -8.0154 0.617952
10.4285 -9.4108 0.80755
-6.75728 -8.20016 0.636606
-6.71692 -8.43823 0.648532
-7.55616 -7.95073 0.680449
-6.89368 -8.22274 0.671731
9.58613 -8.9136 0.819904
10.508 -9.40077 0.884854
10.5621 12.348 1.05748
-7.32545 -9.4901 0.790688
12.6531 19.2102 1.55293
13.207 21.0819 1.67462
9.36945 23.3039 1.74865
-7.09029 -8.29364 0.757147
-7.09532 -7.61185 0.739556
9.54815 -8.88335 0.925799
11.4293 12.0157 1.22857
11.9042 16.9227 1.55682
12.6532 11.5756 1.31851
12.9293 11.5161 1.34924
12.3314 11.6279 1.32001
12.109 11.7584 1.33678
-7.20758 -9.3655 0.936693
11.6737 12.0137 1.34912
-7.35807 -6.1308 0.757043
-7.05061 -8.08911 0.863749
-6.75218 -8.29509 0.861454
-7.26457 -6.24178 0.763016
9.2761 -7.60141 0.994029
-7.35172 -8.09433 0.910472
-7.37772 -9.87581 1.03009
-7.2778 -7.86399 0.901084
9.21237 -6.97943 0.978754
11.7167 11.9895 1.42569
-6.35395 -4.33122 0.658298
-7.06764 -8.34833 0.942573
-6.8248 -8.3994 0.961391
9.01076 -6.87241 1.01103
8.22868 -7.14533 0.980017
5.93899 -5.91366 0.773955
10.8824 11.1633 1.49377
-7.02136 -5.72433 0.864801
10.8251 9.3536 1.39077
-7.15453 -5.7087 0.89259
7.75014 -6.58119 1.00065
11.1235 9.88022 1.47117
10.9732 9.1342 1.43442
9.65124 11.6115 1.51239
-6.4977 -6.49285 0.920729
-6.86404 -4.50991 0.831569
-6.96566 -7.30429 1.02255
10.8316 9.13352 1.46611
10.1836 9.50717 1.42857
9.35242 10.1747 1.4443
-6.84882 -4.45048 0.860398
-7.1295 -5.6663 0.973717
-7.10089 -5.70606 0.972559
-6.90889 -4.62313 0.907306
-7.05233 -5.49636 0.971821
8.74526 10.3405 1.50492
-6.88759 -3.42549 0.861864
-6.96018 -4.34237 0.914709
-6.83426 -3.48549 0.861467
-6.8772 -3.56967 0.868502
-6.8833 -4.22694 0.908451
-6.90422 -4.39747 0.923724
-6.90411 -4.48301 0.926428
8.79298 8.86131 1.41406
-6.94185 -3.84765 0.91009
-6.90646 -4.06474 0.907897
-6.90592 -4.1483 0.915595
5.85462 -5.78137 0.950994
-6.91875 -3.41114 0.898577
-6.92964 -4.36572 0.950145
-6.89932 -4.43722 0.951778
-6.89302 -2.82551 0.873227
-6.87482 -3.61163 0.908897
-6.95919 -4.12854 0.951884
-6.90586 -4.19731 0.946615
8.5589 8.09542 1.39812
-6.90871 -2.97825 0.907279
-6.88713 -3.96419 0.954054
-6.87038 -3.6506 0.944317
-6.91382 -4.12048 0.985363
-6.89962 -4.30388 0.996636
-6.46159 -5.35243 1.02553
6.01108 -5.9601 1.03443
-6.8986 -3.74658 0.972972
-6.89688 -3.91102 0.984523
-7.00196 -4.73359 1.05413
-6.92598 -4.38177 1.03402
-6.85889 -3.47358 0.973718
-7.0687 -2.16692 0.94449
-6.87586 -3.07807 0.966088
-6.8945 -3.15554 0.975253
-6.13836 -5.48041 1.07206
-6.91555 -3.22583 0.997517
-6.37307 -4.35781 1.01685
-6.78823 -3.77897 1.02929
-6.87479 -4.17867 1.0672
-7.03997 -2.13179 0.982236
-6.9906 -2.33225 0.991185
-6.89807 -3.26182 1.01897
-6.89737 -3.53434 1.03721
-6.90498 -3.38868 1.05033
-7.02143 -2.1579 1.0204
-6.92114 -3.17498 1.05396
-6.8912 -3.25857 1.05354
-6.83915 -3.6446 1.06937
-6.89469 -2.94121 1.04739
-6.86039 -3.40569 1.06868
-6.87563 -3.7491 1.10134
-6.92453 -3.23133 1.0803
-5.99763 -4.48624 1.06543
-6.87946 -3.57941 1.11347
7.72346 6.37039 1.44736
5.23487 8.39454 1.43141
-6.88312 -3.48776 1.11687
7.3083 -3.52651 1.17798
-6.87513 -3.27448 1.11077
-6.87164 -3.38605 1.11685
-6.85542 -3.19578 1.11243
-7.15391 -1.75056 1.08515
-6.90652 -2.93766 1.11431
-6.91197 -3.02492 1.11878
7.15529 5.63318 1.41025
-6.36872 -2.28202 1.04915
7.08634 5.19071 1.4021
-7.00329 -2.40704 1.19096
-6.45463 -2.81681 1.14837
3.81684 7.99922 1.46162
-6.30252 -2.25875 1.11105
-6.47075 -2.28677 1.16869
-6.14137 -2.2774 1.14051
2.58147 7.46366 1.49865
7.84806 -8.53956 -10.1943
7.97544 -8.82261 -10.4086
7.70675 -8.76644 -10.1565
8.20816 -8.34023 -10.0238
6.95331 -11.484 -11
8.15983 -8.2872 -9.54258
6.95776 -11.9011 -11.1928
8.03738 -8.42458 -9.25369
7.98289 -9.17994 -9.47157
8.25371 -8.71419 -9.33272
7.87051 -8.99949 -9.11848
8.31457 -8.72409 -9.14475
6.32939 -13.9904 -11.4613
7.50198 -9.43672 -9.00996
7.93858 -9.09562 -8.93814
6.22659 -14.3552 -11.5248
6.27062 -12.8805 -10.5275
9.24994 -8.85221 -9.37538
9.2343 -9.00803 -9.38886
5.96759 -12.7382 -10.2073
5.90459 -13.11 -10.2956
9.38246 -9.00933 -9.30708
9.23771 -9.05071 -9.18624
6.92753 -11.2161 -9.35192
5.61634 -12.9639 -9.99795
6.5185 -11.0138 -8.80281
8.46953 -8.85509 -8.36922
11.7938 -10.0075 -10.3834
8.26247 -8.64703 -7.91555
7.44993 -9.29353 -7.85549
8.26918 -8.80614 -7.969
9.18581 -8.80857 -8.37939
7.6245 -9.34851 -7.87966
12.1413 -10.14 -10.2953
4.67086 -15.8086 -10.6583
9.20536 -8.84526 -8.20959
5.01913 -15.379 -10.4288
7.77773 -9.32636 -7.77319
8.27268 -8.49444 -7.58182
0.349227 15.6827 -10.0051
4.74481 -15.1484 -10.1065
10.9238 -9.60677 -9.25102
7.93713 -9.10123 -7.65381
8.18442 -8.51848 -7.45512
4.72777 -15.788 -10.3536
-0.395306 13.591 -8.50218
8.86104 -8.82665 -7.72395
4.22863 -18.6843 -11.8307
7.93979 -9.08019 -7.44709
8.29153 -8.5953 -7.37475
4.26728 -15.424 -9.80168
8.24313 -8.6658 -7.31309
4.25406 -18.1721 -11.3827
0.152058 15.0542 -9.17044
3.76345 -17.8721 -11.0539
4.18169 -15.7797 -9.87083
7.06768 -10.8513 -7.77216
8.07628 -9.23735 -7.37049
4.20235 -16.5923 -10.2009
8.31657 -8.69339 -7.16762
9.43996 -9.0294 -7.78504
10.7126 -9.23611 -8.45736
7.03754 -11.0976 -7.81535
7.75305 -9.2926 -7.18336
9.08966 -8.84214 -7.51452
8.02242 -9.19222 -7.13984
8.60617 -8.80049 -7.18512
9.73127 -9.18598 -7.80016
6.79321 -13.3724 -8.65853
9.27435 -9.00481 -7.46572
5.81414 -13.4119 -8.43626
6.9052 -10.8987 -7.43633
9.59045 -9.1377 -7.54336
11.9868 -10.2805 -8.91564
10.8254 -9.51426 -8.10786
6.90208 -11.135 -7.3538
9.17025 -9.115 -7.25074
9.28609 -9.05273 -7.2515
12.6635 -10.5708 -9.21391
4.66374 -14.3982 -8.46
10.236 -9.41944 -7.77611
8.55345 -8.73253 -6.80429
2.74406 -17.3049 -9.66593
14.8356 7.58783 -9.112
2.70713 -19.8414 -10.8925
2.42868 -8.80158 -4.95203
2.97501 -19.8752 -10.8592
14.8062 7.71192 -8.9666
2.36199 -20.1654 -10.7827
10.9986 -9.64585 -7.78245
9.81444 -9.06407 -7.07529
14.998 7.52625 -8.88216
2.36409 -8.81947 -4.82584
1.65435 -19.7652 -10.2454
2.38401 -20.8096 -10.7439
14.0012 -11.1871 -9.18384
-9.27336 -2.59899 -4.9025
11.3817 -9.85628 -7.64703
2.17107 -20.2432 -10.2608
10.1607 -9.27621 -6.95164
0.850574 17.5217 -8.72502
11.0357 -9.68184 -7.31895
-8.84727 -1.94616 -4.44354
2.20888 -20.1767 -9.96651
3.85932 -9.20591 -4.90309
11.2997 -9.69607 -7.28962
1.99493 -19.8698 -9.76124
-8.33558 15.993 -8.74396
2.50539 -11.2075 -5.49495
1.99429 -21.0863 -10.086
0.630917 17.0964 -8.10335
14.9641 7.64942 -7.93616
17.4715 16.3645 -11.3243
17.8379 17.0923 -11.4808
14.4136 -11.3979 -8.52102
9.82844 -2.61627 -4.71519
17.4048 16.3821 -11.0469
9.77568 -2.4743 -4.66578
-10.19 16.729 -8.9279
-9.54529 -2.0682 -4.42949
9.87783 -2.61364 -4.63858
10.2105 -2.40442 -4.75211
9.78401 -2.98466 -4.63044
-5.37818 4.43323 -3.14188
8.10636 -8.3432 -5.24535
17.9829 17.523 -11.2762
17.8512 17.6945 -11.3014
19.3014 5.87159 -9.05198
7.16065 -10.9293 -5.82114
20.4417 5.36721 -9.39222
9.58323 -3.42942 -4.52602
-9.85582 16.1975 -8.41906
-5.32755 4.88179 -3.20064
19.4045 5.60587 -8.92985
-11.2334 17.1242 -9.01149
18.1295 17.9833 -11.1991
-6.50331 14.9056 -7.13833
9.61083 -3.6079 -4.47426
20.1785 5.46842 -9.06586
18.2776 18.5449 -11.2285
18.0687 18.6964 -11.209
14.9311 7.64142 -7.1509
3.8663 -9.36516 -4.29484
-11.1773 17.0014 -8.59653
-13.4189 3.28669 -5.82374
1.26606 -21.4624 -9.00927
3.25556 -10.2027 -4.48064
14.2466 7.67431 -6.76765
18.8645 19.6939 -11.4109
3.87323 -9.19391 -4.15485
14.8765 7.75683 -6.96121
18.5381 19.7628 -11.2548
14.0814 7.77833 -6.61745
4.00312 -8.47677 -3.84329
6.79341 -10.8835 -5.2551
-13.3536 2.51177 -5.56137
15.0365 7.53631 -6.85731
-7.97375 15.425 -7.05864
1.19035 -10.6006 -4.3329
0.758017 -21.7052 -8.79611
-12.9168 2.33955 -5.2816
-9.29634 -1.43533 -3.75572
-5.05481 5.60891 -2.99324
2.83576 -11.7594 -4.7715
14.2631 -11.253 -7.10247
4.10918 -9.47354 -4.04762
1.52472 19.2084 -7.48938
3.95382 -13.1926 -5.32426
19.0893 5.8358 -7.69435
0.879673 -26.0593 -9.95673
4.75598 -8.68672 -3.75921
11.7623 -10.1834 -5.91198
19.4514 5.60117 -7.67402
20.363 24.1426 -11.7975
20.0479 5.44491 -7.75237
20.6566 24.078 -11.8243
3.27259 -10.8764 -4.23761
-12.9811 17.4818 -8.03333
11.9315 -10.1256 -5.75389
20.444 5.21913 -7.73628
21.2708 25.4303 -12.0464
-8.16327 -2.81477 -3.1284
19.372 5.74721 -7.27616
2.28509 -13.25 -4.83773
0.810056 15.8102 -5.67542
-4.26431 13.8951 -5.18195
-8.21704 -2.79794 -3.09723
6.75828 -10.5534 -4.44926
-15.8844 18.3536 -8.58006
16.0357 -12.1089 -7.1188
-11.0276 16.6241 -6.97317
19.4154 5.91951 -7.04959
3.72346 -8.6838 -3.25886
-8.75427 15.9186 -6.18089
2.99941 -13.5308 -4.72687
19.0409 -13.6206 -8.00908
34.4236 -21.3272 -13.763
-14.8363 18.1747 -7.91836
20.163 5.47852 -7.00604
37.3512 -21.0922 -14.3245
41.0446 -20.1998 -15.2458
16.5214 7.41081 -6.03328
3.45891 -10.2914 -3.61998
1.34901 -10.9243 -3.63863
-6.2289 14.8582 -5.25382
-12.6148 17.3017 -6.96855
15.8449 -12.177 -6.50126
6.05851 -9.87066 -3.72256
3.34772 -10.1567 -3.4293
-1.12461 -23.5931 -7.54504
2.32659 -11.0356 -3.59287
3.24092 -10.0866 -3.35724
2.83012 -9.0512 -2.9907
13.6815 -10.8183 -5.48209
-17.8217 19.2642 -8.21687
-8.69133 -2.64726 -2.8457
28.8715 -15.837 -10.3307
1.36482 -21.392 -6.6194
19.9646 25.8494 -9.84676
3.23209 -9.89261 -3.13764
3.4534 -8.98499 -2.89726
-14.2589 17.8333 -6.83013
-21.2122 19.7819 -8.59027
-7.89612 15.354 -5.07925
4.79004 -12.0319 -3.79356
4.15974 -8.94233 -2.8994
2.08426 20.6367 -6.09223
-4.31181 14.497 -4.43002
4.06551 -8.97618 -2.88112
-15.1685 18.2493 -6.84264
-31.8209 -45.474 -15.8781
7.15951 -11.148 -3.77976
2.54772 -9.48537 -2.78457
-8.39266 -2.1984 -2.44594
4.45293 -11.0525 -3.35936
-2.43574 -24.576 -6.92154
-9.20469 15.8721 -5.05257
4.37392 -11.286 -3.337
8.59889 -8.38732 -3.3006
-12.9841 17.2995 -5.92008
45.9966 -15.25 -13.2091
-8.71025 -2.43636 -2.4491
-24.2243 20.3319 -8.55421
3.25331 -9.99926 -2.84169
3.40622 -10.0058 -2.8548
-4.19473 -30.1632 -8.17778
-26.5994 20.4001 -8.93542
43.0213 -14.1938 -11.9724
46.3733 -13.4239 -12.7726
-8.40227 -37.8229 -10.2097
-8.15557 -38.463 -10.3657
-14.3351 17.9639 -5.96376
9.86608 -8.97218 -3.48544
11.3506 -10.0786 -3.94315
-10.5544 16.4683 -5.0597
-4.22342 -27.6899 -7.27828
3.26809 -9.8797 -2.69013
3.52759 -10.3216 -2.82275
-26.0199 20.6277 -8.51653
4.28723 -11.0791 -3.0056
4.4127 -9.70114 -2.68824
9.49679 -9.18404 -3.33033
6.93083 -11.3879 -3.34576
-26.9859 20.8224 -8.51607
44.3217 -12.9013 -11.5179
-11.4275 16.8366 -5.04954
11.8448 -10.1999 -3.86351
3.37301 -10.2594 -2.65735
-24.3278 20.4358 -7.77231
9.99509 -9.02654 -3.24012
-7.78363 15.1843 -4.09541
4.06616 -12.0132 -3.05577
15.1379 7.60326 -4.05421
3.39165 -11.1467 -2.79327
3.17152 -9.89095 -2.47556
4.81546 -12.5523 -3.23667
-6.63222 -37.9393 -9.16786
-10.9916 -42.2271 -10.347
3.9742 -9.10474 -2.34978
-28.6481 21.4096 -8.44896
14.9476 7.65056 -3.93312
-9.35868 16.1661 -4.38646
3.94096 -11.3624 -2.83079
-12.7293 17.3548 -5.02941
-26.218 20.8038 -7.7725
3.48497 -10.3231 -2.49844
11.0691 -9.50288 -3.36653
15.7125 -11.845 -4.50742
-37.0306 26.201 -10.3734
-12.2917 -42.793 -10.1497
10.9375 -9.56337 -3.32364
-11.5826 -41.6316 -9.80527
-6.06965 -30.7834 -7.14134
41.0256 -12.6833 -9.73035
-26.8241 20.7225 -7.64799
14.7563 -11.4513 -4.19987
-30.4973 22.1532 -8.45844
4.44801 -5.80318 -1.64135
5.30251 -9.19188 -2.37439
-27.3557 -70.5731 -16.7384
-9.56383 16.0104 -4.10722
-12.7816 -43.8964 -10.0609
4.11385 -9.7939 -2.33775
13.4986 -10.889 -3.82363
4.0151 -9.19373 -2.20623
41.4074 -12.2453 -9.45607
-23.3108 20.3196 -6.74366
3.39838 -10.1119 -2.28909
4.40663 -9.9194 -2.34855
15.022 7.55119 -3.61226
-28.6848 21.4636 -7.70134
-21.0315 -33.3449 -8.47066
-8.2287 -34.8545 -7.66084
-24.2254 20.4321 -6.75276
-30.7657 22.3462 -8.09239
3.25566 -9.95304 -2.23474
4.87945 -8.87385 -2.14754
14.8339 7.74586 -3.5422
4.24314 -10.5214 -2.41414
42.0897 -10.9687 -9.21701
-10.4498 16.3692 -4.09675
4.34439 -9.16115 -2.12667
3.15347 -9.12872 -2.00129
5.16549 -9.06211 -2.18538
14.8377 7.46623 -3.46109
-37.6693 24.8053 -9.38852
-27.0018 -25.0369 -7.61202
3.02697 -9.47129 -2.06693
-28.4301 -29.9797 -8.51339
-19.6395 -30.6664 -7.49924
3.86018 -9.34464 -2.0862
3.74167 -8.74615 -1.95246
-15.4921 18.3196 -4.91054
-24.1291 -63.9587 -14.0332
3.99319 -8.79246 -1.97469
-35.1289 23.5254 -8.59621
-13.9251 3.04636 -2.9125
-33.221 -23.4785 -8.29619
-26.6293 -73.5589 -15.9266
-11.1262 -35.8315 -7.63117
44.2877 -9.6722 -9.20783
14.9933 7.65989 -3.37407
-17.6442 -23.3737 -5.88536
12.3812 -10.1179 -3.21539
-18.4408 -52.7554 -11.1553
4.19204 -10.7849 -2.30769
-11.9323 17.1102 -4.14349
-25.9262 20.4001 -6.5393
-35.133 -20.7982 -8.1172
-31.8952 -24.9094 -8.02098
-9.0461 -35.069 -7.21273
14.5882 -11.5014 -3.68045
4.03787 -9.84399 -2.09736
3.23156 -9.87767 -2.03734
-35.2125 23.2669 -8.20195
-22.6463 -54.5299 -11.4138
-15.6429 -45.1693 -9.11751
3.49406 -8.92076 -1.83476
-20.0041 -32.3984 -7.22975
-31.6973 -24.7377 -7.58197
-28.7703 -25.5472 -7.2432
-21.4561 -53.0215 -10.8223
3.89385 -9.1102 -1.88681
-16.3539 -44.6054 -8.89234
3.44747 -9.23588 -1.82013
-32.169 -24.0106 -7.30801
-30.9691 -26.5536 -7.43536
-32.6141 22.9614 -7.19005
-19.8013 -48.9918 -9.4295
-30.9645 -24.9436 -6.99387
-23.645 -61.2235 -11.5629
-33.8672 22.538 -7.12327
-16.2167 -45.7314 -8.50899
3.41003 -9.58527 -1.77817
14.1502 7.85337 -2.80693
-34.6054 23.7132 -7.27615
-28.6199 -25.0842 -6.61933
3.48132 -9.53454 -1.76017
4.80615 -8.6716 -1.71812
-26.5914 20.8771 -5.84234
-30.3977 22.1088 -6.48312
-30.7234 -28.2987 -7.20787
3.89746 -10.0295 -1.85652
13.9989 7.54664 -2.73306
-23.0784 -53.0283 -9.83634
-20.4499 19.4573 -4.76307
-31.2137 -24.8095 -6.76165
-19.3303 -47.9262 -8.76367
5.62468 -11.7853 -2.20482
42.6725 -12.0521 -7.51686
-17.835 -47.6011 -8.55916
41.7733 -10.8688 -7.26046
5.01354 -10.7584 -1.97579
6.71093 -11.1509 -2.19857
-10.247 16.2914 -3.12229
-30.0628 -23.2715 -6.1958
43.0667 -11.5657 -7.25638
-21.9052 19.8988 -4.80022
-19.9772 -49.4242 -8.46718
-22.6876 19.9481 -4.76512
-23.8857 20.3621 -4.88342
-32.5391 22.9211 -6.15829
3.82335 -10.1275 -1.66345
-31.7975 -24.586 -6.14416
-13.519 -40.7858 -6.60126
-30.7386 22.3701 -5.77947
-22.2152 -53.4667 -8.81821
-7.55504 15.2982 -2.57218
-33.0384 -23.218 -6.08435
-32.3154 -23.7577 -6.07783
-27.5272 -25.8278 -5.681
-32.8966 -23.6767 -6.0796
-31.0765 -24.8762 -5.95098
-34.4718 -23.0245 -6.15401
-24.578 20.6321 -4.7308
-32.8127 -24.5547 -6.04008
-31.8028 -24.0834 -5.89151
-25.2359 20.7953 -4.784
-12.2595 -40.6275 -6.2215
-12.4647 17.0507 -3.04257
-7.57048 15.1457 -2.4142
3.5134 -9.57327 -1.45096
38.8469 -12.7762 -5.81599
-33.1436 -24.4146 -5.82371
-30.3364 -24.1102 -5.45399
-29.8101 -25.1427 -5.49189
-20.0832 -48.3912 -7.30204
-6.74144 14.9372 -2.22438
-13.8355 17.6768 -3.04505
-11.4684 -40.1462 -5.68629
-7.31791 14.8312 -2.22047
-23.5321 -61.2592 -8.87984
-22.1416 20.136 -3.98603
-24.0484 -54.5085 -7.91731
-31.0515 -23.9701 -5.17832
45.9192 -10.5814 -6.19652
45.2671 -9.95122 -6.10521
-13.1472 -40.8585 -5.64194
6.65148 -10.9622 -1.68629
-14.8362 18.1721 -3.05312
-22.5489 19.8602 -3.89542
-32.3321 -24.1372 -5.19484
10.7709 8.83426 -1.79875
-33.2205 22.842 -5.17666
-29.3354 22.3229 -4.6472
-30.6756 -24.0166 -4.91532
-12.5497 -35.7063 -4.78639
9.68702 -9.06624 -1.6556
12.826 -10.4822 -2.08529
-33.334 23.3843 -5.09194
-35.7464 -22.27 -5.24579
-30.3332 -25.0718 -4.89037
6.79005 -10.3266 -1.54237
-32.6432 -23.0732 -4.95397
-13.298 -41.4881 -5.35977
13.222 -11.0224 -2.11297
42.2689 -10.9858 -5.39217
-15.9965 18.4156 -2.9817
-15.6549 -37.9458 -5.01859
-8.63866 15.4436 -2.15506
44.1865 -10.1787 -5.49009
15.0685 7.86623 -2.04197
9.4299 -8.94767 -1.55182
-33.432 -23.3258 -4.83434
-17.6518 19.185 -3.05069
-20.6391 9.13341 -2.67474
-31.4509 -24.3488 -4.69147
-24.9884 -56.6155 -7.27199
11.3115 -9.7306 -1.74693
42.6292 -11.4121 -5.19579
14.7526 -11.4548 -2.1467
14.9939 7.70723 -1.91706
-29.5481 22.4713 -4.23527
7.28205 -11.0581 -1.50247
-10.1299 16.1734 -2.13727
9.46365 -9.3299 -1.47932
12.8049 -10.5171 -1.84763
14.0107 -11.0585 -1.98535
9.46653 -9.12924 -1.45962
7.06909 -10.4685 -1.38368
45.1811 -9.8677 -5.03334
-10.7764 16.188 -2.09709
-32.7446 23.0898 -4.35185
11.7379 -9.86184 -1.65538
6.19848 -12.7465 -1.49083
7.5728 -11.5917 -1.44083
9.86073 -8.91719 -1.39872
-14.9985 -43.3411 -4.80931
16.6182 -12.3066 -2.16866
-29.6842 -59.6371 -6.91103
14.9356 7.52085 -1.70942
-30.758 -24.5128 -4.04054
13.8638 -10.9693 -1.81172
-31.5105 -24.3742 -4.03126
14.9242 7.79763 -1.6921
-12.5269 16.7526 -2.05578
-19.8447 -50.3151 -5.24205
-31.7113 -64.0603 -6.84429
-23.1398 20.2421 -2.9051
-30.6145 -25.0797 -3.76249
-30.5897 -25.4093 -3.79058
-21.0373 -55.0488 -5.55773
-13.9162 17.8074 -2.11573
-30.8842 -24.1622 -3.66008
-15.3523 -41.8165 -4.1505
-13.5756 -42.1954 -4.13547
9.83157 -9.11272 -1.24567
-32.2835 -62.8866 -6.51354
8.57005 -8.6674 -1.10676
16.5504 -12.3316 -1.88817
-14.8062 18.163 -2.10255
-35.448 -22.0478 -3.77826
-32.6934 23.083 -3.52562
-30.6766 -24.7488 -3.48369
14.0763 -11.1957 -1.59658
-31.8323 -19.398 -3.1811
11.0662 -9.71152 -1.25368
-26.3387 21.3648 -2.84915
-11.1331 -34.6509 -3.07638
9.40801 -9.02078 -1.09437
-33.4032 22.966 -3.3688
8.6936 -8.69522 -1.00999
16.8147 -12.2631 -1.69998
-16.3362 -42.4493 -3.65615
-20.9298 -47.8778 -4.09087
-15.0045 -37.0419 -3.1684
-13.0499 -36.6153 -3.08892
9.21034 -8.95068 -1.00908
11.3024 -9.79785 -1.17268
14.9005 -11.6548 -1.49763
-29.5557 22.5387 -2.89306
-29.0203 -13.5461 -2.4885
11.8775 -10.0624 -1.20659
-22.6013 -50.3357 -4.22686
12.8007 -10.625 -1.26031
-39.5684 -75.0687 -6.14226
9.95964 -9.14084 -0.979752
10.9219 -9.74911 -1.0204
-32.8967 -20.422 -2.67911
11.972 -10.0619 -1.08282
14.7467 -11.6109 -1.30443
-15.2288 -38.4807 -2.81695
-14.8292 -39.2302 -2.87554
18.6352 -13.4675 -1.52627
-23.0387 20.1718 -2.03287
-24.1656 -55.7458 -4.01845
12.8969 -10.6092 -1.11638
-14.3423 -39.7903 -2.74926
15.3127 -11.5618 -1.24675
-31.4397 -63.6553 -4.45921
-14.6029 -45.2632 -2.95594
-32.418 22.9013 -2.42986
-31.8974 -63.0786 -4.30294
-16.6571 -40.5752 -2.67486
31.1531 -20.6545 -2.27501
42.3855 -11.0532 -2.65892
36.7544 -8.86146 -2.29043
-14.8375 -39.8358 -2.56882
-26.6553 21.6332 -1.9469
-28.7503 -14.1544 -1.85224
-15.5251 -40.4454 -2.41684
16.9469 -12.6453 -1.18442
-26.9363 -16.2093 -1.69273
42.9834 -9.57463 -2.26439
-9.36078 -12.5075 -0.793245
-15.1195 -40.2376 -2.14139
5.72744 -12.5002 -0.683075
-14.0341 17.7911 -1.10538
-14.7237 -46.2786 -2.38547
14.9422 7.83913 -0.813165
-16.0185 -41.0594 -2.09498
-14.1873 -46.1418 -2.27812
18.7857 -13.3287 -1.10377
-16.7803 -48.6644 -2.40153
37.0522 -9.10032 -1.78748
-28.6516 -14.6509 -1.44029
-23.7651 -54.4551 -2.63514
-16.2393 -39.9563 -1.92023
9.66974 -9.12486 -0.592721
12.6271 -10.364 -0.733102
44.6594 -10.2187 -2.03699
-13.75 -41.825 -1.87421
-32.3455 22.8657 -1.65024
-52.7149 28.6294 -2.39367
-33.3754 22.9687 -1.4872
-18.42 -48.1701 -1.93576
-34.2612 -21.5748 -1.44761
9.75682 -9.0801 -0.489972
6.61731 -10.8509 -0.440944
-12.8189 -38.2145 -1.33431
7.48306 -13.1348 -0.516177
18.6782 -13.2294 -0.772881
-25.9728 -56.8849 -2.05907
-13.1222 -37.2279 -1.27902
21.3304 24.6014 -1.04616
-22.8612 20.2958 -0.963276
-20.347 -52.1005 -1.73446
21.1197 -14.4023 -0.776826
-27.4236 -14.1124 -0.935219
-12.7377 -40.7653 -1.26978
-23.8168 20.2372 -0.89817
-23.1319 -53.2355 -1.65099
-17.1627 -46.4506 -1.42841
22.643 -10.1898 -0.749209
-34.1288 -20.7947 -1.1057
-9.75138 -12.7937 -0.459576
-22.3582 -52.7268 -1.61645
18.0925 -13.4786 -0.574064
31.1095 51.916 -1.56931
-29.7073 22.6664 -0.961269
-30.8535 22.5671 -0.945977
-27.048 -12.9963 -0.735703
9.57547 -9.01093 -0.318174
-20.5944 -33.1714 -0.910416
-39.7928 13.8032 -0.921558
21.32 -14.2654 -0.544365
-52.4839 18.9293 -1.03065
18.5046 -13.3409 -0.427739
12.8397 -10.5482 -0.276693
-7.12542 15.4239 -0.297684
-32.8453 10.3872 -0.569989
-28.0928 -13.3776 -0.492906
-36.7036 -20.9022 -0.64194
-17.7686 -43.5585 -0.727535
-7.76164 16.3232 -0.245821
-32.2209 -24.0699 -0.557828
-33.5655 -22.8818 -0.520135
-33.7804 -68.2553 -0.943191
17.3548 -12.9483 -0.262448
18.2903 -13.1689 -0.285525
29.1317 -17.9634 -0.456258
-20.8619 -53.4318 -0.695388
-29.8858 22.7853 -0.401506
-37.2118 -20.8014 -0.47104
-27.0624 -57.746 -0.678522
-18.2907 -41.9521 -0.489602
-52.4015 28.7178 -0.498182
-32.9029 -58.0423 -0.614354
-19.5621 -51.3044 -0.52108
37.7674 -9.12424 -0.356723
-14.1408 17.9485 -0.160991
-34.0694 -75.8695 -0.568373
-17.5878 -42.6588 -0.313833
9.58344 -9.01775 -0.0408861
13.0765 14.9659 -0.0410403
14.8405 7.81251 -0.0286594
-29.2021 -13.0271 -0.0581573
-11.6182 -16.9156 0.0249487
-12.7956 -19.2594 0.0440117
-18.3509 -42.1242 0.190136
9.44874 -8.99597 0.0595508
-32.3808 22.916 0.205348
-21.2408 -53.6236 0.279997
-29.9866 -13.9172 0.198219
16.8773 -12.3143 0.117019
-13.0391 -19.9923 0.155751
14.7375 -11.4801 0.147186
-52.4071 18.7767 0.491736
7.09764 -12.1954 0.118514
16.0319 -11.88 0.169588
-36.1144 -21.8538 0.442621
38.4613 -7.90518 0.409247
-34.9724 -21.9163 0.469951
-12.3842 -34.205 0.424923
-12.8567 -34.5734 0.447327
-11.0512 -31.8228 0.410249
-9.51023 -29.4252 0.374575
26.4142 53.4844 0.77642
9.59562 -9.02552 0.170389
-12.7226 -19.7146 0.319484
-10.73 -32.572 0.470141
8.57147 -8.51507 0.18323
6.30206 -12.8929 0.209025
7.15643 -11.0278 0.200725
9.35093 -9.06509 0.188176
8.03242 -9.11416 0.194345
9.73136 -9.01061 0.218541
37.9331 -8.12719 0.636922
-23.6899 20.3154 0.558355
-32.9303 -22.1555 0.682791
-34.1839 -25.0804 0.742416
12.9293 -10.6214 0.274299
13.2408 -10.6797 0.318927
-9.87943 -12.5261 0.30109
6.83346 -11.1993 0.255865
7.98895 -9.38912 0.242466
26.9853 55.5231 1.23679
6.98151 -10.9738 0.261527
9.18215 -8.68801 0.26863
11.5355 -9.91504 0.333441
17.2683 -7.71311 0.380892
7.21569 -10.9479 0.296811
-9.41929 -12.1599 0.388952
-12.7314 -19.5442 0.557244
7.64705 -9.3102 0.274495
7.83115 -9.36524 0.283478
-25.4392 21.3813 0.862464
-28.7779 -9.22849 0.758041
9.62338 -8.95404 0.33823
17.5208 -12.7993 0.547252
18.3599 -13.2203 0.562913
-22.8047 19.966 0.789014
-27.5096 21.7414 0.914603
-28.7919 -8.64137 0.786634
-32.9268 -17.5566 1.01319
-13.2889 -20.0668 0.639726
14.7752 -11.4803 0.499432
22.7737 -3.31357 0.647828
-12.1404 -18.9304 0.650627
25.022 -4.7402 0.741485
16.457 25.5396 0.910501
-27.8555 -20.5207 1.02364
7.22954 -11.3246 0.403464
6.96722 -10.6993 0.388919
14.8251 24.1505 0.869922
-7.60602 -8.78887 0.355284
13.0388 -10.6692 0.514618
-7.30262 -9.49123 0.366667
-28.4258 -8.02328 0.982584
-11.8423 -17.3109 0.702358
7.87007 -9.34813 0.404407
16.1773 11.0526 0.70169
10.8599 -9.45626 0.523235
11.8961 -10.0511 0.567614
23.1012 46.5186 1.95058
-7.43472 -8.11692 0.411283
9.65081 -8.95881 0.491707
22.8428 -3.20718 0.885764
27.1042 56.0291 2.40994
-7.4299 -9.86171 0.48285
10.4311 -9.5137 0.553937
12.7323 -10.5157 0.66735
21.5905 -2.64616 0.887026
-28.9826 -17.5831 1.38594
8.73696 -8.69773 0.509604
-6.91042 -8.44957 0.469078
9.43609 -8.92633 0.54313
12.7089 14.5892 0.854502
-28.7615 -8.44097 1.3169
14.7767 19.2468 1.09055
15.1105 26.0171 1.34064
21.8592 42.9846 2.13277
6.18395 -13.7781 0.67342
10.8438 -9.51337 0.652534
18.4951 -1.64141 0.849636
19.6054 37.3294 1.97765
15.0533 26.523 1.42998
-11.1644 2.76915 0.553613
-7.22798 -9.52729 0.576612
9.16604 -8.98403 0.607978
11.3965 -8.74362 0.672808
20.1235 -2.3061 0.975934
11.6544 11.8773 0.82638
16.2328 39.0386 2.07852
7.75787 -9.4552 0.602092
10.1833 -9.27467 0.682216
14.6512 24.8444 1.44433
20.2737 39.3147 2.24537
21.0181 -2.6183 1.07722
-7.39203 -8.49245 0.584006
9.38349 -8.93419 0.674781
16.7821 24.6098 1.56489
16.6116 30.1149 1.79515
13.0106 -10.7242 0.896037
10.5781 12.3658 0.870359
14.2668 19.366 1.29219
11.0751 -9.60336 0.792796
15.057 19.618 1.3639
-26.0904 19.9999 1.79579
-6.95684 -8.1618 0.593184
10.2734 12.4204 0.9027
-7.24803 -9.35669 0.662802
10.0104 12.4703 0.927464
-27.5395 19.3888 1.91179
6.11111 -12.9063 0.817618
11.2037 12.1115 0.948321
-6.87367 -6.78374 0.559965
11.2935 12.0428 0.972168
-6.79773 -8.39984 0.646626
6.2548 -12.5732 0.820591
14.6896 19.5448 1.47023
14.1813 23.1864 1.62142
13.4968 31.1921 2.03983
-6.11958 6.51782 0.548623
-8.1556 -7.72772 0.679469
-7.10633 -8.15223 0.664078
5.72569 -12.4522 0.828802
-7.47172 -6.87907 0.631692
7.00548 -11.1617 0.814937
6.9865 -10.5588 0.790312
11.34 -9.78884 0.925357
12.1304 -10.1476 0.980241
16.236 7.1906 1.13151
14.9361 19.3488 1.54654
-7.2291 -6.30018 0.621807
10.2643 -9.37467 0.897275
-7.3702 -6.25256 0.633858
11.497 12.1318 1.13889
9.58479 21.5774 1.60774
-7.25935 -9.63601 0.805974
11.6586 12.6448 1.17992
-6.94934 -4.45344 0.56756
-6.74353 -8.19024 0.723417
-6.69427 -4.4301 0.553525
9.27272 -8.86538 0.893233
9.99886 -7.84483 0.895386
12.7439 16.0619 1.48254
-6.66311 -6.65555 0.654241
9.81198 -8.28581 0.93922
11.4982 17.1926 1.55498
11.4326 18.2269 1.6073
9.62743 18.3241 1.56097
9.04947 19.5572 1.62081
7.37727 21.9876 1.74359
10.8068 18.6533 1.64239
10.0162 -7.59947 0.961469
-7.0203 -7.18115 0.769408
-17.1553 -6.22236 1.4267
9.47388 -7.68054 0.956195
9.36693 18.7086 1.6514
-6.37619 -4.25748 0.607664
-6.82134 -8.20978 0.846089
4.83345 -5.73176 0.596186
9.05333 19.9179 1.7354
7.79535 19.0599 1.6558
5.02713 -5.79396 0.618105
12.8038 11.5536 1.39752
11.8027 11.8557 1.36991
6.73109 -9.39029 0.939238
12.26 11.7264 1.39461
6.70972 19.6972 1.70339
-6.35235 -4.38514 0.628911
-7.15078 -9.464 0.973528
11.5716 12.1232 1.38671
10.4897 9.17666 1.18682
-5.02905 -11.4738 1.05831
6.12657 -6.04667 0.751466
9.21892 -7.18188 1.00522
-6.78873 -6.68648 0.809425
10.4552 12.3904 1.41534
8.79867 -7.33159 0.995692
10.8533 12.2346 1.43141
-7.30084 -7.75506 0.933658
8.1916 -7.29264 0.973879
10.2314 12.5059 1.45266
-7.06335 -7.73276 0.928511
-6.92951 -8.33008 0.972376
10.6233 12.3489 1.47926
10.5291 13.5819 1.55707
-7.10799 -8.31775 0.99658
11.2425 10.8594 1.43781
-6.31063 -4.22858 0.698339
-6.8526 -8.5826 1.00477
-6.32443 -4.39161 0.709576
11.1032 8.56865 1.31621
10.6612 9.34615 1.32203
6.5159 15.4786 1.57971
10.5329 11.3314 1.46402
-11.2098 2.87251 1.09307
6.15828 -5.96605 0.817524
8.00666 -6.63761 0.999048
10.7612 9.21518 1.37547
9.55323 12.5701 1.52886
9.73845 12.4976 1.56108
7.68897 12.2969 1.44078
7.93708 13.2685 1.53915
11.2444 8.07464 1.41095
7.16245 12.7454 1.47564
9.08376 11.3839 1.48201
7.0222 13.5949 1.56614
5.89221 14.001 1.55964
9.21933 10.5105 1.44512
9.05757 12.3396 1.59055
11.4079 7.67124 1.43423
9.27297 10.0284 1.42221
4.97306 -5.81934 0.821879
-6.8414 -4.65299 0.872604
5.60092 13.9542 1.59621
-7.05413 -4.50349 0.892368
8.94968 10.7237 1.49983
-6.7606 -6.77022 1.02334
5.9105 -5.8339 0.897158
9.71044 8.54952 1.39467
8.98113 9.38054 1.39693
9.27966 10.3447 1.50687
4.80522 13.9267 1.59029
4.23748 -8.05906 0.986382
6.48528 10.8499 1.39116
-6.79727 -3.92249 0.863674
6.36909 11.9423 1.50189
-6.89092 -3.86064 0.874886
9.72845 7.21844 1.3548
6.691 11.4194 1.47423
9.82326 7.04317 1.35804
5.45501 11.6291 1.45262
5.46147 12.1441 1.50422
4.72416 12.2943 1.49052
9.85229 6.6964 1.35778
-6.88767 -4.56084 0.945945
7.40993 -6.2328 1.10381
-7.32473 -0.784821 0.844485
-6.27169 -5.38778 0.952134
5.25028 -5.56926 0.883278
8.89479 7.90769 1.38673
4.42005 -7.18641 0.977456
10.4306 5.16384 1.36314
8.97856 7.81091 1.39907
5.20164 -5.61289 0.904197
8.62179 7.9363 1.39062
8.9246 9.07931 1.48967
-7.04307 -5.64724 1.06806
10.1571 4.7561 1.3364
-6.91464 -3.84952 0.953423
9.15798 6.15639 1.33851
5.23342 11.4717 1.52879
-6.88918 -3.06375 0.915972
-6.87363 -3.24968 0.919304
4.88234 -5.9543 0.93994
5.97669 -6.13195 1.04268
9.39046 5.63256 1.35379
8.48117 7.24075 1.37894
-6.9464 -4.30802 1.00678
-6.87796 -4.53243 1.01509
8.28017 8.60768 1.48197
5.05403 11.3664 1.54491
-6.54691 -5.61486 1.07328
3.71066 -7.57834 1.05162
8.52333 7.76117 1.44258
6.08066 -5.62 1.03823
9.1847 6.07294 1.39552
-6.13219 -5.41095 1.03187
8.56717 6.62766 1.38147
8.10721 7.52727 1.40745
-7.09565 -1.78157 0.935598
-7.00885 -2.30447 0.942131
-6.44254 -5.31627 1.06562
8.84544 5.67093 1.34715
8.17532 8.06559 1.48035
-7.25736 -1.25217 0.944216
-6.89408 -4.11665 1.038
7.44682 6.23384 1.25797
8.09636 7.0567 1.39283
7.98915 8.146 1.47871
-6.9061 -2.82446 0.971272
-6.9074 -2.96427 0.971658
4.57159 10.1241 1.46016
9.01086 4.11694 1.30414
-7.24155 -1.60478 0.974622
6.84251 -4.26101 1.07143
4.93025 -5.94612 1.02419
-7.32634 -1.11611 0.99185
-7.00914 -2.19773 0.982492
-7.0462 -2.26693 0.988761
-5.99259 -4.39647 0.993195
5.19079 -6.56788 1.1158
6.9134 -4.17791 1.08761
8.09106 7.1859 1.46618
-7.1454 -1.71679 0.987839
-7.07706 -1.95416 0.98735
8.80801 4.86279 1.36666
8.34734 5.88403 1.38872
-6.91699 -3.6169 1.06352
8.88002 4.16767 1.34563
3.36386 10.5727 1.51932
-7.30593 -1.19881 1.01335
-6.00776 -4.43968 1.02732
-5.98828 -4.53846 1.02857
7.15155 -3.93616 1.12212
8.08814 6.49896 1.43514
5.3743 9.08373 1.46178
-6.37914 -4.31933 1.05606
4.9348 -5.52798 1.02952
7.18924 -3.83186 1.13394
7.56422 -3.6886 1.16458
3.63717 10.0907 1.49393
3.45205 10.3875 1.52647
-7.36205 -1.08107 1.0387
-7.06795 -2.00216 1.0236
4.97403 -5.28951 1.01514
7.25108 -3.73988 1.14634
7.3677 -3.6746 1.16787
7.87804 -3.35891 1.21765
-7.14864 -1.87311 1.05087
-7.00321 -2.94378 1.1008
-6.00563 -4.37171 1.06829
7.91282 -2.78498 1.22749
8.24719 4.62892 1.38581
5.01081 8.58413 1.45707
8.3846 4.51519 1.40763
7.83831 -2.34313 1.20611
7.16133 5.70087 1.37091
2.97774 9.50537 1.48977
-7.08776 -2.01775 1.10438
7.49097 -3.11267 1.22305
8.24366 4.55594 1.4279
5.80384 7.46427 1.436
5.30874 7.65888 1.42028
5.14503 7.97148 1.44141
5.09865 8.08108 1.44644
7.34081 -3.17285 1.2216
7.68747 -2.75905 1.24392
-6.75019 -1.68129 1.04773
7.84034 -2.25933 1.25138
7.25117 5.43836 1.39201
-7.09721 -1.95067 1.14211
-6.91466 -2.78375 1.15847
6.83042 5.54037 1.37974
-7.34788 -1.09462 1.16027
-7.13783 -1.82249 1.15367
-7.04047 -2.06572 1.14956
-7.11456 -1.87079 1.15434
-6.88994 -2.93205 1.17542
4.82803 7.4863 1.41701
3.44566 -6.03091 1.10922
-7.26866 -1.29814 1.18275
3.52711 -5.70619 1.08079
3.56399 -5.6116 1.07019
7.09454 4.78226 1.39441
4.68115 7.40913 1.42667
-7.06505 -2.02175 1.19756
-7.08698 -1.94525 1.20587
6.98983 4.84364 1.40665
3.83802 7.97361 1.46549
6.058 -3.32191 1.15104
6.65694 4.89042 1.37749
4.68285 7.19766 1.43271
3.83559 -5.29948 1.09963
7.12966 4.43976 1.41444
7.49601 2.86637 1.35648
6.34409 5.30349 1.40171
-7.27219 -1.25453 1.25661
6.77545 4.09648 1.35997
-6.44644 -2.77004 1.19713
5.51271 -3.63182 1.13414
5.69463 -3.52097 1.14964
2.77262 7.90227 1.44836
-7.3654 -1.03852 1.28948
5.33642 -3.7853 1.14061
-6.30664 -2.25811 1.16152
-6.26729 -2.41514 1.17598
4.28088 -4.66442 1.10723
4.49426 -4.47746 1.11295
4.59219 -4.44953 1.1219
-6.79564 -1.73118 1.23527
4.35253 6.53025 1.4003
-7.15295 -0.927428 1.28921
-6.14028 -2.25632 1.16517
6.66085 3.70391 1.36645
6.12113 4.37702 1.36518
3.60765 -5.32596 1.16998
5.16933 5.70926 1.40904
2.53171 7.24558 1.4423
6.5042 3.06124 1.35942
-1.7076 -5.78613 1.14182
6.43487 -1.38779 1.24914
6.29099 2.78585 1.32487
6.2349 2.38788 1.33227
-4.44559 3.9337 1.39526
4.338 3.54505 1.3403
4.22251 3.30129 1.32722
4.66649 -1.6782 1.24541
4.82083 -1.38154 1.25474
-2.13865 4.79087 1.31006
3.72542 -2.95174 1.22208
3.67159 -2.54851 1.19335
3.40445 -2.95987 1.22526
4.01106 2.57389 1.33217
-2.59596 -3.53604 1.25136
-2.32759 -3.5727 1.21683
3.75946 2.06043 1.3037
3.73588 1.98257 1.30307
-2.8396 3.48164 1.38547
-2.29777 -2.42057 1.18775
1.95235 -2.77699 1.21137
-2.12239 2.76535 1.3236
-2.02752 2.75353 1.3298
2.24828 -1.86771 1.2244
2.37807 -1.49696 1.22169
-2.01535 1.87619 1.29529
-2.06545 -1.44355 1.22864
1.44709 -2.06697 1.24412
-1.99327 -1.08811 1.21459
-1.92559 -0.707834 1.22002
-1.92732 -0.703615 1.2456
-1.95626 -0.344416 1.22881
-1.8935 -0.564806 1.22988
-1.89309 -0.531005 1.23495
8.23415 -8.71426 -7.47794
12.148 -10.306 -8.81585
-8.72028 15.5649 -6.92181
20.6645 25.1652 -11.6995
-8.7939 -2.51844 -2.57757
-34.2423 -22.874 -7.60745
-33.8516 -22.138 -5.96838
-33.5795 -22.82 -6.02957
-31.0067 -19.8857 -2.77033
9.30166 -8.85963 -0.392434
-7.59776 16.3771 -0.445583
-29.3232 -11.3471 0.724138
-6.91119 -8.26 0.459968
16.8253 24.1604 1.59948
11.453 16.1072 1.63475
-6.68941 -6.66243 0.882731
4.25348 12.3426 1.50473
8.75967 9.12452 1.47963
7.99001 -8.78307 -10.402
8.85283 -8.55951 -10.5216
6.97158 -11.9611 -11.5368
6.88676 -11.3727 -10.9171
8.17062 -8.28295 -9.55358
7.03593 -12.0516 -11.3473
7.08127 -10.9957 -10.4776
8.02022 -8.39642 -9.22426
6.74205 -11.3081 -10.3099
6.45886 -11.7207 -10.2334
7.77495 -8.87041 -8.99205
6.21892 -14.3449 -11.8312
8.31858 -8.72167 -9.12283
6.3132 -11.9331 -10.1956
6.1597 -12.1107 -10.1314
7.5092 -9.46764 -9.02219
7.92746 -9.07634 -8.94666
10.4982 -9.47744 -10.5186
6.13167 -14.1381 -11.3902
6.11125 -13.6882 -11.0211
6.14382 -12.601 -10.3107
9.21982 -8.848 -9.37385
9.30797 -9.09537 -9.49147
5.87705 -12.5296 -10.0532
9.38394 -9.01175 -9.28485
6.87812 -11.152 -9.29843
5.62702 -12.9945 -10.0221
9.71765 -9.10503 -9.43713
7.62673 -9.36558 -8.49169
10.0242 -9.21126 -9.56373
10.948 -9.51987 -10.1799
11.4753 -9.72765 -10.1026
8.40501 -8.62865 -7.97477
7.44891 -9.32113 -7.88353
8.18817 -8.74036 -7.91609
7.64677 -9.37463 -7.91462
7.85619 -9.42487 -7.86366
8.34128 -8.55645 -7.63863
0.356303 15.8693 -10.128
7.54631 -9.34692 -7.64451
10.9426 -9.63504 -9.26977
7.24521 -10.73 -8.19392
8.17547 -8.51837 -7.44578
4.62031 -15.4264 -10.1273
8.73424 -8.72104 -7.6364
7.94084 -9.05439 -7.42839
4.05434 -18.038 -11.388
8.21794 -8.64861 -7.29334
4.08948 -17.3152 -10.8559
0.142397 14.8732 -9.05021
6.67176 -11.2911 -7.98437
7.76119 -9.29 -7.34477
10.1558 -9.34014 -8.37192
6.83804 -11.2794 -7.91814
8.08097 -9.22757 -7.3625
11.3031 -9.72609 -8.91502
5.41298 -13.886 -8.83875
7.75418 -9.28893 -7.17558
9.37597 -9.05745 -7.72447
6.92034 -11.1438 -7.76342
8.00337 -9.15061 -7.13305
9.78029 -9.21329 -7.83028
14.9081 7.44972 -9.68014
8.69062 -8.85468 -7.16891
6.95038 -10.9916 -7.47368
2.64459 -11.2297 -6.63478
7.87956 -9.09414 -6.89137
9.63215 -9.16574 -7.55261
10.8241 -9.52262 -8.13249
3.27862 -20.5789 -11.7189
6.81727 -11.0077 -7.25835
10.1349 -9.31753 -7.70951
12.3823 -10.3896 -9.06398
9.26511 -9.03144 -7.22974
4.62635 -14.3228 -8.39077
8.02509 -9.24063 -6.79706
14.8311 7.5827 -9.14585
9.72444 -9.13226 -7.32626
0.833623 17.476 -9.55471
2.73946 -19.8257 -10.9133
11.1635 -9.67374 -8.02007
4.24501 -14.4586 -8.15636
14.744 7.71072 -8.96323
15.1436 10.4561 -9.88193
14.0759 7.76573 -8.59089
10.9832 -9.64632 -7.77308
13.3112 -10.8397 -9.13122
3.04146 -19.3044 -10.2737
11.3902 -9.85456 -7.66334
2.16773 -20.3538 -10.3313
10.2913 -9.3695 -6.99818
14.3195 -11.3258 -9.16614
13.8568 -11.2077 -8.92153
11.0415 -9.68452 -7.3168
7.5265 -9.35992 -5.94771
3.56717 -8.47759 -4.53266
-8.69029 -1.90807 -4.37426
2.22042 -20.1163 -9.92663
4.53671 -9.30835 -5.06421
0.400816 13.6623 -6.69125
7.62551 -9.29146 -5.86521
-8.44989 16.1219 -8.81396
-9.18927 -2.42928 -4.5797
15.0521 -11.6236 -9.13863
19.4562 5.56689 -9.67855
-10.2986 -2.54979 -5.01813
1.90902 -20.5285 -9.80358
17.3042 16.2622 -11.2484
7.60208 -11.2384 -6.40179
20.1133 5.429 -9.8116
14.0759 -11.1439 -8.34831
2.93555 -17.3616 -8.18696
19.4354 5.75055 -9.36419
17.9205 -13.0596 -10.242
9.87716 -2.49488 -4.70735
20.3696 5.16296 -9.69594
17.4319 16.3932 -11.0282
1.8083 -20.1832 -9.27421
9.69504 -9.06559 -6.07773
-9.19883 -1.66968 -4.26362
9.46319 -3.47241 -4.59127
6.73009 -11.3449 -5.99953
9.9246 -2.62148 -4.65635
19.3281 5.89381 -9.09783
17.8291 17.6856 -11.2911
9.37895 -3.08959 -4.44511
15.4911 -11.9202 -8.77121
7.05521 -11.5912 -6.06903
7.1672 -10.9405 -5.82952
9.56982 -3.40855 -4.5273
-9.95672 16.3165 -8.50832
17.7296 -12.9391 -9.75288
19.6162 5.65097 -9.04879
16.168 7.33371 -7.86257
17.9393 18.1208 -11.2787
16.4914 -12.2647 -9.05765
-11.1878 17.0106 -8.9473
-6.53156 14.9221 -7.14029
-5.224 4.89938 -3.11982
20.2188 5.48981 -9.10905
9.56872 -3.40881 -4.38403
18.3401 18.5897 -11.2256
15.8838 -12.2232 -8.62384
14.9196 7.45988 -7.1199
3.84371 -9.3141 -4.28084
-11.1146 16.902 -8.5623
6.95965 -10.93 -5.46353
-13.5488 3.32042 -5.87696
0.743056 -22.3204 -9.41157
15.864 -12.0113 -8.32106
-5.15124 5.67175 -3.20483
0.997464 -22.1795 -9.3072
1.23242 -20.76 -8.71232
14.2244 7.62919 -6.75217
18.6798 19.4678 -11.2746
3.78705 -8.96463 -4.05819
14.8318 7.76153 -6.96894
18.0413 19.2695 -10.9563
-9.49985 -1.09032 -3.94712
4.01015 -8.50812 -3.85364
14.0913 7.78104 -6.60894
6.85913 -11.0108 -5.3033
-13.5901 2.53866 -5.65536
-7.93075 15.361 -7.02348
19.4005 21.0819 -11.6088
15.1353 7.27266 -6.76656
-5.25721 14.3513 -6.12649
14.0024 -11.0701 -6.99098
1.53439 19.3188 -7.52822
-8.70938 15.727 -6.98455
19.0734 5.8168 -7.72689
-1.75169 13.2488 -5.17564
5.30429 -9.40896 -4.16524
-2.38035 13.4596 -5.24908
19.7459 22.8435 -11.5799
4.66573 -8.52475 -3.69056
19.5033 5.59515 -7.7215
0.873035 -26.3494 -10.0199
14.962 -11.5296 -7.10819
20.0663 5.43642 -7.78162
9.45382 -3.44441 -3.76203
0.531472 -22.5292 -8.39898
3.25585 -10.8179 -4.22026
20.357 23.685 -11.6001
0.909036 -8.71406 -3.24928
14.0765 -11.1477 -6.62073
20.4776 5.20831 -7.76951
18.0058 17.7926 -9.25223
-13.0085 2.27896 -4.80125
21.0254 25.1093 -11.88
2.29191 -13.2825 -4.85555
13.0768 -10.5749 -6.05137
0.794739 15.4722 -5.54435
-8.19198 -2.79555 -3.09601
0.409396 -21.7326 -7.77074
-4.20319 13.7875 -5.12566
0.63735 -21.8386 -7.76451
15.9211 -12.0245 -7.07113
-15.6624 18.106 -8.43589
5.939 -11.3577 -4.50626
-10.979 16.5665 -6.94016
0.094496 -18.431 -6.47949
14.3147 -11.3445 -6.38623
20.4328 5.38125 -7.37575
0.656316 -22.9388 -7.92571
-4.99641 14.4988 -5.25302
3.6433 -8.45739 -3.16981
4.88317 -9.04509 -3.52229
-14.4415 17.9283 -7.87873
2.27768 -10.8968 -3.81485
-8.85108 16.054 -6.24764
3.03889 -13.7459 -4.79911
-14.9146 18.3048 -8.00333
20.2502 5.50581 -7.05412
22.2664 27.5463 -11.8402
36.3883 -20.5411 -13.9628
-5.28678 14.0181 -4.97444
1.92084 20.8532 -6.95029
1.26765 -10.2471 -3.41398
32.7224 -20.5705 -12.7099
-5.23523 14.4103 -4.97839
-12.5349 17.1592 -6.89232
18.6564 -13.2944 -7.43883
3.56197 -8.6774 -3.0074
6.23218 -10.1326 -3.81215
2.315 -11.0127 -3.58108
-4.51402 -33.9265 -10.8795
-1.12912 -23.695 -7.55188
15.0938 10.3955 -5.78494
-13.1543 17.5031 -6.9195
-17.9024 19.3088 -8.27623
2.99977 -9.67433 -3.19571
6.98018 -11.1237 -4.05978
1.38249 -21.8256 -6.76548
-2.55304 -27.2131 -8.39086
7.25642 33.5297 -10.4715
0.769991 15.0649 -4.58277
-11.0849 16.7239 -6.04621
-2.67675 -26.2988 -7.96202
-14.2797 17.8533 -6.82036
-5.25105 -34.4491 -10.3768
0.834862 -24.8964 -7.4489
-5.37004 14.7654 -4.67225
2.08895 20.816 -6.16544
-21.1652 19.7345 -8.53688
18.2912 5.82072 -5.6506
-4.28127 14.3731 -4.40841
-7.89291 15.3106 -5.05247
4.26274 -9.15794 -2.96883
4.64822 -11.6459 -3.66617
-12.59 2.21789 -3.67405
-32.5597 -46.1222 -16.2469
-15.125 18.1948 -6.80071
6.97945 -11.116 -3.77842
2.56643 -9.55492 -2.811
12.9777 -10.5044 -4.75117
-8.44108 -2.45661 -2.4928
21.2837 27.4507 -9.84336
-8.56798 -2.2582 -2.50379
-2.52712 -25.8016 -7.2767
-12.9952 1.99135 -3.66107
4.40036 -11.361 -3.38122
-9.26568 15.9332 -5.05908
-12.9958 17.3315 -5.94905
-5.36821 14.3234 -4.1796
-8.40051 -40.8064 -11.4004
-21.3478 19.9211 -7.84892
-9.68368 16.0564 -5.0239
-26.5478 20.3933 -8.90538
11.496 11.5708 -4.30491
4.3397 -11.3281 -3.21336
47.5812 -13.8319 -13.1258
-8.08354 -38.154 -10.2528
4.09676 -8.67275 -2.52545
11.2059 -9.96707 -3.92303
-14.3752 17.9985 -5.98872
6.55129 -10.4471 -3.19151
3.1834 -9.66172 -2.62969
-29.7417 -43.5603 -13.6213
-4.30916 -28.271 -7.40046
3.5493 -10.3956 -2.83223
4.07596 -9.40481 -2.6344
15.6762 -11.7874 -5.00403
-7.11469 15.1554 -4.23653
-31.1818 -41.5852 -13.1816
4.32391 -11.1749 -3.03234
4.26128 -7.71576 -2.24322
6.55476 -10.6917 -3.12738
45.2299 -13.6749 -11.7802
-28.0739 21.1805 -8.69404
-11.4683 16.8481 -5.02347
-27.311 -39.8415 -11.8777
-9.76057 -38.4226 -9.78012
-24.321 20.4275 -7.8047
4.35899 -10.3527 -2.75969
-11.9983 17.1854 -5.08104
-7.80277 15.2014 -4.11742
10.3028 -9.29318 -3.32205
40.6204 -13.4931 -10.2418
15.1829 7.59326 -4.04204
-6.23037 -35.6897 -8.63168
3.97114 -9.09977 -2.35249
47.446 -12.6985 -11.6563
-11.965 -44.06 -10.8172
4.21133 -9.01093 -2.37266
3.87408 -11.1112 -2.77291
4.91713 -8.7087 -2.35263
-12.7071 17.3162 -4.99778
11.0403 -9.67513 -3.35498
-6.12529 -31.0679 -7.22641
-26.962 20.8241 -7.72208
41.8666 -9.15607 -9.725
-30.2591 21.9696 -8.38344
-35.1836 -23.0567 -9.42589
-5.30658 -25.2668 -5.7585
41.0556 -12.6916 -9.64786
5.46544 -9.49297 -2.44551
-12.3781 2.82442 -2.78579
40.9316 -11.995 -9.42333
42.9355 -12.2507 -9.82248
27.791 39.142 -10.5164
-5.34355 14.0174 -3.2789
13.4424 -10.8169 -3.7976
38.3494 -12.3242 -8.85476
-23.2267 20.2432 -6.68271
-28.7825 -70.9632 -16.6187
4.31868 -9.72013 -2.30637
4.54791 -9.19798 -2.21619
-14.488 18.0502 -4.94227
-30.682 22.2868 -8.09723
-31.5484 22.3887 -8.26933
-27.3823 -72.6515 -16.6444
-10.6219 16.5969 -4.17744
-8.33262 -35.3758 -7.72964
3.19737 -9.70642 -2.17904
3.97594 -9.85328 -2.26528
46.1941 -10.7102 -10.1218
15.0145 7.52066 -3.56072
-15.0569 18.5347 -5.05526
5.17345 -9.07137 -2.19389
27.0029 39.0708 -9.92731
-27.4697 -26.8821 -7.98107
15.0568 7.88006 -3.52889
-29.9525 -23.1324 -7.85127
-31.9485 -81.9194 -18.2064
40.8241 -10.9864 -8.74267
-11.3733 16.7568 -4.11474
-15.5174 18.3464 -4.89124
-34.8518 23.3951 -8.52946
44.8026 -9.77248 -9.35069
-13.0401 -41.9609 -8.93185
4.14475 -9.75506 -2.15628
11.6407 -9.67668 -3.07971
-11.916 17.0998 -4.15987
-19.5019 -55.9724 -11.8475
-12.7921 -39.7396 -8.26643
4.07868 -9.94276 -2.12763
-33.8746 -23.1631 -8.09015
-26.5192 20.8133 -6.6347
-32.9162 -23.5455 -7.8894
-6.83628 15.1048 -3.21727
-26.0105 -61.1178 -12.9033
-33.3302 -22.1889 -7.71643
3.44287 -9.38133 -1.92953
46.2703 -10.7205 -9.11977
-12.6557 17.2789 -4.09383
3.99734 -9.36404 -1.94288
-36.1821 -21.9781 -8.01415
-21.0689 -34.2261 -7.64424
-15.331 -44.237 -8.85985
38.1866 -12.5969 -7.60092
-35.5921 23.9047 -8.02381
-33.4563 -23.1056 -7.63861
-32.4163 -23.7171 -7.54021
-20.9281 -51.8485 -10.5219
-16.6161 -45.1352 -8.92271
3.82613 -9.22086 -1.84388
42.9268 -11.5696 -8.25529
5.77076 -9.73489 -2.0739
-24.0605 -54.5585 -10.9181
-20.1024 -49.8971 -9.7308
-14.4483 18.01 -4.09364
-30.8785 -24.9042 -7.05185
-20.1593 -26.863 -6.00644
-38.9486 24.5771 -8.1258
-26.5263 20.8283 -5.87002
-33.7481 23.0937 -7.10017
3.9187 -10.0733 -1.87407
4.77989 -8.62707 -1.71393
14.0657 7.55373 -2.75419
14.1427 8.11578 -2.79325
-30.5352 22.2048 -6.47243
42.6031 -12.0534 -7.53724
42.3902 -10.9787 -7.45375
-31.0361 -24.6486 -6.72369
-20.8879 19.893 -4.84358
-20.0301 -49.7876 -9.06871
14.9271 7.48153 -2.80081
-31.3957 22.2263 -6.42551
-23.1096 -55.0983 -9.87385
43.9535 -11.8408 -7.39829
-10.2645 16.2952 -3.10727
-20.3038 -50.3713 -8.66275
-34.6304 -23.9056 -6.63131
-22.582 19.8403 -4.70688
-23.9628 20.4562 -4.88303
-39.6506 24.0072 -7.18286
-11.1264 16.6526 -3.09134
3.48019 -9.55109 -1.57202
3.88017 -10.2606 -1.69836
-7.5432 15.2991 -2.60474
-30.7581 22.3866 -5.81534
-31.5326 -24.3548 -6.05899
-27.7459 -25.9532 -5.75593
42.5849 -11.0708 -6.68762
45.2771 -9.86432 -7.05926
-6.47519 14.4218 -2.36471
9.84977 -5.163 -1.6506
-33.2447 -23.9778 -6.10451
-25.8335 -65.3216 -10.4192
10.2232 -9.19182 -2.04869
45.4244 -10.5084 -6.92351
-36.3641 -24.2071 -6.42958
-31.2761 -25.7978 -5.93108
-12.4705 -41.321 -6.35152
17 -12.2994 -3.0733
-25.1575 20.7129 -4.73574
-24.2454 -54.3254 -8.57338
-7.54233 15.1061 -2.41374
-12.6012 17.181 -3.03751
6.0568 -11.5714 -1.8661
-13.2922 17.7662 -3.11649
-34.3345 23.1938 -5.82543
6.78178 -11.0777 -1.81524
37.905 -12.5094 -5.61358
-30.9259 -24.7809 -5.53118
-32.6532 23.4663 -5.57056
-20.2371 -48.7754 -7.29437
45.5786 -10.1965 -6.43978
-6.79507 15.027 -2.25312
-22.1463 -57.7995 -8.40939
7.77047 -9.40363 -1.63699
-13.8814 17.7244 -3.03469
13.2685 -10.5827 -2.29627
-22.024 20.0335 -4.00345
42.5098 -10.991 -5.82872
45.2969 -9.92195 -6.1372
-22.4063 19.7178 -3.9029
-32.4473 -24.2797 -5.29368
-14.7642 18.0794 -3.01793
-33.6742 22.4758 -5.25636
-38.0669 -16.0733 -5.3356
7.03739 -10.466 -1.61806
10.8244 8.86238 -1.79688
-33.5584 -23.1262 -5.21587
-31.1128 22.7131 -4.873
-35.319 -22.0393 -5.21849
42.3663 -10.9566 -5.47586
6.816 -10.3982 -1.55345
-7.57489 15.1509 -2.09692
-24.7815 20.8086 -3.96248
-33.0377 23.2841 -4.98596
6.31955 -12.12 -1.66497
45.2473 -9.65349 -5.66638
15.0739 7.89741 -2.04644
-17.692 -42.8496 -5.59053
7.10793 -10.5639 -1.53295
-20.424 9.05169 -2.64437
-14.0837 -42.6035 -5.27665
-31.6177 -24.3767 -4.66857
-31.1058 -24.8768 -4.66122
42.4551 -11.3725 -5.16527
11.2676 -9.70347 -1.72265
-29.5757 22.4257 -4.2705
6.66318 -10.8567 -1.45819
7.50654 -9.2419 -1.36187
11.6224 -9.75672 -1.72344
9.46586 -4.61789 -1.19273
15.0514 7.73455 -1.90758
-10.2495 16.3169 -2.1744
-31.8406 23.2662 -4.4181
39.2335 -12.9153 -4.63156
9.38186 -9.04729 -1.44187
-10.9619 16.4405 -2.14789
6.82323 -12.8458 -1.57539
45.3919 -9.8653 -5.03531
10.8238 8.89464 -1.5104
16.8565 -12.5215 -2.25345
42.655 -11.0629 -4.72138
9.64526 -9.00318 -1.39781
8.39813 -8.48346 -1.25049
-30.6768 -24.5485 -4.09147
-29.538 -59.2476 -6.9068
15.0477 7.54665 -1.72031
-31.5606 -24.3352 -4.08931
-12.7359 17.3617 -2.18629
-12.6588 16.9599 -2.10354
10.2367 -9.11402 -1.34263
-20.4421 -51.9156 -5.47052
6.34389 -12.1488 -1.32635
16.7238 -12.2354 -1.99165
42.5443 -11.4323 -4.22233
-30.0386 -60.7197 -6.44025
-20.388 -53.5047 -5.43819
-23.0935 20.1997 -2.86847
46.1122 -10.2582 -4.41186
9.74314 -9.01169 -1.22852
40.0821 -13.2221 -3.93256
-14.8793 18.2396 -2.13177
-29.5322 -13.4646 -2.95886
-31.6107 -61.6228 -6.3842
15.9315 -11.9246 -1.81009
8.65715 -8.74837 -1.11447
12.9404 -10.6817 -1.46103
45.6946 -10.5913 -4.01776
9.42715 -9.05226 -1.09859
10.9862 -9.67472 -1.23039
-33.7789 23.1977 -3.41045
16.9253 -12.3426 -1.73484
-16.6505 -43.3277 -3.71808
14.7466 -11.5309 -1.4926
-11.591 -32.4497 -2.71998
-29.5064 22.4355 -2.86703
-32.7285 23.1339 -3.09456
-22.2909 -50.9185 -4.29141
-50.4176 27.4396 -4.34746
-21.1862 19.9395 -2.1167
-32.9539 23.3095 -2.92589
16.4595 -12.2985 -1.50289
42.5748 -11.3932 -3.21053
-38.2686 -72.408 -5.91057
14.033 -11.1029 -1.2805
-15.3134 -40.6225 -2.99651
10.8 -9.64512 -0.992003
-23.116 20.2403 -2.07551
12.919 -10.6602 -1.12111
18.0483 -13.0903 -1.48621
16.1192 -12.1924 -1.33462
-14.4365 -40.0266 -2.7526
44.3732 -11.5405 -2.86551
-31.1102 -63.0343 -4.2896
36.1454 -8.76896 -2.28237
43.517 -9.96039 -2.74033
6.08185 -13.1467 -0.865665
31.2051 -20.6484 -2.23862
-9.73348 16.2487 -1.1136
-15.3274 -39.9829 -2.43828
16.6929 -12.4754 -1.16993
-9.65765 -12.5196 -0.866596
15.0405 7.71635 -0.914277
13.9588 -11.0498 -0.95322
-12.6603 17.1568 -1.11398
-16.2207 -40.2044 -2.30246
14.9348 7.85318 -0.827287
-16.0399 -41.0002 -2.16019
-14.0123 17.7607 -1.08218
9.5916 -9.04745 -0.604726
-23.4838 -53.8691 -2.65903
12.4967 -10.2734 -0.749918
-15.7176 -43.8145 -2.06658
-16.9365 -41.728 -1.92795
6.88883 -12.7204 -0.64171
-13.6703 -41.6718 -1.86809
-51.7878 28.1642 -2.38906
18.4386 -13.2469 -0.921235
16.887 -12.5521 -0.819306
-40.2175 -78.0585 -3.31242
-17.8816 -46.8915 -1.84817
-33.258 22.8515 -1.47651
43.0589 -11.0947 -1.60078
-33.5883 -66.813 -2.50163
-25.3129 -55.4732 -2.05279
20.3832 23.5744 -1.03532
-21.229 19.8937 -0.948411
8.16403 -14.4091 -0.556119
9.44705 -9.01869 -0.423341
11.3372 -9.98081 -0.490925
18.6954 -13.2191 -0.752341
35.1416 -13.2543 -1.24609
22.2357 26.9163 -1.12006
-27.2389 -13.6628 -0.95539
-22.6726 20.1902 -0.925733
