ply
format ascii 1.0 
element vertex 1873
comment /media/mkaihara/Seagate Backup Plus Drive/model_iterations/model_65.ply
property float32 x 
property float32 y 
property float32 z 
end_header 
-7.69575 15.5838 -2.62112
-33.5121 -23.5509 -6.17116
-32.7799 -24.0992 -6.16476
-27.9194 -26.1958 -5.76151
-33.3726 -24.0194 -6.16715
-31.5278 -25.2374 -6.03697
-34.9746 -23.3604 -6.24335
-24.9974 20.9841 -4.81167
-33.2963 -24.9166 -6.12868
-32.2597 -24.4294 -5.97572
-25.6693 21.1524 -4.86628
-12.632 -41.8602 -6.40913
-12.6678 17.3286 -3.09265
-7.7094 15.4242 -2.45943
3.50351 -9.54656 -1.44704
38.3439 -12.6107 -5.74133
-33.6331 -24.7752 -5.9093
-30.7609 -24.4476 -5.52992
-30.2396 -25.505 -5.57063
-20.75 -49.9974 -7.54337
-6.87381 15.2314 -2.26908
-14.0621 17.9664 -3.09531
-11.8281 -41.4039 -5.86337
-7.45431 15.1081 -2.26271
-24.6064 -64.0552 -9.28375
-22.5135 20.4742 -4.05307
-24.9447 -56.5395 -8.21127
-31.4903 -24.3089 -5.25115
45.2396 -10.4247 -6.10544
44.6114 -9.80699 -6.01736
-13.5583 -42.1353 -5.81726
6.62254 -10.9144 -1.67918
-15.0816 18.4727 -3.10394
-22.9223 20.189 -3.95999
-32.8002 -24.4867 -5.26968
10.7036 8.77891 -1.78678
-33.8565 23.2792 -5.27563
-29.8757 22.7339 -4.73271
-31.1052 -24.3529 -4.98381
-12.8594 -36.5866 -4.90371
9.65223 -9.03367 -1.64978
12.7618 -10.4297 -2.07509
-33.9842 23.8403 -5.19111
-36.2704 -22.5965 -5.3223
-30.7696 -25.4326 -4.96039
6.76417 -10.2873 -1.53667
-33.105 -23.3997 -5.02371
-13.7236 -42.8153 -5.53033
13.1528 -10.9647 -2.10217
41.6895 -10.8352 -5.31884
-16.2587 18.7174 -3.03078
-16.0404 -38.8797 -5.14151
-8.7909 15.7161 -2.19363
43.5578 -10.0338 -5.41254
14.9718 7.81565 -2.02829
9.39751 -8.91695 -1.54661
-33.9133 -23.6617 -4.90359
-17.9469 19.5056 -3.10181
-20.8382 9.22145 -2.70032
-31.9016 -24.6977 -4.75837
-25.9443 -58.7803 -7.54926
11.2631 -9.68894 -1.73962
42.0382 -11.2538 -5.12436
14.6662 -11.3877 -2.13441
14.8989 7.65828 -1.90437
-30.0967 22.8884 -4.31373
7.25025 -11.0098 -1.49612
-10.3052 16.4535 -2.17467
9.42857 -9.29529 -1.47396
12.7409 -10.4645 -1.8386
13.9333 -10.9974 -1.97465
9.43245 -9.09635 -1.45449
7.04196 -10.4283 -1.37854
44.5305 -9.72556 -4.96142
-10.9576 16.4602 -2.13266
-33.3753 23.5344 -4.43542
11.684 -9.81646 -1.64794
6.16186 -12.6713 -1.48235
7.53797 -11.5385 -1.43443
9.8252 -8.88504 -1.39379
-15.4889 -44.7581 -4.9659
16.5074 -12.2245 -2.15453
-30.8637 -62.0065 -7.18501
14.8417 7.4735 -1.69817
-31.1963 -24.8622 -4.09784
13.7879 -10.9092 -1.80204
-31.9624 -24.7238 -4.08878
14.8288 7.74774 -1.68078
-12.7309 17.0253 -2.08939
-20.5636 -52.1374 -5.43139
-33.0806 -66.8262 -7.13931
-23.5306 20.5839 -2.95397
-31.0561 -25.4415 -3.81651
-31.0351 -25.7793 -3.84552
-21.8947 -57.292 -5.78366
-14.1494 18.1058 -2.15126
-31.3179 -24.5016 -3.71123
-15.814 -43.0735 -4.27486
-14.0226 -43.5842 -4.27109
9.79512 -9.07891 -1.24116
-33.62 -65.4898 -6.78278
8.54317 -8.64021 -1.10336
16.4406 -12.2498 -1.87596
-15.0537 18.4664 -2.13769
-35.9594 -22.366 -3.83248
-33.3232 23.5275 -3.59313
-31.1149 -25.1025 -3.53323
13.9967 -11.1323 -1.58778
-32.2362 -19.6442 -3.22119
11.0192 -9.67023 -1.2485
-26.8055 21.7432 -2.89932
-11.4218 -35.5491 -3.15581
9.37453 -8.98864 -1.09057
-34.0477 23.409 -3.43335
8.66569 -8.66729 -1.00682
16.7025 -12.1812 -1.68893
-16.8298 -43.732 -3.76637
-21.603 -49.4177 -4.22226
-15.3795 -37.9678 -3.2474
-13.3924 -37.5762 -3.16975
9.17826 -8.91947 -1.00566
11.2532 -9.75511 -1.16771
14.8108 -11.5846 -1.48887
-30.1073 22.9592 -2.94664
-29.322 -13.6869 -2.51408
11.8221 -10.0155 -1.20113
-23.3726 -52.0533 -4.37091
12.7351 -10.5706 -1.25405
-41.5516 -78.8311 -6.45003
9.92224 -9.10648 -0.976174
10.8754 -9.7076 -1.01619
-33.3308 -20.6916 -2.71423
11.9158 -10.0146 -1.07788
14.6584 -11.5413 -1.29686
-15.6309 -39.4968 -2.89124
-15.241 -40.3193 -2.95526
18.4947 -13.3659 -1.5151
-23.4277 20.5122 -2.06681
-25.0955 -57.8905 -4.17303
12.8307 -10.5547 -1.11083
-14.7576 -40.9424 -2.82879
15.2184 -11.4905 -1.2393
-32.7861 -66.3811 -4.65024
-15.1262 -46.885 -3.0618
-33.0378 23.3389 -2.47573
-33.2345 -65.7227 -4.48342
-17.1193 -41.701 -2.74908
30.7395 -20.3802 -2.2455
41.8011 -10.9007 -2.62278
36.3215 -8.75705 -2.26384
-15.2593 -40.9683 -2.64184
-27.1333 22.021 -1.9813
-29.0509 -14.3025 -1.87134
-15.9682 -41.5995 -2.48585
16.8296 -12.5577 -1.1765
-27.2173 -16.3784 -1.71017
42.3851 -9.44125 -2.23334
-9.4082 -12.5709 -0.79717
-15.5543 -41.3948 -2.20309
5.69065 -12.4198 -0.678861
-14.2708 18.091 -1.12375
-15.2698 -47.995 -2.4741
14.8451 7.78813 -0.807493
-16.4753 -42.2301 -2.15487
-14.7243 -47.888 -2.36451
18.641 -13.2259 -1.09557
-17.4029 -50.4695 -2.49084
36.6088 -8.99135 -1.76648
-28.9514 -14.8043 -1.45511
-24.6659 -56.5191 -2.73534
-16.6839 -41.0501 -1.97298
9.63353 -9.09063 -0.590585
12.5636 -10.3119 -0.729568
44.0093 -10.0699 -2.00783
-14.1887 -43.1592 -1.93421
-32.9624 23.3016 -1.68099
-54.0559 29.3575 -2.4535
-34.0155 23.409 -1.51495
-19.0681 -49.8649 -2.00423
-34.7362 -21.874 -1.4675
9.72041 -9.04616 -0.488223
6.58839 -10.8034 -0.439112
-13.1857 -39.308 -1.3728
7.43462 -13.0497 -0.513003
18.536 -13.1286 -0.767278
-26.9771 -59.0843 -2.13921
-13.4738 -38.2253 -1.31359
20.9851 24.2031 -1.02837
-23.2492 20.64 -0.979006
-21.0967 -54.0196 -1.79886
20.9367 -14.2775 -0.77043
-27.6981 -14.2537 -0.944349
-13.1502 -42.0857 -1.3113
-24.2196 20.5793 -0.912706
-23.9872 -55.204 -1.7126
-17.7542 -48.0515 -1.47812
22.4659 -10.1101 -0.743594
-34.5924 -21.0773 -1.12055
-9.80226 -12.8605 -0.461903
-23.1799 -54.6645 -1.67641
17.9568 -13.3775 -0.57003
30.0451 50.1393 -1.51397
-30.2638 23.0908 -0.978487
-31.4307 22.989 -0.96286
-27.309 -13.1218 -0.742557
9.54092 -8.97839 -0.317094
-20.9765 -33.787 -0.927548
-40.4365 14.0264 -0.935619
21.1358 -14.1422 -0.53998
18.364 -13.2395 -0.424751
12.7741 -10.4943 -0.275414
-7.28405 15.767 -0.304062
-33.2771 10.5237 -0.576747
-28.3749 -13.5121 -0.497611
-37.2273 -21.2005 -0.650921
-18.3014 -44.8646 -0.749936
-7.93773 16.6933 -0.251072
-32.678 -24.4114 -0.565687
-34.0375 -23.2037 -0.527356
-35.3292 -71.3845 -0.987481
17.231 -12.8559 -0.260804
18.1526 -13.0697 -0.283622
28.7864 -17.7505 -0.451318
-21.678 -55.5217 -0.723439
-30.4486 23.2142 -0.408169
-37.745 -21.0995 -0.477612
-28.0945 -59.9479 -0.705279
-18.7988 -43.1175 -0.503794
-53.73 29.4457 -0.509507
-34.0889 -60.1344 -0.637323
-20.2873 -53.206 -0.541244
37.3032 -9.012 -0.352702
-14.3811 18.2533 -0.163122
-35.9199 -79.9904 -0.600629
-18.0968 -43.8932 -0.323582
9.54844 -8.98478 -0.0407954
14.7435 7.76142 -0.0282002
-29.5013 -13.1606 -0.0584951
-11.707 -17.045 0.0250908
-12.9134 -19.4367 0.0443143
-18.8616 -43.2965 0.194663
9.4149 -8.96373 0.0592844
-32.9933 23.3494 0.210283
-22.0702 -55.7175 0.289795
-30.3061 -14.0656 0.200572
16.7614 -12.2297 0.116026
-13.1658 -20.1867 0.15713
14.6502 -11.4121 0.146164
-53.5184 19.1747 0.503397
7.05731 -12.126 0.117783
15.927 -11.8021 0.168308
-36.6304 -22.1661 0.449044
37.985 -7.8072 0.403845
-35.464 -22.2245 0.476638
-12.6735 -35.0038 0.434154
-13.1533 -35.3706 0.456951
-11.293 -32.5187 0.41858
-9.70771 -30.0361 0.381759
25.3832 51.3966 0.747277
9.56038 -8.99233 0.169712
-12.8436 -19.9022 0.322374
-10.9816 -33.3356 0.480459
8.54464 -8.48839 0.182624
6.25966 -12.8061 0.207587
7.12377 -10.9773 0.199769
9.31691 -9.03207 0.187443
8.00571 -9.08381 0.193666
9.6954 -8.97727 0.217682
37.4672 -8.02728 0.62877
-24.0869 20.6559 0.568689
-33.3777 -22.4566 0.692104
-34.6929 -25.454 0.753438
12.8617 -10.5659 0.272757
13.1706 -10.6231 0.317126
-9.92943 -12.5896 0.302647
6.80122 -11.1464 0.254628
7.96127 -9.35655 0.241593
25.9135 53.3171 1.18874
6.94991 -10.924 0.260312
9.15097 -8.65848 0.26768
11.483 -9.86987 0.331844
17.1717 -7.66992 0.378651
7.18334 -10.8988 0.295449
-9.46482 -12.2188 0.390863
-12.851 -19.7278 0.562303
7.62129 -9.27877 0.273543
7.80432 -9.3331 0.282478
-25.8858 21.7565 0.878684
-29.0533 -9.31686 0.765638
9.58837 -8.92141 0.336955
17.394 -12.7066 0.543112
18.2205 -13.1198 0.558444
-23.1835 20.2975 0.80313
-28.0023 22.1306 0.932094
-29.0658 -8.72364 0.794477
-33.3307 -17.772 1.02578
-13.4174 -20.2609 0.645721
14.6857 -11.4107 0.496277
22.6149 -3.29043 0.643218
-12.2492 -19.1 0.656279
24.8269 -4.70321 0.735566
16.1561 25.0724 0.894344
-28.1858 -20.7641 1.03577
7.19487 -11.2702 0.401506
6.93748 -10.6535 0.387242
14.5602 23.7189 0.854857
-7.62807 -8.8144 0.356432
12.9699 -10.6127 0.511798
-7.32527 -9.52071 0.367896
-28.6911 -8.09824 0.992131
-11.9367 -17.449 0.707826
7.84319 -9.31615 0.403003
16.0434 10.9611 0.696102
10.8142 -9.41641 0.520975
11.84 -10.0036 0.56486
22.2985 44.9021 1.88346
-7.45407 -8.13809 0.412491
9.61546 -8.92594 0.489866
22.6827 -3.18467 0.87946
25.9908 53.7271 2.31167
-7.45464 -9.8946 0.484535
10.3881 -9.47442 0.551601
12.667 -10.4617 0.663843
21.4486 -2.62876 0.881121
-29.3064 -17.7796 1.40151
8.70819 -8.66904 0.5079
-6.92823 -8.4714 0.470408
9.40213 -8.89415 0.541141
12.5752 14.4356 0.845781
-29.0329 -8.52065 1.32969
14.5742 18.983 1.07591
14.8148 25.508 1.31479
21.1631 41.6157 2.06538
6.13474 -13.6683 0.668126
10.7981 -9.47324 0.649732
18.3924 -1.63228 0.844885
19.059 36.2891 1.92298
14.7518 25.9916 1.40171
-11.2143 2.78153 0.556588
-7.2506 -9.55718 0.578501
9.13352 -8.95211 0.605791
11.3499 -8.70779 0.670002
20.0009 -2.29203 0.969926
11.5534 11.7743 0.819445
15.7019 37.7616 2.01095
7.73095 -9.42233 0.59999
10.1431 -9.23805 0.679484
14.3778 24.3806 1.4177
19.6803 38.1639 2.18006
20.8837 -2.60154 1.07026
-7.41212 -8.51558 0.585719
9.34996 -8.90222 0.67234
16.4881 24.1787 1.53778
16.2349 29.432 1.75478
12.9416 -10.6673 0.891211
10.4805 12.2517 0.862553
14.0679 19.096 1.27444
11.0272 -9.56177 0.789315
14.8472 19.3446 1.34516
-26.5215 20.3302 1.8267
-6.97402 -8.18201 0.594781
10.1774 12.3044 0.894483
-7.27008 -9.38521 0.664907
9.91568 12.3522 0.918887
-27.9848 19.7022 1.94395
6.07046 -12.8204 0.812255
11.1039 12.0035 0.940071
-6.88733 -6.79727 0.56126
11.1935 11.9361 0.963748
-6.81484 -8.42103 0.648374
6.21589 -12.4949 0.815552
14.4842 19.2714 1.4499
13.9349 22.7834 1.59349
13.1412 30.37 1.9863
-6.16209 6.56313 0.553056
-8.17748 -7.74849 0.681454
-7.12415 -8.17272 0.665877
5.68997 -12.3745 0.823719
-7.48833 -6.89442 0.633283
6.97295 -11.1098 0.811176
6.95769 -10.5152 0.787069
11.2892 -9.74491 0.92116
12.0718 -10.0985 0.975447
16.1282 7.14283 1.12408
14.7307 19.0827 1.52548
-7.24352 -6.31279 0.623252
10.2231 -9.33696 0.893636
-7.38521 -6.26535 0.635358
11.3946 12.0237 1.1289
9.40062 21.1627 1.57696
-7.28228 -9.66651 0.808595
11.5508 12.5279 1.16917
-6.96042 -4.46058 0.568732
-6.75978 -8.21003 0.72529
-6.70421 -4.43672 0.554612
9.24009 -8.83414 0.890069
9.96552 -7.81864 0.892373
12.595 15.8742 1.46537
-6.67541 -6.66787 0.655636
9.77828 -8.25731 0.935969
11.3476 16.9673 1.53473
11.2716 17.97 1.58478
9.47927 18.042 1.53704
8.89254 19.2179 1.59277
7.20766 21.4818 1.70346
10.646 18.3756 1.61805
9.98365 -7.57471 0.958313
-7.03541 -7.19667 0.771238
-17.2482 -6.2561 1.43475
9.44454 -7.65673 0.953213
9.21662 18.4083 1.62495
-6.38468 -4.26318 0.608748
-6.83797 -8.22986 0.848282
4.83075 -5.72855 0.595865
8.89276 19.5644 1.70465
7.65326 18.7122 1.6256
5.02369 -5.78999 0.617694
12.696 11.4562 1.38585
11.7002 11.7527 1.35811
6.70937 -9.35994 0.936229
12.1551 11.626 1.38277
6.56974 19.2859 1.66775
-6.36083 -4.39104 0.630023
-7.17263 -9.49298 0.97658
11.4687 12.0153 1.37447
10.417 9.11307 1.17869
-5.0495 -11.5205 1.06253
6.11865 -6.03884 0.7505
9.19259 -7.16134 1.00233
-6.80174 -6.69934 0.81117
10.358 12.2751 1.40225
8.77432 -7.31127 0.992922
10.7547 12.1234 1.41848
-7.31839 -7.77375 0.936058
8.17076 -7.27406 0.971393
10.1347 12.3876 1.43899
-7.07978 -7.7508 0.930826
-6.94692 -8.35107 0.974945
10.5253 12.2349 1.46567
10.4209 13.4424 1.54113
-7.12617 -8.3391 0.99926
11.1521 10.7721 1.42632
-6.31883 -4.23412 0.699532
-6.87037 -8.60494 1.0075
-6.33278 -4.39744 0.710792
11.0307 8.51264 1.30767
10.5861 9.28026 1.31278
6.41691 15.2432 1.55561
10.4437 11.2354 1.45168
-11.2602 2.88541 1.09858
6.1503 -5.95831 0.816467
7.98859 -6.62261 0.996785
10.6863 9.15099 1.36595
9.46045 12.448 1.51404
9.64518 12.3778 1.54615
7.60992 12.1703 1.42595
7.84844 13.1202 1.52193
11.1737 8.02387 1.40212
7.08267 12.6033 1.45915
9.00356 11.2833 1.46894
6.93613 13.4282 1.54686
5.80947 13.8042 1.53759
9.1449 10.4256 1.43347
8.96985 12.22 1.57513
11.3386 7.62465 1.42555
9.20185 9.95144 1.41132
4.96979 -5.81551 0.821339
-6.85212 -4.66032 0.874256
5.52013 13.7526 1.57299
-7.06571 -4.51092 0.894125
8.87537 10.6345 1.48738
-6.77367 -6.78337 1.02552
5.90375 -5.82722 0.896131
9.64683 8.49346 1.38556
8.91633 9.31279 1.38686
9.20622 10.2627 1.49494
4.72954 13.7069 1.56496
4.23038 -8.04553 0.984772
6.42324 10.746 1.37778
-6.80744 -3.9284 0.865281
6.29983 11.8122 1.48545
-6.9015 -3.86661 0.876548
9.67309 7.17732 1.34711
6.62386 11.3047 1.45935
9.76833 7.00375 1.35046
5.39267 11.496 1.43586
5.39549 11.9971 1.48586
4.6615 12.1308 1.47049
9.7992 6.66026 1.35048
-6.89852 -4.56807 0.94773
7.39614 -6.2212 1.10175
-7.33959 -0.786421 0.846635
-6.28067 -5.39555 0.953755
5.24642 -5.56515 0.882624
8.84015 7.85906 1.37821
4.41523 -7.17856 0.976408
10.3819 5.13969 1.35679
8.92408 7.76345 1.39058
5.19789 -5.60883 0.90354
8.56851 7.88719 1.38202
8.86214 9.0157 1.47923
-7.05566 -5.65739 1.07023
10.1121 4.73499 1.33049
-6.92532 -3.85551 0.955222
9.11203 6.12545 1.3318
5.17325 11.3395 1.51099
-6.89975 -3.06849 0.917735
-6.8841 -3.25466 0.921053
4.87899 -5.9502 0.93929
5.96911 -6.12415 1.04135
9.34587 5.60577 1.34736
8.43287 7.19945 1.37107
-6.95737 -4.31487 1.00868
-6.88875 -4.53959 1.01699
8.22442 8.54966 1.47196
4.99554 11.2345 1.52679
-6.55729 -5.62382 1.07524
3.70666 -7.57017 1.05052
8.47163 7.71403 1.4338
6.07359 -5.61345 1.03701
9.13902 6.04268 1.38856
-6.14064 -5.41847 1.03355
8.5219 6.59258 1.37416
8.05918 7.48261 1.39908
-7.10802 -1.7847 0.937643
-7.02034 -2.30827 0.944068
-6.45214 -5.32426 1.06748
8.80375 5.64416 1.34079
8.12359 8.01448 1.47093
-7.27118 -1.25457 0.946449
-6.90474 -4.12306 1.03993
7.4093 6.20237 1.25162
8.05116 7.01723 1.38502
7.93793 8.0937 1.46918
-6.91681 -2.82887 0.973152
-6.91809 -2.96889 0.97353
4.52377 10.0179 1.44462
8.97559 4.10079 1.29902
-7.25488 -1.60775 0.97684
6.83386 -4.25562 1.07005
4.92679 -5.94193 1.02347
-7.34066 -1.1183 0.994236
-7.02071 -2.20139 0.984517
-7.05789 -2.27072 0.990802
-5.99964 -4.40169 0.994672
5.18512 -6.5607 1.11459
6.90449 -4.17252 1.08618
8.04508 7.145 1.4578
-7.15808 -1.71986 0.990015
-7.08916 -1.95752 0.989453
8.77051 4.84204 1.36082
8.30721 5.85569 1.38201
-6.92764 -3.62251 1.06551
8.84526 4.15132 1.34034
3.31943 10.4324 1.49875
-7.32002 -1.20114 1.01575
-6.0149 -4.44501 1.02886
-5.9954 -4.54391 1.0301
7.14169 -3.93073 1.12055
8.04608 6.4651 1.42764
5.3293 9.00749 1.44936
-6.38773 -4.32519 1.0578
4.93201 -5.52483 1.02892
7.17925 -3.82653 1.13234
7.55249 -3.68287 1.16275
3.59428 9.97111 1.47589
3.40809 10.2546 1.50654
-7.37659 -1.08322 1.04121
-7.07995 -2.00558 1.02576
4.97147 -5.28677 1.01459
7.24084 -3.73459 1.1447
7.35693 -3.66923 1.16614
7.86486 -3.35329 1.21558
-7.16113 -1.8764 1.05314
-7.01422 -2.94844 1.10292
-6.01271 -4.37693 1.06987
7.89942 -2.78027 1.22538
8.21373 4.61009 1.38015
4.97049 8.51484 1.44513
8.35092 4.49701 1.40193
7.82511 -2.33919 1.20405
7.12799 5.67426 1.36447
2.9417 9.38946 1.47115
-7.09985 -2.02122 1.10669
7.47968 -3.10798 1.22117
8.21052 4.53758 1.42212
5.76681 7.41651 1.4267
5.27258 7.60655 1.41043
5.10775 7.91354 1.43077
5.06086 8.021 1.43551
7.33029 -3.16831 1.21981
7.67517 -2.75464 1.2419
-6.76118 -1.68405 1.04987
7.82708 -2.25552 1.24923
7.21869 5.41394 1.38571
-7.1094 -1.95404 1.1445
-6.92546 -2.78813 1.16068
6.79936 5.51509 1.37339
-7.36231 -1.09678 1.16302
-7.15031 -1.8257 1.15613
-7.05227 -2.06921 1.15192
-7.1269 -1.87406 1.15679
-6.90056 -2.93661 1.17763
4.79464 7.43434 1.407
3.44603 -6.03153 1.1093
-7.28241 -1.30062 1.18546
3.52788 -5.70739 1.08099
3.56482 -5.61288 1.0704
7.06591 4.76289 1.38871
4.64881 7.35773 1.41657
-7.07702 -2.0252 1.20003
-7.09912 -1.94861 1.20838
6.9614 4.82387 1.40084
3.8058 7.9063 1.45281
6.05292 -3.31913 1.15004
6.62969 4.87034 1.37177
4.65159 7.14942 1.4229
3.83622 -5.30032 1.09976
7.10242 4.42274 1.40896
7.47343 2.85769 1.35234
6.31621 5.2801 1.39545
-7.28601 -1.25693 1.25948
6.75124 4.08178 1.35503
-6.45522 -2.77386 1.19917
5.50961 -3.62978 1.13346
5.69089 -3.51866 1.14884
2.74549 7.82417 1.43359
-7.37998 -1.04059 1.29253
5.33388 -3.78349 1.14002
-6.31512 -2.26118 1.16351
-6.27547 -2.41833 1.17795
4.28106 -4.6646 1.10723
4.49399 -4.47718 1.11283
4.59166 -4.44901 1.12172
-6.80668 -1.73402 1.23774
4.32599 6.49022 1.3915
-7.16659 -0.929205 1.29218
-6.14802 -2.25919 1.16708
6.63874 3.69155 1.36183
6.09843 4.36071 1.36001
3.60873 -5.32752 1.17027
5.14392 5.68107 1.40193
2.50883 7.17921 1.42859
6.48523 3.05225 1.35536
-1.70666 -5.78346 1.14153
6.42718 -1.38615 1.24759
6.27387 2.77821 1.32117
6.21935 2.38188 1.32885
-4.46322 3.94959 1.40178
4.32465 3.53401 1.33595
4.21038 3.29168 1.32318
4.66519 -1.67775 1.24495
4.81873 -1.38095 1.25408
-2.15227 4.82309 1.32012
3.72737 -2.95327 1.22258
3.6735 -2.54982 1.19383
3.40706 -2.9621 1.22603
4.00202 2.56798 1.32892
-2.59414 -3.53381 1.25101
-2.32552 -3.56985 1.21629
3.75267 2.0566 1.30109
3.72939 1.97902 1.30054
-2.84961 3.49461 1.39163
-2.29565 -2.41859 1.18731
1.9565 -2.78263 1.21355
-2.12764 2.77317 1.32831
-2.03238 2.7612 1.33448
2.25172 -1.87046 1.22589
2.38103 -1.49876 1.22285
-2.0181 1.87944 1.29841
-2.06364 -1.4425 1.2284
1.4506 -2.07148 1.24645
-1.99166 -1.08739 1.2145
-1.92426 -0.707445 1.22014
-1.92601 -0.703241 1.24574
-1.95533 -0.344269 1.22924
-1.89229 -0.56452 1.2301
-1.89191 -0.53074 1.2352
8.21338 -8.69247 -7.45945
12.0982 -10.264 -8.78035
-8.82689 15.7579 -7.00917
20.3944 24.8346 -11.5434
-8.81577 -2.5247 -2.58397
-34.74 -23.2065 -7.71751
-34.3308 -22.4514 -6.05245
-34.0612 -23.1474 -6.11564
-31.3978 -20.1365 -2.80502
9.26932 -8.82879 -0.391134
-7.77201 16.7526 -0.455609
-29.615 -11.4601 0.731638
-6.92839 -8.2806 0.46124
16.5385 23.7484 1.5725
11.3142 15.9119 1.61502
-6.70183 -6.67484 0.884567
4.1931 12.1669 1.48305
8.6979 9.0601 1.46918
7.97238 -8.764 -10.3796
8.8318 -8.53946 -10.4971
6.9567 -11.9369 -11.5138
6.87232 -11.35 -10.8956
8.15241 -8.26471 -9.53269
7.02197 -12.0292 -11.3264
7.06606 -10.973 -10.4563
8.00215 -8.37771 -9.20388
6.72763 -11.285 -10.2891
6.44532 -11.6975 -10.2134
7.75757 -8.85088 -8.97244
6.20556 -14.3168 -11.8084
8.29849 -8.70085 -9.10127
6.30003 -11.9096 -10.1758
6.14764 -12.0886 -10.1132
7.49128 -9.44543 -9.00132
7.90966 -9.05633 -8.92711
10.4636 -9.44642 -10.4845
6.12077 -14.1156 -11.3723
6.1023 -13.6707 -11.0072
6.13147 -12.5774 -10.2918
9.19424 -8.82366 -9.34833
9.28206 -9.0703 -9.46557
5.86519 -12.5061 -10.0346
9.35792 -8.98701 -9.2596
6.86115 -11.1253 -9.2766
5.61599 -12.9712 -10.0044
9.68804 -9.07748 -9.4089
7.60901 -9.34419 -8.47253
9.99292 -9.18276 -9.53447
10.9125 -9.48933 -10.1475
11.4343 -9.69315 -10.0671
8.38455 -8.60788 -7.95573
7.43097 -9.299 -7.86507
8.16736 -8.71833 -7.89637
7.62802 -9.35197 -7.89574
7.83689 -9.40208 -7.84487
8.32046 -8.53527 -7.61991
0.3602 15.8798 -10.1341
7.52767 -9.32414 -7.62614
10.9048 -9.60202 -9.23833
7.22536 -10.7012 -8.17233
8.15527 -8.4975 -7.42772
4.61361 -15.4086 -10.1159
8.71356 -8.70071 -7.61868
7.92148 -9.03259 -7.4107
4.04899 -18.0223 -11.3783
8.19781 -8.62764 -7.27582
4.08678 -17.3111 -10.8535
0.146036 14.8851 -9.05702
6.65423 -11.2623 -7.9644
7.74268 -9.2682 -7.32773
10.1205 -9.30771 -8.34326
6.82042 -11.2512 -7.8987
8.06032 -9.20428 -7.34414
11.2612 -9.6902 -8.88251
5.40109 -13.8581 -8.82139
7.73497 -9.26622 -7.15827
9.34891 -9.03153 -7.70259
6.90197 -11.115 -7.74373
7.98324 -9.12787 -7.11553
9.7495 -9.18446 -7.80608
14.8286 7.40966 -9.62693
8.66615 -8.8299 -7.14909
6.93249 -10.9641 -7.45529
2.64005 -11.2129 -6.62521
7.85965 -9.07141 -6.87437
9.60164 -9.13686 -7.52911
10.7874 -9.49051 -8.10535
3.27989 -20.6013 -11.7315
6.80079 -10.9819 -7.24164
10.1015 -9.28699 -7.68454
12.3284 -10.3446 -9.02523
9.23791 -9.00511 -7.20889
4.61546 -14.2924 -8.37341
8.00314 -9.21556 -6.7789
14.7508 7.54133 -9.09481
9.69369 -9.10355 -7.30349
0.837188 17.4698 -9.55048
2.74177 -19.858 -10.9309
11.1232 -9.63905 -7.99163
4.23243 -14.4192 -8.13478
14.6643 7.6687 -8.91325
15.0492 10.3903 -9.81839
14.0007 7.7239 -8.54343
10.9433 -9.61144 -7.74531
13.2491 -10.7893 -9.08933
3.04403 -19.334 -10.2892
11.3471 -9.81748 -7.63485
2.16873 -20.3838 -10.3464
10.2542 -9.33581 -6.97338
14.2508 -11.2718 -9.12288
13.7873 -11.1517 -8.87751
10.9989 -9.64727 -7.28905
7.50621 -9.3349 -5.93207
3.56276 -8.46744 -4.52733
-8.71315 -1.9131 -4.38597
2.2237 -20.1657 -9.95067
4.53136 -9.2981 -5.05867
0.404 13.6582 -6.68856
7.60515 -9.26687 -5.84993
-8.53521 16.2889 -8.90668
-9.21493 -2.43608 -4.59265
14.9707 -11.5609 -9.08995
19.3352 5.53216 -9.61735
-10.3317 -2.558 -5.03439
1.90959 -20.5583 -9.81774
17.1561 16.122 -11.1496
7.57809 -11.2035 -6.38232
19.9847 5.39419 -9.74788
14.009 -11.0912 -8.30926
2.92801 -17.3264 -8.17092
19.3128 5.71419 -9.30411
17.8061 -12.9765 -10.1776
9.85352 -2.48886 -4.6957
20.2387 5.12971 -9.63272
17.2808 16.2501 -10.9301
1.81025 -20.2289 -9.29497
9.66492 -9.0376 -6.05918
-9.22489 -1.67442 -4.27588
9.44185 -3.46452 -4.58061
6.70814 -11.3085 -5.98073
9.90071 -2.61512 -4.64477
19.2058 5.8564 -9.03922
17.6625 17.5192 -11.1829
9.35814 -3.08268 -4.43491
15.4014 -11.8513 -8.72116
7.03144 -11.5528 -6.04938
7.14585 -10.9085 -5.81281
9.54788 -3.40069 -4.51662
-10.0611 16.4908 -8.60049
17.6154 -12.856 -9.69094
19.4916 5.61498 -8.99034
16.0727 7.29027 -7.81497
17.7688 17.9474 -11.1688
16.3942 -12.1927 -9.00505
-11.3251 17.2217 -9.05996
-6.59862 15.0802 -7.21742
-5.24771 4.92211 -3.13492
20.0876 5.4541 -9.049
9.54682 -3.40096 -4.3737
18.16 18.4059 -11.1126
15.7921 -12.1528 -8.57484
14.8354 7.41756 -7.07848
3.83681 -9.29788 -4.27358
-11.2475 17.1066 -8.66737
6.9384 -10.8972 -5.44747
-13.6233 3.33871 -5.90967
0.743356 -22.4013 -9.44532
15.7785 -11.9469 -8.27694
-5.17798 5.70184 -3.22254
0.998904 -22.2646 -9.3425
1.23187 -20.7878 -8.724
14.1457 7.58668 -6.71353
18.4878 19.2664 -11.156
3.78112 -8.95102 -4.05217
14.7473 7.71708 -6.92801
17.8598 19.0743 -10.8433
-9.52849 -1.09361 -3.95918
4.00602 -8.4998 -3.84988
14.0127 7.73732 -6.57077
6.83786 -10.9772 -5.28748
-13.6616 2.55205 -5.68543
-8.02251 15.5421 -7.10782
19.1842 20.8456 -11.4764
15.0489 7.23097 -6.72678
-5.30901 14.4991 -6.19088
13.93 -11.0129 -6.95535
1.53059 19.2232 -7.48929
-8.81517 15.9209 -7.07218
18.9532 5.78005 -7.67732
-1.75914 13.3293 -5.20765
5.29256 -9.38848 -4.15638
-2.3936 13.552 -5.28579
19.5083 22.5672 -11.4376
4.65857 -8.51193 -3.68509
19.3784 5.55927 -7.67122
0.877428 -26.5713 -10.1033
14.8786 -11.4655 -7.06919
19.9358 5.40098 -7.73019
9.43262 -3.43664 -3.75332
0.533719 -22.7212 -8.46947
3.24613 -10.7868 -4.20854
20.104 23.3891 -11.4529
0.909871 -8.72415 -3.25284
14.0047 -11.091 -6.58747
20.3426 5.17392 -7.71752
17.8248 17.6129 -9.15693
-13.0737 2.29039 -4.82554
20.7489 24.7775 -11.7206
2.28552 -13.2506 -4.84432
13.0149 -10.525 -6.02318
0.795988 15.4298 -5.52799
-8.21065 -2.80193 -3.10311
0.410098 -21.8849 -7.82437
-4.24794 13.942 -5.18446
0.638524 -21.956 -7.80568
15.8258 -11.9527 -7.02947
-15.884 18.3631 -8.55701
5.9243 -11.3305 -4.49573
-11.1264 16.7906 -7.03549
0.0934487 -18.5406 -6.51732
14.2409 -11.2862 -6.35386
20.2976 5.34556 -7.32617
0.65794 -23.0799 -7.97383
-5.05688 14.6804 -5.32034
3.63801 -8.44534 -3.16538
4.8742 -9.0288 -3.51607
-14.647 18.1844 -7.99266
2.27447 -10.8839 -3.81051
-8.97075 16.2734 -6.33459
3.02479 -13.6858 -4.77879
-15.1267 18.5663 -8.11898
20.1159 5.46924 -7.0066
21.9313 27.1303 -11.6588
35.9049 -20.2685 -13.7789
-5.35355 14.2 -5.04053
1.91166 20.7118 -6.90127
1.26735 -10.2483 -3.41437
-5.30017 14.5945 -5.04349
-12.7109 17.4014 -6.99095
18.5201 -13.1972 -7.38522
3.55906 -8.67087 -3.00512
6.21549 -10.1059 -3.80232
2.3132 -11.0069 -3.57926
-4.59396 -34.5063 -11.0637
-1.14335 -23.9503 -7.63211
14.9869 10.3216 -5.7427
-13.3411 17.7528 -7.0195
-18.1764 19.605 -8.4044
6.95541 -11.0846 -4.04587
1.38649 -21.9255 -6.7961
-2.59011 -27.5846 -8.50404
7.14881 33.013 -10.3069
0.77107 15.0202 -4.56809
-11.245 16.9668 -6.13536
-2.71897 -26.695 -8.08044
-14.4888 18.1155 -6.92173
-5.33826 -35.0024 -10.542
0.839765 -25.1226 -7.51572
-5.44517 14.977 -4.74076
2.07738 20.663 -6.11829
-21.4949 20.0423 -8.67102
18.177 5.7843 -5.61458
-4.33538 14.5624 -4.46783
-8.00463 15.5296 -5.12617
4.2539 -9.13924 -2.96292
4.63362 -11.6104 -3.65533
-12.651 2.22863 -3.69195
-33.3953 -47.3048 -16.6616
-15.3487 18.4646 -6.90269
6.95208 -11.0726 -3.76407
2.56297 -9.54308 -2.80762
12.9175 -10.4559 -4.72951
-8.461 -2.46242 -2.49867
20.9681 27.0419 -9.69446
-8.58877 -2.26369 -2.50986
-2.57238 -26.247 -7.4006
-13.0589 2.00111 -3.67909
4.38497 -11.3221 -3.37002
-9.40234 16.1698 -5.13552
-13.1878 17.5884 -6.03839
-5.44652 14.5367 -4.24331
-8.6056 -41.79 -11.6732
-21.6882 20.2391 -7.97511
-9.82675 16.295 -5.09983
-26.9873 20.7311 -9.05364
11.4106 11.4844 -4.27153
4.32401 -11.288 -3.20234
46.8531 -13.6202 -12.926
-8.30353 -39.1845 -10.5274
4.08744 -8.65302 -2.51987
11.1595 -9.92585 -3.90707
-14.595 18.2742 -6.08153
6.53207 -10.4169 -3.18249
3.17678 -9.64231 -2.62457
-30.485 -44.6485 -13.9599
-4.40366 -28.8832 -7.55875
3.53909 -10.3665 -2.82455
4.06625 -9.38268 -2.62838
15.5811 -11.7159 -4.97413
-7.2281 15.3991 -4.30612
-31.9191 -42.5682 -13.4917
4.30892 -11.1369 -3.02237
4.25359 -7.70168 -2.2392
6.5313 -10.6537 -3.11655
44.5592 -13.4721 -11.6065
-28.5585 21.5463 -8.84482
-11.6428 17.1054 -5.10128
-27.9048 -40.707 -12.1344
-10.0184 -39.4321 -10.035
-24.7229 20.7652 -7.93445
4.34697 -10.3248 -2.75245
-12.1811 17.448 -5.15975
-7.92194 15.4354 -4.18205
10.2654 -9.25947 -3.31018
40.082 -13.3142 -10.107
15.0903 7.5468 -4.01655
-6.3881 -36.5825 -8.8457
3.96361 -9.08286 -2.34823
46.7252 -12.5056 -11.4802
-12.3328 -45.4085 -11.146
4.19862 -8.98359 -2.36569
3.85488 -11.0564 -2.75972
4.90573 -8.68851 -2.34731
-12.9025 17.583 -5.07578
10.9961 -9.63645 -3.34178
-6.25298 -31.7084 -7.37392
-27.4187 21.1769 -7.85345
41.3099 -9.03419 -9.59629
-30.803 22.3646 -8.53468
-35.7073 -23.3999 -9.56557
40.5104 -12.523 -9.52054
5.45056 -9.46727 -2.43905
-12.4396 2.83844 -2.79962
40.384 -11.8345 -9.29801
42.345 -12.0823 -9.68818
-5.43361 14.2567 -3.33629
13.3719 -10.7602 -3.77803
37.8727 -12.171 -8.74544
-23.6101 20.5775 -6.79365
-30.2225 -74.5107 -17.4464
4.30599 -9.69174 -2.29985
4.53569 -9.17331 -2.21042
-14.7166 18.3353 -5.02117
-31.2451 22.6958 -8.24632
-32.134 22.8043 -8.4233
-28.8603 -76.5702 -17.5388
-10.7917 16.863 -4.24543
-8.54374 -36.2671 -7.92274
3.18766 -9.67727 -2.17273
3.96266 -9.82049 -2.258
45.5114 -10.5518 -9.97295
14.9229 7.47467 -3.53824
-15.2975 18.8313 -5.13698
5.16025 -9.04827 -2.18845
26.3972 38.1927 -9.70137
14.9623 7.83049 -3.50597
-30.3644 -23.4505 -7.95868
-33.9193 -86.9703 -19.3253
-11.5546 17.0244 -4.18138
-15.763 18.6371 -4.96949
-35.5349 23.8536 -8.69697
44.1632 -9.6329 -9.2179
-13.453 -43.2878 -9.21235
4.13205 -9.72535 -2.14993
11.5897 -9.63424 -3.06644
-12.1062 17.3733 -4.22726
-20.3046 -58.274 -12.3323
-13.1434 -40.8285 -8.49138
4.066 -9.91212 -2.12129
-34.3684 -23.5008 -8.20751
-26.9723 21.1689 -6.74846
-33.3923 -23.8861 -8.00298
-6.95543 15.3699 -3.27492
-27.0978 -63.6709 -13.4401
-33.8004 -22.502 -7.82477
3.43279 -9.354 -1.9241
45.591 -10.5631 -8.9866
-12.8584 17.5559 -4.16024
3.98575 -9.33694 -1.93744
-36.7126 -22.3003 -8.13113
-21.4795 -34.8929 -7.79227
-15.8234 -45.6565 -9.14241
37.7067 -12.4385 -7.5061
-36.3044 24.3831 -8.18464
-33.9393 -23.4392 -7.74836
-32.8844 -24.0595 -7.64856
-21.6783 -53.7058 -10.897
-17.1404 -46.5578 -9.20233
3.81787 -9.20124 -1.84007
42.3323 -11.4093 -8.14165
5.7528 -9.70466 -2.06764
-24.9625 -56.6032 -11.3255
-20.7767 -51.5691 -10.0553
-14.6827 18.3024 -4.16075
-31.3268 -25.2658 -7.15371
-20.4451 -27.2438 -6.09103
-39.7626 25.0906 -8.29574
-26.9821 21.1861 -5.97115
-34.3994 23.5392 -7.23734
3.90574 -10.0402 -1.86813
4.76884 -8.60711 -1.71006
13.9807 7.50803 -2.73687
14.0537 8.0646 -2.77495
-31.0962 22.6127 -6.59152
42.0133 -11.8865 -7.43359
41.8129 -10.8292 -7.35289
-31.4839 -25.0042 -6.82021
-21.2339 20.2226 -4.92419
-20.728 -51.5215 -9.38299
14.8352 7.43539 -2.78291
-31.9753 22.6366 -6.54428
-23.9798 -57.1719 -10.2439
43.3248 -11.6713 -7.29318
-10.4355 16.5671 -3.15984
-21.0221 -52.1526 -8.96767
-35.1477 -24.2627 -6.7299
-22.9535 20.1666 -4.78454
-24.368 20.802 -4.9658
-40.4722 24.5045 -7.33164
-11.3105 16.9283 -3.14316
3.46905 -9.52059 -1.56717
3.86524 -10.2213 -1.69208
-7.68434 15.586 -2.65453
-31.329 22.8021 -5.92334
-31.9872 -24.706 -6.14592
-28.1432 -26.3248 -5.83792
42.0001 -10.9187 -6.59641
44.6246 -9.7221 -6.95814
-6.59682 14.6937 -2.41026
9.82517 -5.15011 -1.64642
-33.7314 -24.3289 -6.19346
-27.0141 -68.3044 -10.8934
10.1842 -9.15671 -2.04102
44.7639 -10.3556 -6.82348
-36.9229 -24.5791 -6.52793
-31.7416 -26.1818 -6.01893
-12.8599 -42.6095 -6.54839
16.8871 -12.2178 -3.05327
-25.5882 21.0675 -4.81694
-25.1312 -56.3092 -8.88529
-7.68093 15.3843 -2.45903
-12.8077 17.4627 -3.08777
6.02793 -11.5163 -1.85751
-13.5144 18.0633 -3.16906
-35.0031 23.6453 -5.9388
6.75242 -11.0298 -1.80763
37.4262 -12.3514 -5.54331
-31.3721 -25.1385 -5.61059
-33.2887 23.9229 -5.67894
-20.9146 -50.4079 -7.53748
44.9139 -10.0477 -6.34648
-6.92905 15.3242 -2.29857
-23.0889 -60.2588 -8.7659
7.74546 -9.3734 -1.63185
-14.1095 18.0156 -3.08493
13.199 -10.5273 -2.28449
-22.3922 20.3684 -4.0705
41.9223 -10.839 -5.74876
44.6405 -9.77807 -6.04884
-22.7742 20.0414 -3.96704
-32.919 -24.6328 -5.37027
-15.0073 18.377 -3.06791
-34.3127 22.9018 -5.35588
-38.5897 -16.2941 -5.40848
7.00987 -10.4251 -1.61192
10.7564 8.80649 -1.78485
-34.0412 -23.459 -5.29054
-31.6996 23.1414 -4.9648
-35.8296 -22.358 -5.29356
41.7875 -10.8069 -5.40163
6.78941 -10.3576 -1.54757
-7.71788 15.4374 -2.13726
-25.209 21.1675 -4.03081
-33.6791 23.7359 -5.08259
6.28724 -12.0582 -1.65676
44.5931 -9.51383 -5.58502
14.977 7.84657 -2.03272
-18.2052 -44.0922 -5.75196
7.07969 -10.522 -1.52705
-20.6194 9.13822 -2.66944
-14.5335 -43.9634 -5.44428
-32.0726 -24.7274 -4.73541
-31.5554 -25.2363 -4.72825
41.8692 -11.2155 -5.09458
11.2193 -9.66188 -1.71544
-30.1244 22.8417 -4.34957
6.63572 -10.812 -1.45238
7.48349 -9.21356 -1.35779
11.5709 -9.71347 -1.71597
9.44365 -4.60704 -1.18985
14.9556 7.68524 -1.8949
-10.4281 16.6013 -2.2127
-32.4545 23.7147 -4.50308
38.7176 -12.7454 -4.57126
9.34869 -9.01528 -1.43689
-11.148 16.7197 -2.18468
6.78384 -12.7718 -1.56663
44.7336 -9.72219 -4.96285
10.7542 8.83731 -1.50002
16.7424 -12.4368 -2.23855
42.0635 -10.9095 -4.65648
9.6105 -8.97071 -1.39288
8.37291 -8.45796 -1.24681
-31.1138 -24.8983 -4.14947
-30.7024 -61.583 -7.17846
14.9525 7.49886 -1.70892
-32.0123 -24.6836 -4.14756
-12.951 17.6549 -2.22339
-12.8672 17.2389 -2.1383
10.198 -9.07948 -1.33766
-21.2091 -53.8633 -5.6752
6.30804 -12.0802 -1.31911
16.6124 -12.1539 -1.97869
41.9528 -11.2733 -4.1642
-31.2578 -63.1839 -6.70117
-21.1959 -55.6243 -5.65308
-23.4828 20.5401 -2.91663
45.4282 -10.106 -4.34699
9.70776 -8.97894 -1.22417
39.5421 -13.0439 -3.88018
-15.1286 18.5452 -2.16751
-29.8451 -13.6073 -2.98991
-32.8935 -64.1233 -6.64285
15.8303 -11.8488 -1.79887
8.62922 -8.72013 -1.11096
12.8738 -10.6267 -1.45372
45.0167 -10.434 -3.95871
9.39357 -9.01999 -1.09478
10.94 -9.634 -1.22535
-34.4355 23.6485 -3.4763
16.812 -12.2599 -1.72353
-17.1659 -44.6687 -3.83291
14.6593 -11.4626 -1.48401
-11.8509 -33.1771 -2.78074
-30.0553 22.8527 -2.91994
-33.3616 23.5812 -3.15395
-23.0688 -52.6953 -4.44097
-51.6551 28.1129 -4.45342
-21.5427 20.275 -2.15203
-33.5907 23.7598 -2.98191
16.3495 -12.2163 -1.49314
41.979 -11.2336 -3.16614
-40.1056 -75.8834 -6.19421
13.9537 -11.0402 -1.27348
-15.7575 -41.8006 -3.0833
10.7547 -9.60467 -0.987973
-23.5069 20.5825 -2.11023
12.8523 -10.6051 -1.11551
17.917 -12.9951 -1.47571
16.013 -12.1119 -1.32609
-14.8576 -41.1941 -2.83282
43.7272 -11.3724 -2.82435
-32.4271 -65.7025 -4.47128
35.7244 -8.66675 -2.25616
42.9055 -9.82035 -2.70231
6.03915 -13.0543 -0.859816
30.7899 -20.3735 -2.20952
-9.91283 16.548 -1.13411
-15.7558 -41.1004 -2.50647
16.5795 -12.3906 -1.16226
-9.70708 -12.5837 -0.870931
14.9433 7.66643 -0.907973
13.8809 -10.9881 -0.948096
-12.8734 17.4454 -1.13252
-16.669 -41.3154 -2.36617
14.8376 7.80207 -0.821518
-16.4988 -42.173 -2.22212
-14.2483 18.0597 -1.10012
9.55685 -9.01465 -0.602617
-24.3644 -55.8892 -2.75904
12.4348 -10.2224 -0.746354
-16.2308 -45.2448 -2.13426
-17.425 -42.9318 -1.98379
6.84453 -12.6384 -0.637757
-14.1054 -42.9977 -1.92775
-53.086 28.87 -2.44791
18.2989 -13.1464 -0.914542
16.77 -12.4651 -0.813882
-42.3508 -82.1991 -3.4888
-18.4939 -48.4973 -1.91182
-33.8927 23.2874 -1.50392
42.4563 -10.9394 -1.57887
-35.0993 -69.8187 -2.6148
-26.2718 -57.5746 -2.13104
20.0663 23.2078 -1.01838
-21.5857 20.2278 -0.96377
8.10064 -14.297 -0.552009
9.41318 -8.98633 -0.421895
11.2862 -9.93585 -0.488832
18.5531 -13.1184 -0.746894
34.7174 -13.0942 -1.23151
21.8434 26.4413 -1.09938
-27.5071 -13.7974 -0.964558
-23.0564 20.5317 -0.940781
-31.9303 22.6146 -1.22099
-25.3788 -58.3468 -1.97095
-13.97 -39.5207 -1.29134
-21.8498 -55.7358 -1.81292
-16.8449 -45.6533 -1.3944
-34.2281 -20.7533 -1.06614
11.4353 -9.701 -0.401779
16.3086 -12.1301 -0.535899
-41.3943 25.6078 -1.28348
-30.5125 23.2171 -0.948393
-31.0336 22.7438 -0.909427
9.5592 -8.99888 -0.30417
-41.6135 14.3826 -0.972944
-31.8192 -53.2817 -1.39806
21.2167 -14.1898 -0.56119
30.3896 -18.4273 -0.802343
14.2093 3.92685 -0.300619
27.1464 47.4373 -1.00411
23.4882 -10.935 -0.456389
46.9544 -10.8121 -0.896396
-30.8143 -22.1443 -0.691958
-29.7875 -29.2573 -0.662158
-19.2334 -47.1939 -0.84901
12.7033 -10.4463 -0.270661
18.4819 -13.3549 -0.348585
-29.4092 -13.0717 -0.422455
-33.0399 -24.7263 -0.57422
-33.9518 -68.4442 -1.03204
-28.1559 -59.9248 -0.907729
-34.1445 -23.3189 -0.539853
-30.532 23.2283 -0.451413
16.9653 -12.6693 -0.251509
29.2171 -18.1161 -0.404726
-30.9909 22.7516 -0.427805
-19.3167 -44.3018 -0.517449
-12.1524 -36.5775 -0.388464
-33.8656 -59.6706 -0.632593
-14.4203 18.2918 -0.178576
-26.8282 -13.526 -0.242531
-15.1148 18.4248 -0.16277
-22.7096 20.2818 -0.15645
-21.1392 19.8278 -0.131614
-10.5865 -13.6099 -0.0605449
14.7056 7.72518 -0.0199269
11.0952 -9.7563 -0.00780751
-34.6969 -19.0042 0.0603951
-11.4607 -34.0612 0.116673
16.9254 -12.2968 0.0907448
-19.0318 -43.6935 0.211421
18.7419 -13.2051 0.121708
7.16616 -12.3185 0.103978
25.9444 -10.6444 0.172453
-55.8336 19.9364 0.565755
16.2199 -12.0206 0.192713
37.3364 -7.62269 0.359581
-29.2098 -8.23653 0.355127
-36.5152 -22.0399 0.470407
-11.4427 -32.7847 0.372136
-12.845 -35.5939 0.45016
-10.3871 -31.9276 0.402531
6.32019 -12.9186 0.183581
7.20539 -11.1004 0.173997
-28.3925 22.2872 0.553091
11.2998 -9.86861 0.225538
-24.2898 20.7721 0.527919
10.8879 -9.72159 0.22908
12.9541 -10.6642 0.264336
36.2913 -7.76684 0.617474
-34.7776 -23.3004 0.761433
-31.4721 22.5027 0.76013
6.13292 -12.8137 0.275652
7.01406 -11.0381 0.251954
8.01895 -9.4097 0.241425
27.1293 55.7841 1.3497
7.72199 -9.43517 0.275649
10.1191 -9.16529 0.329376
-28.9453 -9.28161 0.732324
-23.4761 20.4911 0.843541
-27.7877 21.9105 0.950213
-29.0746 -8.73012 0.800082
9.18134 -8.88735 0.345185
9.61527 -8.93667 0.357822
-25.7783 21.7262 0.916468
25.3149 -5.12124 0.719136
12.9638 -10.635 0.499491
14.7267 23.9909 0.868761
6.18011 -12.7493 0.445855
7.44787 -11.61 0.43286
-28.5967 -8.06521 0.975021
-12.6666 -19.394 0.763071
-28.2781 -8.8383 1.02448
16.0685 10.9981 0.703898
-29.996 -18.5874 1.23346
15.6568 27.1971 1.12023
-30.6141 -16.6991 1.29231
23.4819 -4.24024 0.862146
-27.9893 -19.9065 1.27268
-7.30672 -7.96684 0.408029
9.04291 -8.81817 0.469507
12.3867 13.5498 0.708034
25.6575 52.9293 2.2281
24.5261 52.2185 2.17287
-11.5834 -9.16877 0.582585
8.71526 -8.66098 0.486054
-25.8635 21.3053 1.36084
21.7887 -2.95295 0.890859
-28.9591 -17.5899 1.38807
9.40474 -8.91753 0.531389
12.4088 14.2914 0.814474
6.56652 -12.4356 0.597184
14.7805 19.205 1.06563
20.6279 28.4927 1.54086
-9.52268 -13.8461 0.738612
-10.0147 -15.6626 0.825192
7.58822 -10.9367 0.586475
8.61623 -8.70559 0.553517
24.1266 -3.69597 1.10209
-30.0116 -8.74582 1.427
6.73348 -11.0697 0.596154
-8.28836 -8.15674 0.547359
21.0622 42.4953 2.26946
-28.7196 -17.7498 1.59593
-9.79686 -13.7419 0.803242
9.65005 -8.95355 0.620012
15.2354 42.3381 2.17841
-30.4185 -13.4733 1.588
-6.77333 -8.25769 0.52561
14.3773 33.4349 1.85737
-29.9003 -11.709 1.61158
-7.60429 -6.99241 0.522283
-6.70963 -7.60609 0.513173
15.9768 28.9419 1.71682
10.5008 12.2788 0.873301
14.1355 19.236 1.2819
9.33472 -8.91566 0.69162
14.7219 19.1551 1.33415
15.1608 23.4157 1.53624
-27.7245 19.5209 1.85908
-6.98452 -8.20832 0.597764
-26.6509 20.4492 1.8682
6.08224 -12.8422 0.795057
-7.11946 -9.17511 0.66234
9.90927 12.3773 0.932633
14.7779 24.8989 1.69177
6.44968 -12.9537 0.832803
13.7259 22.3934 1.55161
-8.27517 -8.13419 0.699226
11.4843 11.5636 0.972026
14.5706 19.379 1.4569
-7.4135 -10.0358 0.77602
6.99819 -11.1522 0.802378
11.2428 -9.69753 0.900094
5.8578 -10.7383 0.759062
-7.20597 -6.66056 0.613288
14.3694 20.3839 1.5782
16.089 7.14171 1.14305
-7.04707 -6.15709 0.614165
6.45016 -13.4194 0.992283
9.3059 21.0204 1.55093
10.363 12.4906 1.10967
13.4545 18.0917 1.57273
12.2932 20.382 1.64718
11.2898 11.926 1.15283
6.58815 -9.8252 0.837738
11.4384 11.7026 1.1844
9.79024 -6.91096 0.852707
12.297 11.9045 1.25716
9.90801 -8.36719 0.950045
-6.18452 6.70286 0.681186
10.3875 9.14644 1.03981
11.8301 17.6879 1.60124
11.382 18.1337 1.61336
-6.95757 -7.71208 0.805516
10.7605 18.5724 1.64705
9.4963 -8.94076 1.00798
-6.42342 -4.30415 0.609971
9.10108 18.2338 1.62864
10.0631 -6.88606 0.976354
12.3918 11.4973 1.36661
9.65435 18.7448 1.69794
-7.28102 -9.65767 0.985224
6.70653 -9.36452 0.937298
12.1792 11.6511 1.38118
12.0829 11.8831 1.40743
11.3615 11.8753 1.36075
-5.06498 -11.5602 1.06169
10.2521 12.8266 1.3973
-6.97106 -6.09162 0.797519
-6.82769 -6.7064 0.808518
-5.22607 -11.462 1.07129
-7.31428 -7.76142 0.918514
9.26849 -7.24341 1.01634
-7.13448 -8.07347 0.942978
-7.02981 -7.70456 0.917353
9.33354 12.4584 1.38025
-6.96599 -8.38887 0.974258
10.7661 9.03348 1.28095
10.3983 13.3925 1.53203
10.4756 9.20025 1.2764
7.66354 13.9111 1.46097
-6.51054 -8.15135 0.955942
-6.91793 -9.03802 1.0506
11.1413 10.7454 1.42834
11.198 9.13643 1.35254
10.8126 10.7475 1.42923
6.43324 14.8664 1.52226
-11.4634 2.93676 1.11002
-6.36846 -4.17561 0.713601
-6.81595 -6.30339 0.861059
9.37283 13.2184 1.5633
-6.05478 6.57919 0.880814
7.94996 -6.60053 1.00706
7.8791 13.1376 1.52181
-7.08146 -7.63139 1.04893
9.25541 11.5728 1.4948
6.96241 12.3621 1.44
7.01623 12.926 1.49946
9.49002 9.0513 1.35733
5.81714 13.8674 1.55875
9.08668 12.3586 1.59939
-6.11336 -4.46127 0.793428
5.9165 13.595 1.56185
6.17642 13.5291 1.56365
-6.97867 -4.433 0.884472
8.72765 8.97709 1.33492
9.09087 10.1275 1.48021
7.28873 10.9443 1.42914
5.79088 11.406 1.39084
-6.30901 -7.42196 1.06484
10.2288 6.42852 1.3368
8.95331 8.1035 1.33128
7.26985 11.6205 1.51367
6.80644 11.5683 1.48405
5.3232 11.8207 1.44245
4.83673 12.0226 1.44992
4.66662 13.5714 1.5789
9.82801 7.02707 1.34917
8.71729 9.26639 1.42175
5.34924 11.4457 1.42282
-6.85145 -6.73332 1.06934
6.83017 10.6609 1.42638
4.28568 13.0737 1.555
9.73901 -3.19138 1.14274
-6.11054 -5.41972 0.945786
7.28136 -6.11336 1.07925
10.3777 5.694 1.35774
-7.38947 -0.986895 0.854515
-6.26392 -5.36177 0.949241
5.24267 -5.55097 0.879691
5.03588 11.5508 1.46386
-6.89068 -4.5643 0.95796
4.4487 -7.254 0.984122
10.3719 5.13092 1.35801
8.84663 7.85182 1.38868
-6.00753 -4.37223 0.86611
-6.49292 -5.27927 0.988762
4.0873 -7.85689 1.05328
4.96192 -5.84468 0.919841
10.1332 4.73814 1.34107
8.48135 8.23565 1.43203
5.24282 11.4219 1.53419
9.01166 6.24285 1.34237
7.97598 8.30072 1.44215
-6.49736 -5.75349 1.08053
3.70284 -7.56548 1.05498
8.64283 6.66397 1.37248
-6.47509 -5.35046 1.06325
9.05776 5.99123 1.3866
8.15103 7.11229 1.3803
8.08087 7.47671 1.40579
5.77123 -5.34015 1.0095
-6.98012 -4.44837 1.06266
8.06715 7.96499 1.47054
-7.36575 -1.04358 0.961469
-6.93059 -2.82947 0.977865
8.94948 4.08911 1.28866
8.37103 6.60408 1.39982
4.99386 -6.02256 1.02841
4.91195 -6.18685 1.04608
6.86317 -4.27831 1.07654
-7.14131 -1.72019 0.985011
-7.01725 -2.22243 0.984356
-6.03135 -4.42676 1.00041
8.10517 6.63396 1.42003
8.58468 4.42658 1.31697
8.60388 5.15056 1.36976
7.99733 7.11051 1.45668
-6.8157 -3.73752 1.0557
8.83601 4.14759 1.33619
8.23727 5.81386 1.38078
-6.40461 -4.33359 1.05837
-5.96332 -4.52956 1.02292
5.33294 8.98673 1.44344
3.61792 10.0088 1.47797
-7.37596 -1.0942 1.03293
-6.91159 -3.9313 1.10372
4.94501 -5.53921 1.02621
5.22412 -5.39401 1.04221
7.45624 -3.53355 1.15393
3.3628 10.0849 1.48958
8.37785 4.5852 1.3511
7.36802 -3.67465 1.16803
7.57948 -3.3316 1.1804
7.75385 -3.30228 1.19588
8.91681 2.80765 1.34563
4.82997 -5.63098 1.06637
7.34686 -2.85041 1.14732
-6.9657 -3.3036 1.12397
7.90972 -2.77667 1.22226
8.65342 -1.81772 1.29797
4.98619 8.53696 1.45939
2.93367 9.37685 1.46163
7.72421 -1.88599 1.17186
7.20766 5.7401 1.37294
3.43426 9.50057 1.49329
3.1656 9.73166 1.51663
-7.37829 -1.04452 1.10522
-7.08168 -2.02514 1.09799
6.92531 6.26907 1.41043
-6.26856 -2.27367 1.00098
-7.24771 -1.37675 1.11395
7.9179 4.80469 1.41107
5.68922 7.33087 1.40804
5.27313 7.60311 1.40828
5.03676 7.98188 1.427
6.75424 -3.22318 1.13182
7.23981 -3.12192 1.20742
7.62855 -2.75278 1.23588
-7.32466 -0.733765 1.1245
-7.10439 -1.95645 1.13764
6.78378 -3.09043 1.15285
3.74921 -5.78564 1.06608
-7.06002 -2.07806 1.1541
-7.35392 -1.09407 1.16776
7.34225 4.76233 1.38229
-7.20584 -1.44498 1.16961
-7.27903 -1.30245 1.1868
-7.10453 -2.02104 1.20149
7.05182 4.75107 1.38809
-7.10821 -1.94739 1.21102
6.99141 4.85242 1.41367
6.59844 4.83981 1.36567
5.19105 6.2248 1.35031
4.65639 7.14634 1.42456
3.80507 7.89752 1.45716
-7.25665 -1.37493 1.23328
2.79247 -5.77702 1.08165
7.1246 4.41782 1.41232
6.49611 5.22426 1.40641
3.87332 -5.36481 1.11562
3.93652 -5.02082 1.08004
-7.27986 -1.25374 1.25347
-6.60403 -2.62753 1.2062
7.4019 2.84217 1.34486
7.01428 3.88247 1.36628
-6.41966 -2.75533 1.18888
6.75902 4.0892 1.35622
5.68047 -3.51841 1.15009
-7.40403 -1.04074 1.29336
-6.36217 -2.28235 1.16236
5.53352 -3.64675 1.14233
5.31749 -3.773 1.14286
3.58175 7.13205 1.4039
-6.80579 -1.73679 1.23388
4.47966 -4.46709 1.11335
-7.09946 -0.915586 1.27554
4.72459 -4.45719 1.14945
4.31416 6.47114 1.38784
6.57242 3.46665 1.34197
6.61139 3.67458 1.35888
-6.44696 -1.50187 1.19094
3.60884 -5.32632 1.17037
5.0634 5.59704 1.38201
-6.16008 -2.18504 1.19822
3.41341 -5.15899 1.15042
3.37413 6.744 1.41081
-1.6974 -5.78092 1.14458
6.43295 2.7269 1.3297
-2.14296 -5.72695 1.17565
6.29744 2.79083 1.32615
-2.78748 -5.37655 1.18692
-3.53614 5.37007 1.39373
4.46167 3.88554 1.35031
4.15161 -2.87909 1.17718
4.62852 -2.18624 1.23688
4.19221 3.28599 1.31945
3.70844 -2.93106 1.22419
4.0127 2.57095 1.3314
-1.4429 -4.11712 1.2217
-2.32099 -3.57963 1.21263
3.85504 2.36129 1.30974
-2.86734 3.53404 1.36503
-2.48073 -2.91666 1.18963
-2.37817 -2.93777 1.19455
1.84376 -2.81289 1.18245
1.86674 -2.79106 1.21247
1.99277 -2.52732 1.19874
-2.04637 2.81145 1.32305
2.80376 -0.555678 1.25909
2.78294 -0.336821 1.24075
-2.08936 -1.61927 1.21321
-2.07714 -1.45138 1.23831
-1.86219 -1.79594 1.28359
-1.99475 -1.1315 1.2048
-1.98627 -1.07045 1.23165
-1.94612 -0.88044 1.23192
-1.93053 -0.708478 1.22226
-1.9294 -0.701578 1.24948
-1.90582 -0.469743 1.22236
-1.87125 -0.345746 1.21961
-1.85608 -0.401216 1.22631
2.37795 -19.6967 -10.0113
-7.61167 -8.98659 0.465727
8.01488 -8.79613 -10.4633
8.26104 -8.6266 -10.4999
8.21266 -8.28748 -9.88254
6.95559 -11.9534 -11.4064
8.51291 -8.97011 -9.7376
7.8476 -8.93419 -9.13229
5.84882 -12.7959 -10.7273
9.42283 -8.8301 -9.74036
6.14634 -14.0923 -11.5742
8.28412 -8.67577 -9.01904
8.01486 -9.16569 -9.1052
7.28944 -9.2426 -8.77021
5.90855 -14.1493 -11.1878
7.71541 -9.30252 -8.721
7.85268 -9.11348 -8.66588
7.12603 -10.5767 -9.08025
6.81738 -11.0688 -9.21601
10.0473 -9.18742 -9.56208
6.53687 -11.1711 -8.86107
8.02999 -8.62459 -7.84718
7.35746 -9.27699 -7.86864
8.51239 -8.67765 -8.08007
7.71688 -9.46871 -8.02502
6.48444 -12.7695 -9.35219
7.92985 -9.1769 -7.91049
5.0014 -16.0372 -10.805
-0.472789 13.9399 -8.91851
7.7244 -9.24064 -7.72332
7.33169 -10.8586 -8.3425
8.37398 -8.56223 -7.63026
10.8675 -9.61385 -9.20352
8.98513 -8.81473 -7.89425
11.755 -10.0241 -9.68217
8.06905 -8.53199 -7.22488
4.04111 -16.8444 -10.6168
4.2488 -15.3783 -9.79647
7.84099 -9.35478 -7.31522
3.95254 -15.6308 -9.6144
11.4697 -9.81928 -9.04325
6.86069 -11.0716 -7.73428
7.76859 -8.81562 -6.96077
5.48565 -13.9937 -8.88084
6.48551 -12.7011 -8.34634
8.35823 -8.59063 -6.98499
9.68188 -9.07563 -7.73812
2.78993 -11.7932 -6.94678
5.4761 -13.892 -8.45522
9.58889 -9.09982 -7.4731
6.61456 -11.0651 -7.25897
3.35004 -20.7168 -11.7613
8.87429 -8.93465 -7.05949
12.1783 -10.2174 -8.90601
6.82033 -11.0009 -7.21112
4.68148 -14.608 -8.47803
6.219 -12.6167 -7.73827
0.8969 18.5695 -10.1194
14.597 7.71303 -8.96899
4.20249 -14.2397 -8.01896
14.7032 -11.635 -10.1076
14.95 7.42886 -8.89107
13.9897 7.70779 -8.48564
4.76417 -14.8456 -8.28465
12.0691 -10.1385 -8.2952
1.81442 -20.5052 -10.5906
11.4033 -9.84116 -7.71713
2.082 -20.2296 -10.3197
13.9417 -11.0663 -9.00366
0.00562004 14.2799 -7.16715
-7.32253 15.223 -8.4675
10.5836 -9.59102 -7.17705
7.50978 -9.4195 -6.00219
-8.53816 16.1884 -8.84712
11.628 -9.76566 -7.34995
10.4843 -9.57567 -6.81845
14.76 -11.316 -8.97116
16.6546 15.7762 -10.8967
7.47808 -11.053 -6.35853
14.985 7.40398 -7.8413
13.9063 -11.0118 -8.29081
-11.9992 17.184 -9.60465
15.8092 -11.979 -9.06207
9.76993 -2.44958 -4.62648
-9.12104 -1.65821 -4.21591
18.6603 18.0062 -11.6985
3.91212 -9.09659 -4.49453
-10.2506 16.7469 -8.81954
-5.35353 4.45213 -3.13175
6.85271 -11.2821 -5.94293
9.42024 -9.07936 -5.77062
15.9866 7.29275 -7.75097
-6.65406 15.1151 -7.21503
1.50042 -18.7543 -8.13753
-11.2182 17.0702 -8.79677
9.57621 -3.36837 -4.3478
7.01207 -11.0373 -5.52818
15.7938 -11.9392 -8.28816
14.6221 7.72937 -6.93628
18.69 19.4445 -11.2696
1.02069 -22.6523 -9.44004
-4.54275 13.8995 -6.02648
-9.94659 -1.11253 -4.14811
14.062 7.76454 -6.55764
20.3699 22.1572 -12.2656
-13.0947 2.454 -5.4275
15.0856 7.1675 -6.75375
-5.23601 14.3523 -6.14617
3.63654 -8.8042 -3.79171
13.9178 -10.9894 -6.93065
19.2342 21.526 -11.1957
18.7683 5.78745 -7.61499
1.53867 19.2233 -7.47583
-8.76162 15.7891 -6.96332
11.3871 -10.0402 -5.83967
19.1674 22.2213 -11.3015
0.683488 15.3683 -5.89032
-1.66307 12.7755 -4.95708
2.71334 -12.2447 -4.81205
-8.77977 -1.25398 -3.37119
0.703456 -23.7093 -8.95011
15.1526 -11.6122 -7.20016
9.48523 -3.46103 -3.8086
-14.629 18.0359 -8.65718
-7.89942 -3.50911 -3.17035
1.09652 -10.4663 -3.8703
7.02286 -11.2283 -4.8435
14.1689 7.91128 -5.85774
-8.30226 -2.85049 -3.15655
0.790032 15.2752 -5.45299
-3.96463 13.4124 -4.94985
5.73303 -10.9789 -4.35904
15.801 -11.9415 -7.01542
19.0401 5.88053 -7.00998
2.1064 20.552 -7.24277
21.5308 26.0281 -11.7365
-14.9381 18.4408 -8.14813
2.96805 -13.3258 -4.6994
-8.92193 16.1188 -6.2982
18.4294 -13.0533 -7.74109
-5.05304 14.5219 -5.23041
1.36225 -22.2979 -7.40265
1.75752 19.5788 -6.49224
1.44826 -10.3209 -3.44446
38.9158 -19.8931 -14.3445
6.16413 -10.0396 -3.77128
17.5215 -12.3718 -6.87047
2.11536 20.6344 -6.59976
-13.4036 17.8954 -7.05164
1.45458 -22.7984 -7.11765
-4.31447 14.7738 -4.78472
-10.9908 16.6544 -6.04972
-2.77132 -28.1926 -8.60543
3.06214 -9.46352 -3.02312
0.796085 -24.3703 -7.33247
19.0652 -13.5325 -6.93817
17.5643 5.55662 -5.40497
-7.91376 15.322 -5.02253
4.22421 -10.4827 -3.28494
3.61686 -10.5577 -3.17662
4.23633 -10.9328 -3.29171
-13.3611 17.8597 -6.2065
-9.31928 15.9325 -5.02354
-13.2679 1.9889 -3.67879
-16.9896 19.5205 -7.02884
26.1948 -17.2446 -8.49876
-3.95354 -28.1852 -7.63226
3.78024 -9.13922 -2.64638
-9.83412 16.349 -5.08044
46.975 -13.7158 -12.9774
10.519 -9.38191 -3.73129
-6.46972 14.9823 -4.26539
-14.4704 18.1433 -6.09183
-8.08125 -38.2305 -10.1772
4.95256 -9.56082 -2.7873
6.55014 -10.4831 -3.18935
-7.23583 15.3591 -4.31796
-10.5916 16.498 -5.01137
-9.99719 -39.6141 -10.1592
-9.14058 -39.457 -9.88896
10.9255 -9.63118 -3.58163
-7.99488 15.5184 -4.23507
-11.77 17.1086 -5.02885
14.5807 7.70195 -3.91336
4.0423 -9.24274 -2.38779
15.1833 7.51945 -3.99251
3.74297 -8.89977 -2.26978
-6.58006 -32.7802 -7.7413
5.61856 -9.87092 -2.63277
44.493 -10.7671 -10.6404
