ply
format ascii 1.0 
element vertex 1875
comment /media/mkaihara/Seagate Backup Plus Drive/model_iterations/model_64.ply
property float32 x 
property float32 y 
property float32 z 
end_header 
-8.9673 16.2671 -6.33208
3.02516 -13.6873 -4.77932
-15.1206 18.5587 -8.11563
20.1198 5.47029 -7.00796
21.9409 27.1422 -11.664
35.9185 -20.2761 -13.7841
-5.35164 14.1948 -5.03864
1.91195 20.7162 -6.90279
1.26734 -10.2482 -3.41433
-5.29831 14.5893 -5.04163
-12.7058 17.3944 -6.98809
18.5239 -13.1999 -7.38672
3.55911 -8.67098 -3.00516
6.21593 -10.1066 -3.80258
2.31323 -11.007 -3.57928
-4.59166 -34.4896 -11.0584
-1.14294 -23.9429 -7.6298
14.99 10.3238 -5.74391
-13.3357 17.7455 -7.0166
-18.1685 19.5964 -8.40067
6.95607 -11.0857 -4.04624
1.38637 -21.9227 -6.79523
-2.58904 -27.5739 -8.50077
7.152 33.0282 -10.3118
0.771051 15.0217 -4.56858
-11.2404 16.9597 -6.13277
-2.71775 -26.6836 -8.07701
-14.4827 18.1079 -6.91879
-5.33575 -34.9865 -10.5373
0.839628 -25.1162 -7.51383
-5.44302 14.9709 -4.73879
2.07774 20.6677 -6.11976
-21.4853 20.0333 -8.66712
18.1802 5.78535 -5.61561
-4.33385 14.557 -4.46614
-8.00141 15.5233 -5.12404
4.25412 -9.1397 -2.96307
4.634 -11.6113 -3.65561
-12.6492 2.22832 -3.69143
-33.3707 -47.27 -16.6494
-15.3422 18.4568 -6.89973
6.95281 -11.0738 -3.76445
2.56303 -9.5433 -2.80768
12.9192 -10.4572 -4.73011
-8.46043 -2.46225 -2.4985
20.9771 27.0535 -9.69871
-8.58818 -2.26353 -2.50968
-2.57107 -26.2341 -7.397
-13.057 2.00083 -3.67857
4.38537 -11.3231 -3.3703
-9.39838 16.1629 -5.13331
-13.1822 17.5809 -6.03579
-5.44428 14.5305 -4.24148
-8.59963 -41.7614 -11.6653
-21.6783 20.2299 -7.97144
-9.82261 16.2881 -5.09763
-26.9745 20.7213 -9.04932
11.4131 11.4869 -4.27249
4.32442 -11.289 -3.20262
46.8736 -13.6262 -12.9316
-8.29708 -39.1543 -10.5193
4.08767 -8.65351 -2.52
11.1608 -9.927 -3.90752
-14.5886 18.2662 -6.07884
6.53258 -10.4177 -3.18273
3.17694 -9.64276 -2.62468
-30.4632 -44.6166 -13.95
-4.40091 -28.8653 -7.55414
3.53934 -10.3672 -2.82474
4.06649 -9.38323 -2.62853
15.5837 -11.7179 -4.97497
-7.22482 15.3921 -4.3041
-31.8975 -42.5394 -13.4827
4.3093 -11.1378 -3.02262
4.25378 -7.70202 -2.2393
6.53193 -10.6547 -3.11684
44.5781 -13.4777 -11.6114
-28.5444 21.5356 -8.84042
-11.6377 17.0979 -5.09902
-27.8873 -40.6816 -12.1269
-10.0108 -39.4025 -10.0275
-24.7112 20.7554 -7.93067
4.34727 -10.3255 -2.75263
-12.1758 17.4404 -5.15747
-7.91849 15.4286 -4.18018
10.2664 -9.26041 -3.31051
40.0971 -13.3193 -10.1108
15.093 7.54813 -4.01729
-6.38349 -36.5564 -8.83944
3.96379 -9.08326 -2.34833
46.7455 -12.511 -11.4852
-12.322 -45.3688 -11.1363
4.19895 -8.98428 -2.36587
3.85538 -11.0579 -2.76006
4.90602 -8.68903 -2.34745
-12.8968 17.5753 -5.07351
10.9974 -9.63753 -3.34215
-6.24925 -31.6897 -7.36961
-27.4054 21.1666 -7.84963
41.3256 -9.03762 -9.59991
-30.7872 22.3531 -8.53027
-35.6921 -23.3899 -9.56151
40.5258 -12.5278 -9.52414
5.45095 -9.46794 -2.43922
-12.4378 2.83803 -2.79922
40.3994 -11.839 -9.30154
42.3617 -12.087 -9.69198
-5.43102 14.2498 -3.33463
13.3739 -10.7618 -3.77858
37.8861 -12.1753 -8.74853
-23.599 20.5678 -6.79042
-30.1792 -74.4041 -17.4215
4.30631 -9.69246 -2.30001
4.53601 -9.17394 -2.21057
-14.7099 18.327 -5.01887
-31.2287 22.6839 -8.24197
-32.1169 22.7922 -8.4188
-28.8158 -76.4521 -17.5118
-10.7868 16.8552 -4.24346
-8.53754 -36.2409 -7.91707
3.18789 -9.67798 -2.17288
3.963 -9.82132 -2.25818
45.5306 -10.5563 -9.97714
14.9256 7.47599 -3.53889
-15.2905 18.8227 -5.1346
5.16059 -9.04887 -2.18859
26.4143 38.2176 -9.70778
14.965 7.83191 -3.50663
-30.3525 -23.4413 -7.95557
-33.8594 -86.8169 -19.2913
-11.5494 17.0167 -4.17944
-15.7559 18.6287 -4.96721
-35.5149 23.8402 -8.69207
44.1812 -9.63682 -9.22164
-13.4408 -43.2487 -9.20407
4.13237 -9.7261 -2.15009
11.5912 -9.63542 -3.06681
-12.1007 17.3653 -4.2253
-20.2807 -58.2055 -12.3178
-13.133 -40.7965 -8.48477
4.06632 -9.9129 -2.12145
-34.354 -23.491 -8.2041
-26.9591 21.1586 -6.74514
-33.3785 -23.8762 -7.99967
-6.95198 15.3622 -3.27325
-27.0654 -63.5947 -13.4241
-33.7867 -22.4929 -7.82162
3.43304 -9.35467 -1.92423
45.6101 -10.5676 -8.99036
-12.8525 17.5478 -4.15831
3.98604 -9.33762 -1.93758
-36.6972 -22.2909 -8.12772
-21.4676 -34.8735 -7.78796
-15.8089 -45.6145 -9.13406
37.7202 -12.443 -7.50878
-36.2836 24.3691 -8.17992
-33.9252 -23.4295 -7.74517
-32.8708 -24.0496 -7.64541
-21.656 -53.6507 -10.8858
-17.1249 -46.5157 -9.19406
3.81807 -9.2017 -1.84016
42.349 -11.4138 -8.14487
5.75328 -9.70546 -2.06781
-24.9358 -56.5426 -11.3134
-20.7567 -51.5195 -10.0457
-14.6759 18.2939 -4.15879
-31.3138 -25.2553 -7.15075
-20.4369 -27.2328 -6.08858
-39.7388 25.0756 -8.29076
-26.9688 21.1757 -5.9682
-34.3804 23.5262 -7.23333
3.90607 -10.0411 -1.86828
4.76912 -8.60761 -1.71015
13.9832 7.50934 -2.73737
14.0562 8.06607 -2.77548
-31.0798 22.6008 -6.58805
42.03 -11.8912 -7.43652
41.8291 -10.8334 -7.35574
-31.4709 -24.9938 -6.8174
-21.2238 20.213 -4.92184
-20.7073 -51.4702 -9.3737
14.8378 7.43671 -2.78343
-31.9585 22.6247 -6.54082
-23.9539 -57.1102 -10.2329
43.3425 -11.6761 -7.29614
-10.4305 16.5592 -3.15831
-21.0008 -52.0998 -8.95863
-35.1327 -24.2523 -6.72703
-22.9427 20.1571 -4.78227
-24.3562 20.792 -4.96339
-40.4482 24.49 -7.32728
-11.3051 16.9203 -3.14165
3.46932 -9.52135 -1.56729
3.86562 -10.2223 -1.69224
-7.68023 15.5777 -2.65308
-31.3123 22.7899 -5.92019
-31.974 -24.6958 -6.14339
-28.1317 -26.314 -5.83553
42.0166 -10.923 -6.59899
44.643 -9.72611 -6.961
-6.59329 14.6858 -2.40893
9.82586 -5.15047 -1.64654
-33.7173 -24.3187 -6.19087
-26.9787 -68.2148 -10.8792
10.1853 -9.15768 -2.04123
44.7825 -10.3599 -6.8263
-36.9067 -24.5683 -6.52507
-31.7281 -26.1706 -6.01637
-12.8484 -42.5714 -6.54257
16.8903 -12.2201 -3.05384
-25.5757 21.0572 -4.81456
-25.1048 -56.2503 -8.87601
-7.6769 15.3763 -2.45771
-12.8017 17.4545 -3.08631
6.02871 -11.5178 -1.85774
-13.5079 18.0546 -3.16752
-34.9836 23.6321 -5.93548
6.75322 -11.0311 -1.80784
37.4397 -12.3558 -5.54529
-31.3592 -25.1281 -5.60828
-33.2702 23.9096 -5.67577
-20.8946 -50.3595 -7.53027
44.9326 -10.0519 -6.34912
-6.92515 15.3155 -2.29724
-23.0607 -60.1853 -8.75523
7.74614 -9.37423 -1.63199
-14.1028 18.0071 -3.08346
13.201 -10.5288 -2.28482
-22.3815 20.3586 -4.06854
41.9388 -10.8433 -5.75101
44.659 -9.78213 -6.05133
-22.7634 20.032 -3.96517
-32.9053 -24.6225 -5.36804
-15.0002 18.3683 -3.06645
-34.294 22.8894 -5.35297
-38.5746 -16.2877 -5.40636
7.01062 -10.4262 -1.61209
10.7583 8.8081 -1.7852
-34.0272 -23.4493 -5.28836
-31.6825 23.1289 -4.96212
-35.8147 -22.3488 -5.29137
41.8038 -10.8111 -5.40373
6.79013 -10.3587 -1.54773
-7.71372 15.429 -2.13608
-25.1966 21.157 -4.02882
-33.6604 23.7228 -5.07977
6.28811 -12.0598 -1.65698
44.6115 -9.51777 -5.58732
14.9798 7.84803 -2.03311
-18.1901 -44.0556 -5.74719
7.08046 -10.5231 -1.52721
-20.6137 9.13572 -2.66871
-14.5202 -43.9232 -5.43932
-32.0594 -24.7173 -4.73346
-31.5423 -25.2259 -4.7263
41.8857 -11.2199 -5.09658
11.2207 -9.66304 -1.71564
-30.1084 22.8295 -4.34725
6.63647 -10.8132 -1.45253
7.48412 -9.21434 -1.35791
11.5723 -9.71468 -1.71618
9.44427 -4.60735 -1.18993
14.9583 7.68665 -1.89527
-10.4229 16.593 -2.21159
-32.4366 23.7016 -4.5006
38.7321 -12.7501 -4.57297
9.34961 -9.01617 -1.43702
-11.1426 16.7116 -2.18361
6.78492 -12.7739 -1.56686
44.7522 -9.72623 -4.96491
10.7562 8.83896 -1.50032
16.7456 -12.4391 -2.23897
42.0802 -10.9138 -4.65831
9.61146 -8.97161 -1.39302
8.3736 -8.45867 -1.24691
-31.1011 -24.8882 -4.14778
-30.6678 -61.5136 -7.17038
14.9552 7.50023 -1.70925
-31.9992 -24.6735 -4.14586
-12.9448 17.6464 -2.22231
-12.8611 17.2308 -2.13729
10.199 -9.08044 -1.3378
-21.1863 -53.8053 -5.6691
6.30902 -12.082 -1.31931
16.6155 -12.1561 -1.97905
41.9694 -11.2777 -4.16585
-31.2215 -63.1105 -6.69339
-21.1718 -55.5611 -5.64667
-23.4715 20.5302 -2.91522
45.4475 -10.1103 -4.34882
9.70874 -8.97985 -1.22429
39.5573 -13.0489 -3.88166
-15.1213 18.5363 -2.16647
-29.8361 -13.6032 -2.98901
-32.8554 -64.0489 -6.63515
15.8331 -11.8509 -1.79919
8.63 -8.72091 -1.11105
12.8757 -10.6282 -1.45392
45.0358 -10.4384 -3.96038
9.3945 -9.02088 -1.09488
10.9412 -9.63514 -1.22549
-34.4163 23.6353 -3.47437
16.8152 -12.2622 -1.72385
-17.1506 -44.6291 -3.82951
14.6617 -11.4645 -1.48425
-11.8433 -33.156 -2.77897
-30.0393 22.8405 -2.9184
-33.3432 23.5681 -3.15222
-23.0457 -52.6425 -4.43653
-51.6188 28.0932 -4.4503
-21.5323 20.2652 -2.151
-33.5721 23.7466 -2.98027
16.3526 -12.2186 -1.49341
41.9958 -11.2381 -3.1674
-40.0506 -75.7794 -6.1857
13.956 -11.042 -1.27368
-15.7445 -41.7659 -3.08075
10.756 -9.6058 -0.988085
-23.4955 20.5725 -2.10921
12.8542 -10.6066 -1.11566
17.9207 -12.9978 -1.47601
16.016 -12.1142 -1.32633
-14.8452 -41.1598 -2.83045
43.7454 -11.3772 -2.82552
-32.3878 -65.623 -4.46585
35.7363 -8.66964 -2.25691
42.9228 -9.8243 -2.70339
6.04032 -13.0568 -0.859975
30.8015 -20.3813 -2.21034
-9.9076 16.5393 -1.13351
-15.7433 -41.0676 -2.50447
16.5827 -12.393 -1.16248
-9.70568 -12.5819 -0.870804
14.9461 7.66786 -0.908155
13.8831 -10.9899 -0.94824
-12.8672 17.437 -1.13197
-16.6558 -41.2827 -2.36429
14.8404 7.80354 -0.821685
-16.4853 -42.1386 -2.2203
-14.2414 18.0509 -1.0996
9.55782 -9.01556 -0.602675
-24.3383 -55.8292 -2.75606
12.4366 -10.2239 -0.746454
-16.2156 -45.2025 -2.13225
-17.4106 -42.8963 -1.98214
6.84575 -12.6407 -0.637865
-14.0926 -42.9587 -1.92599
-53.0479 28.8493 -2.44617
18.3028 -13.1492 -0.914732
16.7733 -12.4675 -0.814035
-42.2863 -82.0739 -3.48346
-18.4758 -48.4497 -1.90993
-33.8742 23.2747 -1.50312
42.4734 -10.9438 -1.5795
-35.054 -69.7286 -2.6114
-26.2433 -57.5122 -2.12871
20.0754 23.2182 -1.01887
-21.5753 20.2181 -0.963317
8.10238 -14.3001 -0.552122
9.41412 -8.98723 -0.421935
11.2876 -9.93711 -0.488891
18.5571 -13.1213 -0.747049
34.7294 -13.0987 -1.23192
21.8545 26.4548 -1.09997
-27.4994 -13.7935 -0.964287
-23.0452 20.5218 -0.940338
-31.9134 22.6026 -1.22036
-25.3501 -58.2809 -1.9687
-13.9591 -39.4899 -1.29031
-21.8258 -55.6747 -1.81091
-16.8292 -45.6108 -1.39308
-34.215 -20.7454 -1.06573
11.4367 -9.70222 -0.401826
16.3117 -12.1324 -0.535995
-41.3688 25.5921 -1.28271
-30.4961 23.2046 -0.947898
-31.0171 22.7317 -0.908961
9.56017 -8.99979 -0.304198
-41.5937 14.3758 -0.972497
-31.7912 -53.2347 -1.3968
21.222 -14.1933 -0.561321
30.4004 -18.4339 -0.802618
14.2113 3.92742 -0.30067
27.1723 47.4826 -1.00512
23.4937 -10.9376 -0.456491
46.9754 -10.8169 -0.896789
-30.8029 -22.1361 -0.691698
-29.7741 -29.2441 -0.661851
-19.2161 -47.1514 -0.848222
12.7051 -10.4478 -0.270697
18.486 -13.3579 -0.348655
-29.4007 -13.0679 -0.422332
-33.0263 -24.7161 -0.573978
-33.9087 -68.3574 -1.03069
-28.1246 -59.8581 -0.906687
-34.1307 -23.3095 -0.539629
-30.5155 23.2158 -0.451189
16.9686 -12.6718 -0.251553
29.2272 -18.1223 -0.404854
-30.9745 22.7396 -0.427599
-19.3009 -44.2655 -0.517001
-12.1436 -36.5509 -0.388162
-33.8312 -59.6098 -0.631916
-14.4133 18.2829 -0.178502
-26.821 -13.5223 -0.242465
-15.1075 18.4159 -0.162705
-22.6989 20.2721 -0.156394
-21.1292 19.8185 -0.131569
-10.5848 -13.6077 -0.0605323
14.7083 7.72664 -0.0199395
11.0966 -9.75752 -0.00780596
-34.6841 -18.9972 0.060376
-11.4528 -34.0379 0.116616
16.9287 -12.2992 0.0907672
-19.0165 -43.6582 0.21128
18.746 -13.208 0.12174
7.16732 -12.3205 0.103997
25.951 -10.6471 0.172502
-55.7983 19.9239 0.565372
16.223 -12.0229 0.192754
37.3494 -7.62535 0.359711
-29.2019 -8.23429 0.355027
-36.5004 -22.0309 0.470221
-11.4354 -32.7638 0.371921
-12.8362 -35.5695 0.449878
-10.3805 -31.9074 0.402298
6.3214 -12.921 0.183618
7.20633 -11.1018 0.174022
-28.3779 22.2758 0.552783
11.3013 -9.86987 0.225569
-24.278 20.762 0.52764
10.8892 -9.72278 0.22911
12.956 -10.6658 0.264379
36.3036 -7.76948 0.617688
-34.7635 -23.291 0.761132
-31.4555 22.4908 0.759705
6.13409 -12.8162 0.275706
7.01496 -11.0396 0.251988
8.01973 -9.41062 0.24145
27.1623 55.8519 1.35131
7.72274 -9.43609 0.275677
10.1202 -9.1663 0.329414
-28.9374 -9.27909 0.732122
-23.4649 20.4813 0.843113
-27.7736 21.8994 0.949704
-29.0667 -8.72775 0.799862
9.18225 -8.88823 0.34522
9.61625 -8.93759 0.35786
-25.7654 21.7153 0.915981
25.3206 -5.12241 0.719302
12.9658 -10.6365 0.499569
14.7344 24.0034 0.869198
6.18126 -12.7516 0.445938
7.44893 -11.6117 0.432923
-28.5892 -8.06307 0.974759
-12.6633 -19.3889 0.762883
-28.2706 -8.83597 1.02421
16.0723 11.0007 0.704059
-29.9861 -18.5813 1.23306
15.6661 27.2132 1.12088
-30.6043 -16.6938 1.2919
23.4868 -4.24113 0.862327
-27.9801 -19.9 1.27228
-7.30622 -7.9663 0.408
9.04379 -8.81903 0.469554
12.3902 13.5537 0.708227
25.6873 52.9909 2.23067
24.5551 52.2802 2.17542
-11.5821 -9.16771 0.582517
8.71606 -8.66178 0.4861
-25.8507 21.2948 1.36014
21.7929 -2.95352 0.89103
-28.95 -17.5843 1.38764
9.40569 -8.91843 0.531444
12.4125 14.2957 0.814712
6.56764 -12.4377 0.597286
14.7865 19.2127 1.06605
20.6397 28.5089 1.54172
-9.52118 -13.8439 0.7385
-10.0128 -15.6596 0.825042
7.58918 -10.9381 0.58655
8.61702 -8.70639 0.553568
24.1317 -3.69677 1.10233
-30.0032 -8.74339 1.4266
6.73435 -11.0711 0.596231
-8.28771 -8.15609 0.547314
21.0821 42.5355 2.27159
-28.7106 -17.7442 1.59543
-9.79533 -13.7398 0.803121
9.65105 -8.95448 0.620078
15.2526 42.3859 2.18086
-30.4094 -13.4692 1.58752
-6.77287 -8.25714 0.525575
14.3893 33.4628 1.85891
-29.8917 -11.7057 1.61112
-7.60382 -6.99197 0.522248
-6.70923 -7.60564 0.513142
15.9871 28.9606 1.71792
10.5036 12.282 0.873528
14.1412 19.2439 1.28241
9.33565 -8.91656 0.69169
14.7277 19.1628 1.33467
15.1684 23.4275 1.537
-27.7118 19.5119 1.8582
-6.98405 -8.20777 0.597722
-26.6383 20.4395 1.86729
6.08339 -12.8447 0.795206
-7.11889 -9.17438 0.662288
9.912 12.3807 0.932883
14.786 24.9125 1.69269
6.45089 -12.9561 0.832959
13.7327 22.4045 1.55237
-8.27452 -8.13354 0.69917
11.4872 11.5664 0.97226
14.5765 19.3869 1.45749
-7.41281 -10.0348 0.775949
6.9991 -11.1536 0.802483
11.2442 -9.69875 0.900209
5.85851 -10.7396 0.759154
-7.20556 -6.66018 0.613251
14.3756 20.3927 1.57887
16.0921 7.14307 1.14327
-7.04671 -6.15677 0.61413
6.45143 -13.422 0.992476
9.31107 21.0321 1.55179
10.3658 12.494 1.10997
13.4597 18.0987 1.57333
12.2989 20.3914 1.64793
11.2927 11.9291 1.15312
6.58881 -9.82617 0.837821
11.4413 11.7056 1.18469
9.79106 -6.91154 0.852779
12.3001 11.9075 1.25747
9.909 -8.36802 0.95014
-6.18326 6.70149 0.68103
10.3896 9.14828 1.04001
11.8347 17.6948 1.60186
11.3866 18.1412 1.61402
-6.95714 -7.7116 0.805464
10.7651 18.5805 1.64776
9.49727 -8.94168 1.00809
-6.42318 -4.304 0.609944
9.10528 18.2422 1.62939
10.0639 -6.88667 0.97644
12.3948 11.5001 1.36694
9.65883 18.7536 1.69872
-7.28039 -9.65683 0.985139
6.70713 -9.36535 0.937381
12.1822 11.654 1.38152
12.0859 11.8861 1.40778
11.3644 11.8784 1.3611
-5.06442 -11.5589 1.06158
10.255 12.8303 1.3977
-6.97071 -6.09131 0.797476
-6.82733 -6.70605 0.808473
-5.22551 -11.4608 1.07118
-7.3138 -7.76091 0.918452
9.26925 -7.24401 1.01642
-7.134 -8.07293 0.942913
-7.02937 -7.70407 0.917293
9.33618 12.4619 1.38064
-6.96551 -8.38829 0.97419
10.7683 9.03528 1.28121
10.4014 13.3965 1.53249
10.4777 9.20211 1.27665
7.66625 13.916 1.46149
-6.51013 -8.15083 0.955881
-6.9174 -9.03733 1.05052
11.1439 10.7479 1.42867
11.2003 9.13827 1.3528
10.8151 10.75 1.42956
6.43598 14.8728 1.52291
-11.4619 2.93637 1.10986
-6.36823 -4.17546 0.71357
-6.81562 -6.30308 0.861013
9.37566 13.2224 1.56377
-6.05357 6.57787 0.880619
7.95046 -6.60094 1.00712
7.88165 13.1419 1.52231
-7.08101 -7.63091 1.04886
9.25782 11.5758 1.49519
6.96462 12.366 1.44046
7.01859 12.9303 1.49997
9.49194 9.05313 1.35761
5.81953 13.8731 1.55939
9.08926 12.3621 1.59985
-6.11316 -4.46112 0.793397
5.91884 13.6004 1.56247
6.17879 13.5343 1.56425
-6.97836 -4.43281 0.884427
8.72942 8.97891 1.33519
9.09294 10.1298 1.48054
7.29068 10.9472 1.42952
5.7927 11.4096 1.39128
-6.30867 -7.42156 1.06478
10.2304 6.42951 1.33701
8.95495 8.10498 1.33153
7.27194 11.6239 1.5141
6.80846 11.5717 1.48449
5.32505 11.8248 1.44295
4.83854 12.0271 1.45047
4.66875 13.5776 1.57963
9.82961 7.02821 1.34938
8.71911 9.26833 1.42205
5.35102 11.4495 1.42329
-6.85109 -6.73297 1.06928
6.83199 10.6637 1.42676
4.2876 13.0795 1.55571
9.73969 -3.1916 1.14282
-6.11032 -5.41953 0.945747
7.28173 -6.11367 1.07931
10.3792 5.69481 1.35793
-7.38905 -0.98684 0.854457
-6.26369 -5.36156 0.9492
5.24278 -5.55108 0.879709
5.03763 11.5549 1.46438
-6.89039 -4.5641 0.957913
4.44884 -7.25423 0.984153
10.3733 5.13161 1.35819
8.84821 7.85322 1.38893
-6.00734 -4.3721 0.866077
-6.49266 -5.27906 0.988717
4.08747 -7.85721 1.05333
4.96201 -5.84478 0.919859
10.1345 4.73875 1.34124
8.48294 8.23719 1.4323
5.24458 11.4257 1.53472
9.01299 6.24377 1.34257
7.9775 8.30231 1.44243
-6.49708 -5.75325 1.08048
3.70295 -7.5657 1.05501
8.64417 6.665 1.3727
-6.47482 -5.35024 1.0632
9.05905 5.99209 1.3868
8.15237 7.11346 1.38052
8.08226 7.478 1.40603
5.77138 -5.34028 1.00953
-6.97982 -4.44818 1.06261
8.06862 7.96645 1.47081
-7.36534 -1.04352 0.961405
-6.9303 -2.82935 0.977815
8.95049 4.08957 1.28881
8.37232 6.60509 1.40004
4.99396 -6.02269 1.02843
4.91205 -6.18698 1.04611
6.86341 -4.27846 1.07658
-7.14096 -1.72011 0.984953
-7.01693 -2.22233 0.984303
-6.03116 -4.42662 1.00037
8.10642 6.63498 1.42025
8.58568 4.4271 1.31712
8.60498 5.15122 1.36994
7.99865 7.11168 1.45692
-6.81542 -3.73737 1.05565
8.83701 4.14806 1.33635
8.23841 5.81467 1.38098
-6.40438 -4.33343 1.05833
-5.96313 -4.52942 1.02288
5.33423 8.98891 1.4438
3.61917 10.0122 1.47849
-7.37556 -1.09414 1.03286
-6.9113 -3.93113 1.10366
4.94508 -5.5393 1.02623
5.22422 -5.39411 1.04223
7.45656 -3.5337 1.15398
3.36402 10.0886 1.49014
8.37884 4.58575 1.35126
7.36832 -3.67481 1.16808
7.57981 -3.33174 1.18046
7.7542 -3.30243 1.19593
8.91767 2.80792 1.34576
4.83004 -5.63106 1.06639
7.34716 -2.85053 1.14737
-6.9654 -3.30346 1.12392
7.9101 -2.7768 1.22232
8.65393 -1.81782 1.29805
4.98736 8.53896 1.45974
2.9347 9.38017 1.46216
7.72458 -1.88608 1.17192
7.20864 5.74089 1.37313
3.4354 9.50374 1.4938
3.16673 9.73515 1.51719
-7.37788 -1.04446 1.10515
-7.08134 -2.02504 1.09793
6.92634 6.27 1.41064
-6.26833 -2.27359 1.00094
-7.24733 -1.37668 1.11388
7.91885 4.80527 1.41124
5.69026 7.33222 1.4083
5.27417 7.60462 1.40857
5.03784 7.9836 1.42731
6.75446 -3.22328 1.13186
7.2401 -3.12205 1.20747
7.6289 -2.7529 1.23594
-7.32424 -0.733723 1.12443
-7.10405 -1.95636 1.13758
6.784 -3.09054 1.15289
3.7492 -5.78563 1.06608
-7.05969 -2.07796 1.15404
-7.35352 -1.09401 1.16769
7.34311 4.76289 1.38245
-7.20547 -1.44491 1.16954
-7.27864 -1.30238 1.18673
-7.10419 -2.02095 1.20142
7.05264 4.75163 1.38825
-7.10787 -1.9473 1.21095
6.99224 4.853 1.41384
6.59922 4.84039 1.36584
5.19187 6.22578 1.35052
4.6573 7.14773 1.42484
3.806 7.89946 1.45753
-7.25627 -1.37486 1.23321
2.79241 -5.7769 1.08163
7.12539 4.41832 1.41248
6.49693 5.22492 1.40659
3.8733 -5.36479 1.11562
3.9365 -5.02079 1.08003
-7.27947 -1.25367 1.25339
-6.60377 -2.62743 1.20615
7.40254 2.84242 1.34498
7.01499 3.88286 1.36642
-6.41943 -2.75523 1.18882
6.75972 4.08962 1.35636
5.68057 -3.51847 1.15011
-7.40362 -1.04068 1.29327
-6.36194 -2.28227 1.16231
5.5336 -3.64681 1.14235
5.31756 -3.77305 1.14288
3.58254 7.13363 1.40422
-6.80548 -1.73671 1.23381
4.47966 -4.46709 1.11335
-7.09909 -0.915538 1.27546
4.72462 -4.45722 1.14946
4.31492 6.47229 1.38809
6.57302 3.46697 1.34209
6.61202 3.67493 1.35902
-6.44669 -1.50181 1.19088
3.6088 -5.32627 1.17036
5.06412 5.59783 1.38221
-6.15986 -2.18496 1.19817
3.41336 -5.15891 1.15041
3.37483 6.74542 1.41112
-1.69744 -5.78106 1.1446
6.43346 2.72712 1.32981
-2.143 -5.72705 1.17566
6.29794 2.79105 1.32626
-2.78751 -5.3766 1.18693
-3.5355 5.36909 1.39345
4.46211 3.88592 1.35045
4.15158 -2.87907 1.17717
4.62854 -2.18624 1.23689
4.19256 3.28626 1.31957
3.70838 -2.93102 1.22417
4.01296 2.57112 1.3315
-1.44296 -4.1173 1.22175
-2.32106 -3.57973 1.21265
3.85527 2.36144 1.30983
-2.86704 3.53365 1.36486
-2.4808 -2.91673 1.18965
-2.37824 -2.93785 1.19457
1.84364 -2.81272 1.18239
1.86663 -2.7909 1.2124
1.99265 -2.52718 1.19868
-2.04622 2.81122 1.32291
2.80373 -0.555671 1.25909
2.78292 -0.336817 1.24075
-2.08942 -1.61931 1.21322
-2.0772 -1.45142 1.23833
-1.86225 -1.79599 1.28361
-1.99481 -1.13152 1.20481
-1.98632 -1.07047 1.23166
-1.94617 -0.880459 1.23193
-1.93057 -0.708491 1.22226
-1.92944 -0.701591 1.24948
-1.90586 -0.469752 1.22236
-1.87128 -0.345753 1.2196
-1.85611 -0.401224 1.2263
2.3779 -19.6958 -10.0108
-7.61104 -8.98585 0.465689
8.01537 -8.79667 -10.4639
8.26152 -8.62709 -10.5005
8.21313 -8.28795 -9.8831
6.956 -11.9541 -11.407
8.51347 -8.9707 -9.73824
7.84807 -8.93471 -9.13282
5.84913 -12.7966 -10.7278
9.42354 -8.83076 -9.74108
6.14666 -14.093 -11.5747
8.28466 -8.67632 -9.01961
8.01538 -9.16628 -9.10578
7.28988 -9.24315 -8.77072
5.90889 -14.1501 -11.1884
7.71591 -9.30311 -8.72155
7.85318 -9.11405 -8.66641
7.12645 -10.5773 -9.08077
6.8178 -11.0694 -9.21656
10.0482 -9.18822 -9.5629
6.53727 -11.1718 -8.86159
8.03049 -8.62513 -7.84767
7.35794 -9.27757 -7.86913
8.51296 -8.67823 -8.08061
7.71742 -9.46936 -8.02556
6.48488 -12.7703 -9.35278
7.93038 -9.17752 -7.91101
5.00157 -16.0376 -10.8053
-0.472875 13.9395 -8.91827
7.72491 -9.24124 -7.72382
7.33222 -10.8594 -8.34308
8.37456 -8.56282 -7.63078
10.8686 -9.61476 -9.20439
8.98578 -8.81535 -7.89481
11.7563 -10.0252 -9.68322
8.06961 -8.53258 -7.22538
4.04118 -16.8445 -10.6169
4.24895 -15.3787 -9.79671
7.84154 -9.35543 -7.31573
3.95261 -15.6309 -9.61447
11.4709 -9.82032 -9.0442
6.86118 -11.0724 -7.73481
7.76905 -8.81614 -6.96117
5.48598 -13.9944 -8.88132
6.48595 -12.7019 -8.34687
8.3588 -8.5912 -6.98546
9.68271 -9.0764 -7.73877
2.79007 -11.7937 -6.94706
5.47658 -13.8932 -8.45591
9.58972 -9.10061 -7.47374
6.61501 -11.0658 -7.25943
3.34993 -20.7157 -11.7607
8.87496 -8.93532 -7.06001
12.1797 -10.2186 -8.90702
6.82079 -11.0017 -7.21158
4.68178 -14.6088 -8.4785
6.21946 -12.6176 -7.7388
0.896834 18.5705 -10.12
14.5993 7.71424 -8.97042
4.20276 -14.2405 -8.0194
14.7054 -11.6367 -10.109
14.9523 7.43004 -8.89251
13.9919 7.70898 -8.48698
4.76442 -14.8462 -8.28502
12.0705 -10.1396 -8.2961
1.81438 -20.504 -10.59
11.4045 -9.8422 -7.71794
2.08197 -20.2287 -10.3192
13.9437 -11.0679 -9.00491
0.00551987 14.2798 -7.16713
-7.32052 15.2187 -8.46505
10.5847 -9.59197 -7.17775
7.51035 -9.42021 -6.00264
-8.53565 16.1835 -8.84441
11.6293 -9.76678 -7.35078
10.4853 -9.5766 -6.81911
14.7621 -11.3176 -8.97245
16.6586 15.78 -10.8994
7.47876 -11.054 -6.35908
14.9874 7.40519 -7.84261
13.9081 -11.0133 -8.29189
-11.9951 17.178 -9.60127
15.8117 -11.9809 -9.06347
9.77058 -2.44975 -4.6268
-9.12031 -1.65808 -4.21556
18.6656 18.0113 -11.7019
3.9123 -9.097 -4.49472
-10.2472 16.7413 -8.81655
-5.3529 4.45159 -3.13135
6.85333 -11.2831 -5.94344
9.42103 -9.08012 -5.7711
15.9893 7.29399 -7.75232
-6.65207 15.1105 -7.21276
1.50046 -18.7541 -8.13747
-11.2143 17.0642 -8.79363
9.57682 -3.36859 -4.34809
7.01268 -11.0383 -5.52865
15.7962 -11.941 -8.28941
14.6245 7.73065 -6.93746
18.6955 19.4504 -11.273
1.02064 -22.6498 -9.43899
-4.54171 13.8961 -6.02497
-9.9457 -1.11243 -4.14773
14.0643 7.76581 -6.55874
20.377 22.1649 -12.27
-13.0928 2.45364 -5.4267
15.0881 7.1687 -6.7549
-5.23454 14.3481 -6.14433
3.6367 -8.8046 -3.79187
13.9198 -10.991 -6.93163
19.2404 21.533 -11.1994
18.7717 5.7885 -7.61639
1.53878 19.2261 -7.47697
-8.75859 15.7835 -6.96082
11.3883 -10.0413 -5.84029
19.1739 22.2289 -11.3055
0.683437 15.3695 -5.89079
-1.66291 12.7735 -4.95631
2.71338 -12.2448 -4.81209
-8.7791 -1.25388 -3.37093
0.703409 -23.7053 -8.94863
15.155 -11.614 -7.2013
9.48583 -3.46125 -3.80885
-14.6236 18.0292 -8.65393
-7.89894 -3.5089 -3.17015
1.09648 -10.4658 -3.87014
7.02349 -11.2293 -4.84391
14.1713 7.91261 -5.85876
-8.30171 -2.8503 -3.15634
0.790003 15.2765 -5.45351
-3.96343 13.4081 -4.94822
5.73348 -10.9797 -4.35937
15.8036 -11.9435 -7.01657
19.0436 5.88161 -7.0113
2.10694 20.5583 -7.24506
21.5399 26.0391 -11.7415
-14.9321 18.4333 -8.14478
2.96828 -13.3268 -4.69973
-8.91851 16.1126 -6.29571
18.4331 -13.0559 -7.74262
-5.05141 14.517 -5.22862
1.36211 -22.2946 -7.40155
1.75775 19.5826 -6.49353
1.44825 -10.3208 -3.44441
38.9316 -19.9012 -14.3503
6.16455 -10.0403 -3.77153
17.5247 -12.3742 -6.87175
2.11568 20.6386 -6.60116
-13.3981 17.8881 -7.04872
1.45436 -22.7939 -7.11627
-4.31305 14.7687 -4.78303
-10.9863 16.6476 -6.04721
-2.76998 -28.1796 -8.60149
3.06228 -9.46392 -3.02324
0.795971 -24.3646 -7.33077
19.0693 -13.5354 -6.93964
17.5674 5.55759 -5.40593
-7.91062 15.3158 -5.02047
4.22449 -10.4834 -3.28515
3.61713 -10.5585 -3.17684
4.23668 -10.9337 -3.29197
-13.3553 17.8521 -6.2038
-9.31536 15.9258 -5.02137
-13.2661 1.98862 -3.67826
-16.9821 19.5118 -7.02568
26.2024 -17.2496 -8.50122
-3.95107 -28.1678 -7.62761
3.78042 -9.13963 -2.6465
-9.83001 16.3421 -5.07826
46.9955 -13.7218 -12.983
10.5201 -9.38291 -3.73169
-6.46689 14.9756 -4.26345
-14.4642 18.1355 -6.08919
-8.07547 -38.2034 -10.17
4.9529 -9.56147 -2.78748
6.55069 -10.484 -3.18961
-7.23256 15.3521 -4.31595
-10.5871 16.491 -5.00921
-9.98926 -39.5828 -10.1512
-9.13279 -39.4235 -9.88063
10.9267 -9.63229 -3.58203
-7.9914 15.5116 -4.23317
-11.7649 17.1011 -5.02662
14.5833 7.70332 -3.91409
4.0425 -9.24319 -2.38791
15.186 7.52078 -3.99324
3.74315 -8.9002 -2.26989
-6.57601 -32.7602 -7.73663
5.61897 -9.87165 -2.63295
44.5112 -10.7715 -10.6448
-12.852 17.5071 -5.00089
14.8395 7.59978 -3.77155
43.5606 -9.42325 -10.0967
-9.82225 16.3623 -4.27334
3.70946 -9.2405 -2.16657
42.729 -10.9615 -9.62852
15.0975 7.4898 -3.60857
-10.6742 16.6633 -4.24038
-22.08 -34.7117 -8.83767
4.81416 -9.73745 -2.34372
44.8008 -10.4899 -9.84527
-14.842 18.3893 -4.97341
-32.4006 -23.9145 -8.5355
41.4734 -13.8768 -9.25283
14.8232 7.83284 -3.49607
-35.7073 24.1471 -8.81535
-8.44896 -34.5572 -7.20348
3.94454 -11.4851 -2.44145
44.3335 -9.56518 -9.22522
11.7604 -9.73471 -3.06196
42.7505 -11.0053 -8.79738
-27.1147 20.4614 -6.74336
6.13375 -10.2665 -2.38132
45.68 -10.6821 -9.16314
-12.8411 17.5213 -4.19945
-26.9931 21.1542 -6.66502
16.0077 12.1083 -3.83574
-6.91054 15.2137 -3.20945
-33.3092 -24.0928 -7.86838
-31.8068 -24.9069 -7.76344
-35.9347 23.9453 -8.13236
-33.8145 -22.3062 -7.65502
17.9856 5.65454 -3.51869
-34.3394 -20.7194 -7.48972
-15.2293 -43.9068 -8.65682
3.7651 -9.80696 -1.97824
-24.9569 -62.1322 -12.4517
-16.9928 -45.778 -8.93088
3.97064 -9.62415 -1.87812
13.0476 -10.1954 -2.98649
45.1679 -10.0511 -8.31224
-14.805 18.3623 -4.21576
-27.1466 21.2914 -6.09179
15.0593 7.97162 -2.96739
-30.4715 -26.5537 -7.0446
42.6104 -10.9144 -7.55247
-7.96875 15.352 -2.93138
-9.79975 18.0487 -3.47086
44.4445 -10.4623 -7.72147
-30.932 22.5309 -6.44329
-30.4369 -23.4165 -6.41839
-20.9164 19.9995 -4.81546
-32.5634 22.9971 -6.65123
15.8898 -11.8559 -3.2492
-10.3793 16.4788 -3.09941
-43.7271 25.7304 -8.04979
-31.8256 -23.9086 -6.37239
-33.6784 -23.2303 -6.44371
3.42906 -9.48387 -1.57735
-23.8997 20.4162 -4.85497
16.8775 -11.9313 -3.20201
-11.2224 16.7963 -3.06995
45.8148 -10.7372 -7.14274
-23.2197 -53.8097 -8.85495
-29.6789 22.2585 -5.54754
-38.6821 24.1192 -6.76663
-31.851 -24.724 -6.01534
44.4478 -9.52487 -6.76895
-33.9651 -24.5639 -6.12457
-50.4283 28.1561 -8.30498
-35.781 -23.8664 -6.19093
6.71797 -12.8921 -2.11135
-36.454 -21.1873 -5.9672
-6.98293 15.3964 -2.34909
-13.1807 17.7932 -3.08172
-32.3962 23.3238 -5.58009
-25.0076 -55.6929 -8.41791
-16.3748 -47.869 -6.95736
36.5586 -12.158 -5.28433
-23.3124 20.4859 -4.12985
-32.4841 -24.327 -5.29833
-30.8349 -25.296 -5.27299
-34.1267 -23.5032 -5.3078
7.43839 -9.42158 -1.55236
42.6633 -10.9208 -5.65132
-33.7552 22.9696 -5.1912
-29.935 -15.9736 -4.32505
6.03699 -7.8183 -1.26183
44.5867 -10.4796 -5.80722
-31.3103 23.0112 -4.84899
14.4811 -11.282 -2.2556
-30.2247 22.7644 -4.5776
-32.8452 23.2184 -4.8431
-10.4135 16.5626 -2.26104
-31.7125 -22.8081 -4.59574
12.9733 -10.4927 -1.95347
35.6699 -11.7869 -4.34734
6.33592 -10.3323 -1.39332
11.1808 -9.68886 -1.66709
16.4128 -12.22 -2.30616
-11.1278 16.6858 -2.22126
6.74768 -12.5725 -1.56394
11.5872 -9.67645 -1.67202
42.5034 -10.8991 -4.8178
-39.363 24.5432 -4.97868
44.6469 -10.4327 -4.93708
14.8912 -11.4347 -1.99772
-13.03 17.6038 -2.24999
14.7453 7.80448 -1.667
13.983 -11.0308 -1.77936
-14.087 18.0167 -2.21853
6.39044 -12.2465 -1.33003
9.39562 -8.91212 -1.25182
16.9814 -12.4169 -2.05342
-29.025 -13.8696 -3.0304
-15.0706 18.4548 -2.22136
-37.8238 -73.6875 -7.71002
-34.1906 -21.3946 -3.57131
16.1067 -12.0692 -1.81146
38.3423 -12.7578 -3.61705
11.0998 -9.86677 -1.22747
42.905 -10.9659 -3.69385
-16.426 -42.7449 -3.67828
-40.9116 -79.9972 -6.99949
17.5782 -12.8091 -1.71804
-30.429 23.0295 -2.91887
7.44008 -9.16488 -0.913866
-33.1323 23.4533 -3.01539
-16.8083 -41.5809 -3.35205
-37.5411 -70.6431 -5.68965
-36.4539 -73.0115 -5.59076
12.5544 -10.448 -1.09958
17.035 -12.4073 -1.4249
-39.8204 24.7893 -3.06675
43.1568 -11.0491 -2.92458
-28.8201 -13.552 -1.90722
-41.2747 -79.7412 -5.4383
14.4847 -11.2922 -1.10687
31.0105 -20.4282 -2.02977
30.9865 -19.5296 -2.00252
15.3159 7.56419 -0.886119
14.7558 7.82442 -0.858558
-12.9549 17.6787 -1.11218
-25.1227 -55.4386 -3.12764
-43.2851 -81.5782 -4.51064
9.6462 -9.08484 -0.662879
13.4306 -10.6807 -0.842999
15.9301 10.134 -0.891741
16.222 11.3701 -0.922101
6.81689 -12.5028 -0.677374
-20.1049 -5.93232 -0.899933
-30.3577 -54.1005 -2.73765
10.2098 -13.7837 -0.701308
18.0119 -12.9892 -0.907786
42.3843 -10.8265 -1.74109
-9.41567 -12.4534 -0.602297
43.8962 -10.2789 -1.77304
22.0382 26.4946 -1.17503
-33.027 22.577 -1.38628
-36.7633 -20.6153 -1.37214
-18.5071 -46.1238 -1.5974
16.4484 -12.2714 -0.669769
14.3658 3.89123 -0.438856
-26.4222 -60.7154 -1.98628
-22.9951 20.4838 -0.879495
-12.5089 -37.9303 -1.07446
42.7987 -9.09169 -1.2237
-42.516 26.445 -1.35326
-55.1097 19.8165 -1.40258
43.4751 -10.0953 -0.960192
-31.3191 23.6691 -0.784273
-30.6525 9.74966 -0.672269
30.9147 54.1264 -1.14474
-30.5665 22.5589 -0.727235
12.9515 -10.6121 -0.290229
-34.916 -21.7291 -0.637523
-31.2135 -62.7738 -1.04437
17.4505 -12.5849 -0.312746
-12.7851 -38.6521 -0.525973
-14.3694 18.2411 -0.236419
-20.4038 -46.8924 -0.556472
30.1159 -18.8626 -0.32075
-22.9846 20.5073 -0.208601
-9.95371 -12.7753 -0.0489743
7.00629 -11.6872 -0.0236192
14.5828 7.62601 0.000695481
-35.9385 -22.1919 0.225042
-24.1881 -41.3411 0.352381
-54.2907 29.7409 0.633802
6.67697 -11.8468 0.14086
7.99775 -9.09338 0.12102
-41.5692 -22.1005 0.517526
-11.6149 -32.8926 0.388482
11.0841 -9.66216 0.192764
-23.3701 19.9684 0.405265
-12.4581 -19.3292 0.334169
-31.5745 22.4681 0.69118
-35.6016 -23.868 0.767042
-35.1106 -25.9378 0.761596
10.6187 -9.54265 0.232952
7.77949 -9.58939 0.265357
7.88614 -9.20452 0.26155
-72.4002 25.0703 1.7922
18.0514 -13.1036 0.543103
-28.9294 -8.69122 0.808706
-28.3175 22.2065 1.03759
11.5635 -9.90716 0.415338
17.2269 -7.46737 0.534652
-25.2987 21.4562 0.988649
-7.92969 -9.29883 0.389016
12.6358 13.7381 0.664084
6.12505 -12.6201 0.493642
8.89703 -8.75487 0.426566
24.4445 -4.33162 0.830359
18.3998 17.5715 0.919033
13.7054 23.7257 1.03082
-57.7606 18.9857 2.19005
24.2538 -4.71148 0.936096
-25.7701 21.0511 1.25892
9.36469 -8.90884 0.49975
22.2936 -3.0714 0.850283
12.1394 14.06 0.760743
14.6499 18.9293 0.9806
6.4997 -12.3234 0.571973
17.5682 40.6052 1.84783
7.63203 -10.9979 0.564378
-7.57298 -7.45466 0.469642
-8.31342 -11.5018 0.634167
-29.8238 -11.8063 1.52791
16.3002 10.5817 0.968788
-7.74988 -7.21092 0.507118
15.1189 23.4886 1.44382
-6.97609 -8.21233 0.592471
14.4119 19.7351 1.33958
-26.4092 20.3358 1.84421
14.2516 23.2098 1.57759
-7.15021 -9.21714 0.666714
6.79274 -13.4611 0.86562
9.83764 12.3744 0.935998
14.5669 19.354 1.51911
14.8094 26.357 1.86204
10.1438 28.4479 1.92137
-7.33328 -10.0091 0.793858
9.36984 21.353 1.56559
11.3589 9.99173 1.07858
11.3794 12.0334 1.16945
13.5876 15.7007 1.48629
8.16111 -12.5803 1.0587
10.7055 8.93641 1.02632
12.7896 14.3448 1.43839
-14.4674 8.53167 1.27075
-11.1745 2.1051 0.860647
12.3201 16.0373 1.56985
11.4547 18.2553 1.67407
10.0708 -6.89195 0.952934
-7.69838 -8.14381 0.896662
12.6635 11.4632 1.3936
11.7704 11.5149 1.36718
-7.02738 -6.18306 0.760798
-7.08054 -6.92366 0.821609
11.3816 11.8806 1.41906
10.5709 9.31194 1.28093
-11.45 2.93192 1.08666
-7.6458 -7.1214 0.938884
11.5681 8.92604 1.39938
9.13158 12.913 1.51899
7.11412 13.0903 1.46051
8.33657 12.9617 1.54578
-6.76412 -6.74041 0.94937
7.84853 -6.52392 0.999021
9.59881 12.0228 1.54218
9.8626 10.0747 1.45639
-6.90047 -5.41685 0.913136
9.54866 9.09254 1.4059
8.12409 11.0452 1.43751
6.68528 12.9628 1.55419
9.52731 8.31362 1.3387
9.11153 10.1483 1.48598
5.62305 12.3862 1.47275
-6.40755 -7.54628 1.06996
6.62225 11.2709 1.43852
5.1765 12.9703 1.54091
-6.84222 -3.99059 0.874957
-6.71493 -6.09434 0.999299
3.91474 -7.75841 0.962125
5.43302 -6.08689 0.916781
9.29819 7.48528 1.34183
8.99556 9.5732 1.4816
7.84814 11.1782 1.52702
6.7129 10.5941 1.43043
-6.89603 -4.58051 0.939161
4.69997 -7.66846 1.03932
-10.697 7.17103 1.4954
-7.10559 -2.13785 0.863832
8.96062 6.05319 1.28674
5.82344 11.8854 1.56437
4.91871 11.3749 1.46181
4.76729 -5.85559 0.888829
4.10632 -7.8732 1.07983
8.29941 3.84411 1.14663
10.8981 5.43582 1.49701
4.49703 12.512 1.65508
-6.17284 -5.40073 1.00622
-9.17148 1.30733 1.15516
8.20045 7.50015 1.40669
-6.45268 -5.33291 1.05907
7.73363 8.12269 1.4421
-6.90282 -3.58126 1.00723
4.96162 -5.9587 1.00115
5.01715 -5.42048 0.963132
8.34672 6.86725 1.43197
7.8851 7.79695 1.47557
-7.22044 -1.72804 1.00072
-7.04739 -2.21458 0.990246
-6.50099 -4.38329 1.04189
4.82385 -6.0806 1.03295
8.33377 6.31606 1.42248
-6.86613 -4.22807 1.08682
-6.06213 -4.45438 1.01202
4.94378 -5.53093 1.01874
7.39856 -3.51411 1.1401
8.32012 4.22411 1.32551
8.28238 4.55121 1.34114
-6.95584 -2.91382 1.07867
7.46551 -3.72606 1.19151
7.00635 -3.05056 1.07805
4.93463 -5.78136 1.09729
8.17378 -1.72955 1.21006
-6.97526 -3.26532 1.14265
7.34431 5.53409 1.38134
5.70701 7.36822 1.40782
7.94575 3.89347 1.35217
7.86641 4.17174 1.35392
5.38626 7.73431 1.43308
5.02842 8.58938 1.50392
3.45251 9.44368 1.51696
-7.02455 -2.83333 1.15512
7.66587 -2.78878 1.24962
7.82951 -2.23126 1.25649
7.77943 -2.0126 1.24175
7.42472 4.18193 1.3742
7.02865 4.72616 1.39193
6.70334 4.88567 1.3794
5.34366 6.40347 1.38805
-7.22436 -1.36432 1.21778
4.94824 7.26675 1.46738
4.68234 7.16644 1.43714
-7.23966 -0.806462 1.22022
2.86608 -5.93007 1.11042
6.66589 4.06763 1.33435
6.46799 5.19559 1.40903
3.79475 7.85325 1.4639
-6.39322 -2.30581 1.15348
-6.29877 -2.68775 1.16833
3.77182 -5.23954 1.09925
-6.99105 -1.80031 1.26197
4.23425 -4.64103 1.10413
6.63576 3.49423 1.3545
5.02707 5.56042 1.37006
3.63187 -5.36007 1.17917
3.32926 6.6758 1.39083
6.47015 3.0361 1.35791
6.4047 2.70438 1.32744
-1.6501 -5.71108 1.14135
-2.17243 -5.76735 1.20174
6.23264 2.36953 1.33291
3.93864 -4.57997 1.20159
-3.00408 5.60859 1.35755
-3.62779 5.21898 1.38607
4.20879 -2.92766 1.20519
-4.28314 3.9342 1.41774
4.58696 -2.18722 1.23344
4.47846 -1.26924 1.15751
3.70939 -2.93611 1.23245
3.67927 -2.58512 1.19308
3.42611 -2.97881 1.22534
-2.32047 -3.61577 1.20706
-2.49854 -2.92636 1.19731
1.87334 -2.49304 1.13223
1.93494 -2.65109 1.19691
-2.04274 2.80414 1.31543
-2.07111 -1.46351 1.19715
-1.82394 -1.82995 1.30238
-1.97562 -1.17156 1.20968
9.65624 -9.03259 -9.35977
9.21984 -8.90684 -7.63978
2.44672 -20.0721 -10.7385
3.66867 -9.29179 -4.50482
26.3553 32.742 -14.1133
2.07006 20.4949 -6.10687
-22.579 -31.4514 -7.22877
9.49235 -8.75772 -1.61458
8.74406 -8.61592 -1.23099
8.89391 -8.77209 -0.926137
19.085 -13.5131 -1.27898
43.1742 -11.5964 -2.31487
-31.6364 -13.38 0.346588
10.023 6.89832 1.29207
-3.50214 5.32903 1.37044
7.96668 -8.22489 -10.2731
7.8278 -8.25096 -10.0127
8.35775 -8.44761 -9.84198
6.82456 -11.7837 -11.1886
7.95791 -8.21763 -9.04967
7.99769 -8.696 -9.08028
6.20333 -14.1255 -11.6083
5.8539 -14.1456 -11.2107
9.06559 -8.81304 -9.26964
7.61399 -9.18988 -8.6504
7.84231 -9.09338 -8.58515
7.2006 -10.6698 -9.1602
10.2029 -9.28856 -9.67295
6.41147 -11.0515 -8.73048
8.15357 -9.0539 -8.17094
7.32238 -9.30739 -7.9051
7.94279 -9.18447 -7.98383
5.02492 -15.9417 -10.7833
-0.523252 14.3508 -9.21748
7.2878 -10.766 -8.34046
7.59364 -9.11849 -7.59304
10.9696 -9.78833 -9.3345
7.03893 -10.9019 -8.08906
8.1766 -8.58391 -7.36544
0.112711 14.3613 -8.75182
7.74871 -8.7151 -7.02661
11.4618 -9.73085 -9.07365
8.96182 -8.89061 -7.46108
6.56413 -12.8193 -8.49684
5.50529 -13.9587 -8.81892
7.03684 -11.0733 -7.5318
5.10617 -12.8221 -7.75061
3.16003 -19.3096 -10.9716
6.59984 -11.0761 -7.2255
7.84034 -9.03757 -6.70982
12.1588 -10.1847 -8.87037
9.68134 -9.48414 -7.43243
13.2434 -10.6169 -9.15617
15.0392 10.3004 -9.7927
15.017 7.37834 -8.94091
13.8422 7.63169 -8.3597
11.3911 -9.83063 -7.73191
-0.0629834 15.1821 -7.67914
2.3646 -19.487 -9.91663
10.6555 -9.55251 -7.19991
7.33283 -9.26177 -5.92685
14.0836 -11.1706 -9.05206
18.0065 -12.8757 -10.7708
18.5826 5.73776 -9.44945
2.66147 -19.5483 -9.58114
12.8282 -10.5978 -8.04591
15.3671 -11.7001 -9.37035
7.29076 -10.7481 -6.2557
14.9833 7.3448 -7.76551
7.07804 -10.8889 -6.05371
6.21364 -10.6141 -5.6966
9.99211 -2.5073 -4.73624
17.3358 -12.6669 -9.86606
-11.8159 16.9615 -9.42221
3.53967 -9.02827 -4.39344
-10.2388 16.7395 -8.8185
15.9651 7.22087 -7.84041
-11.2666 17.1412 -8.84694
-7.06021 6.84759 -4.23603
-6.4788 6.4628 -3.89553
1.19766 -15.4442 -6.58524
19.9066 20.6239 -12.0293
16.1922 -12.2378 -8.53505
15.1372 7.43889 -7.04813
-10.0751 -1.09943 -4.20871
19.8831 21.6432 -12.0679
14.0784 7.77869 -6.54676
16.3812 7.37827 -7.2177
14.9856 7.7111 -6.76028
1.4869 -17.9144 -7.02
18.6436 5.75247 -7.55119
19.4084 21.6584 -11.2478
0.769391 16.2798 -6.26155
-9.2423 -1.34045 -3.61834
0.71029 -24.1543 -9.19073
16.879 -12.4848 -7.85374
14.1397 7.89557 -5.85422
0.536907 -22.6264 -7.97714
-4.06444 13.6696 -5.00482
-10.6269 16.3321 -6.82017
-0.86342 -22.883 -8.04992
-15.042 18.5626 -8.26312
-8.92458 16.1218 -6.32396
-5.03429 14.3411 -5.12435
1.27358 17.6217 -5.88705
-5.35869 14.279 -5.0283
38.4525 -19.7576 -14.2733
12.4612 -10.3075 -5.21206
8.01016 -9.17735 -3.90329
7.39523 -8.78388 -3.55463
-4.24883 14.3026 -4.49015
11.5233 -9.77332 -4.56105
15.0876 9.49613 -5.10532
13.6354 -10.6472 -4.96434
-5.52177 14.7219 -4.42588
-13.4777 18.0882 -6.36589
15.6465 10.5758 -5.20158
-9.63805 16.1964 -5.00911
-27.1642 21.0389 -8.9723
-23.9343 20.1055 -8.08603
-7.15941 15.1979 -4.29592
-7.95321 15.4317 -4.23367
-26.127 20.6186 -8.11055
-3.3006 13.5051 -3.32939
-11.7628 17.0669 -4.954
3.10381 -9.53262 -2.37113
14.7473 7.86666 -3.94544
-33.4542 -26.2634 -9.97376
5.38747 -11.6166 -3.01731
49.1953 -11.8651 -11.7618
-7.27787 -35.5983 -8.34953
-9.75763 16.3649 -4.35555
15.049 7.37393 -3.79635
-30.2314 21.9794 -8.29765
-12.3833 -44.3163 -10.1055
3.72146 -9.4024 -2.22737
42.4111 -10.7463 -9.45206
-34.953 -22.9568 -8.91294
-14.8298 18.402 -4.90795
14.6256 7.81163 -3.44361
-32.056 -24.2564 -8.27531
9.286 -9.1927 -2.71001
43.1337 -10.9656 -9.13005
45.858 -9.72537 -9.4614
-28.5867 21.4559 -7.04989
-21.2616 -34.5607 -7.97691
-33.2983 -24.0575 -7.76711
-34.7561 -22.9342 -7.77643
-14.8117 18.4123 -4.29182
15.301 7.50256 -3.00247
-5.28681 14.1074 -2.65127
-18.613 19.9157 -4.81938
-22.1196 -52.6667 -9.96054
-22.5184 -36.3262 -7.37567
-34.0678 23.0805 -6.98006
9.11847 -8.96862 -2.17081
-31.2487 22.7629 -6.29176
-32.1646 -24.167 -6.42475
-20.357 -54.1791 -9.24356
42.4938 -10.789 -6.99376
-44.6776 26.388 -8.17654
-37.1896 -23.2831 -6.80391
6.43237 -10.8566 -1.97166
-29.3271 -26.1426 -5.93571
-30.7009 -25.1901 -5.95264
-20.4261 -50.3235 -8.06796
6.46958 -12.3913 -2.08784
-33.2149 -23.8877 -5.85584
-31.2 -24.5609 -5.63498
-32.3332 23.1486 -5.56153
-13.0725 17.6493 -2.98955
-32.97 -24.6491 -5.574
-30.3119 -26.078 -5.42782
-31.8858 -19.83 -4.93071
-33.8571 -23.338 -5.42428
-33.5708 22.77 -5.11163
-30.7038 22.8521 -4.68033
-40.8958 24.1559 -5.838
12.938 -10.4608 -1.95137
9.69892 -9.08099 -1.52819
10.5411 -9.22216 -1.54292
-13.1116 17.7275 -2.32255
15.0878 -11.6022 -2.03217
-31.033 -24.5424 -4.01244
45.7005 -9.71279 -4.67084
17.1054 -12.481 -2.08487
42.2098 -11.3448 -4.12225
-33.9408 -69.6275 -6.87033
-23.4121 20.485 -2.72576
-29.0304 -13.0283 -2.76475
6.94136 -10.6693 -1.11813
17.0211 -12.299 -1.81895
-29.4284 -26.2568 -3.3276
9.83846 -8.93301 -1.09711
13.7046 -10.8963 -1.40918
-34.463 23.3643 -3.18416
-30.0896 22.5448 -2.78098
16.7261 -12.2006 -1.51331
-17.5251 -42.9698 -3.32837
7.34054 -9.10685 -0.853066
-25.999 -59.6734 -4.48137
9.5649 -9.0099 -0.872276
9.71247 -4.7297 -0.681618
11.2989 -9.78919 -0.941857
-15.0063 -41.201 -2.58182
15.2006 7.46642 -0.927466
14.6367 7.83664 -0.902727
11.775 -9.99784 -0.797785
16.8722 -12.6366 -1.00821
-12.596 17.2544 -1.02781
-36.7947 -65.7424 -3.62
-27.2815 -54.6211 -2.92744
-35.1652 -19.8429 -1.35819
-18.2808 -45.2453 -1.62845
-25.3205 -58.5575 -1.84734
-22.3795 -60.3655 -1.86897
15.4095 13.4441 -0.394541
11.5268 11.2145 -0.301507
23.6402 28.8655 -0.636009
13.2195 -10.8776 -0.315945
-22.1706 -48.689 -0.879244
-19.5467 5.66541 -0.106617
-35.098 -67.3668 -0.408434
29.7167 -18.7452 -0.233612
18.5682 -12.9029 -0.0243762
14.7737 7.64462 0.0339018
-31.6711 -13.287 0.239215
6.50931 -12.1616 0.157677
11.371 -9.93634 0.165026
-12.326 -19.0365 0.299866
25.9692 -5.04024 0.750032
21.3684 43.7816 1.52976
-7.86353 -9.27826 0.420468
-30.7257 -14.648 1.28151
15.9837 28.8417 1.42538
-10.839 -16.9299 0.848838
14.7021 19.511 1.11936
18.6484 36.447 1.85173
16.5774 31.7837 1.68159
6.54849 -12.3992 0.661642
-6.97052 -8.47153 0.563532
15.4125 25.4917 1.59398
6.28784 -13.696 0.78131
-6.74451 -4.55336 0.481596
-11.6463 -8.89065 0.867154
-7.54709 -10.4206 0.8559
10.9389 9.06253 1.01129
6.23335 -12.9303 1.00851
-7.17199 -6.35471 0.682776
7.06275 -10.7974 0.919186
12.8104 19.9921 1.82041
-15.0592 8.41726 1.32726
10.9813 -4.91184 0.914722
9.45323 -8.872 1.03504
10.3497 12.4575 1.46075
6.50405 -6.18845 0.831696
10.981 9.07547 1.33889
6.41733 13.3536 1.41316
4.55406 12.6008 1.30918
9.69453 12.1715 1.56566
7.59825 10.4011 1.34339
6.57476 12.7417 1.52697
8.20576 -6.62313 1.10863
10.0878 9.54021 1.48403
7.08652 10.6915 1.38111
8.75787 9.3062 1.44537
4.73949 -5.85131 0.848191
9.87683 5.44709 1.28856
6.99462 11.1093 1.53077
5.8988 10.5955 1.43688
-7.03064 -2.09858 0.852355
8.43479 8.57103 1.42605
-7.1984 -0.818486 0.867503
-6.88356 -3.968 0.944866
4.39924 12.1495 1.57298
-7.03486 -2.33365 0.893581
-7.46301 -0.987645 0.926668
-9.18039 1.3428 1.16045
8.31004 7.5865 1.42919
4.84043 -5.26511 0.934203
7.73166 8.16352 1.47945
-7.26911 -4.51312 1.15512
7.26075 -3.86861 1.14132
7.46117 -3.5381 1.15173
7.46465 -3.26926 1.13824
8.13004 4.1353 1.30362
7.4188 -3.70414 1.18443
8.32159 4.5718 1.35951
7.70347 -3.01864 1.20044
7.91982 -1.91907 1.17205
5.68469 7.34874 1.40147
5.20439 -5.60923 1.17197
-7.14699 -1.8305 1.15591
-7.19015 -1.33105 1.16343
5.28048 6.34479 1.3671
-6.41702 -2.31665 1.13923
6.80785 4.1833 1.35959
-7.34039 -0.957812 1.2559
2.98573 -6.16973 1.15375
-6.96941 -1.76906 1.2643
3.99859 -5.11144 1.1292
4.70495 -4.4771 1.15098
3.54886 -5.23162 1.16061
5.00281 5.53666 1.36347
-7.25509 -1.15863 1.34149
3.84558 -5.22318 1.2081
-7.06085 -0.810064 1.3488
6.32089 2.82778 1.33233
3.6937 -4.57334 1.13603
-2.25028 -5.3776 1.17129
4.94016 -6.43478 1.59814
3.81214 -4.42186 1.15548
4.15928 -4.32853 1.22948
-6.41966 1.481 1.36772
-2.89702 4.85021 1.18597
-1.34183 -4.98713 1.14502
4.03844 -3.76027 1.22227
4.46327 -2.75766 1.21378
-4.46596 3.9313 1.38436
4.79976 -1.93901 1.24584
-2.74122 4.7118 1.28678
4.34236 -2.67903 1.23105
-1.01549 -4.21118 1.16616
-1.42674 -4.00577 1.18037
-2.1477 -3.81403 1.21633
3.99457 2.55276 1.33075
1.84547 -3.18394 1.22012
-2.04341 -2.43094 1.27298
2.5791 -1.81781 1.32202
2.47604 -1.91807 1.32296
-2.16818 -1.77812 1.21343
2.36339 -1.30162 1.19664
-2.00356 -1.48891 1.20314
7.73937 -8.28512 -9.98876
8.14746 -8.17397 -9.54326
6.73541 -11.7677 -11.0773
7.99342 -8.34733 -9.11572
8.03761 -8.9066 -9.07413
6.25623 -13.9088 -11.4735
9.02178 -8.86108 -9.27665
7.24933 -9.43691 -8.72787
7.36347 -10.8413 -9.3183
8.15458 -8.8825 -8.17809
8.90822 -8.92291 -8.36747
6.37358 -12.4948 -9.13792
5.23514 -16.092 -10.9672
7.26536 -10.5893 -8.2709
10.5951 -9.62997 -9.19093
7.88036 -8.33442 -6.99811
0.113524 15.6547 -9.4302
12.1329 -10.2507 -9.58051
8.25548 -9.12895 -7.35744
-0.322799 13.2492 -7.71539
7.41443 -10.8406 -7.23561
7.81535 -8.9898 -6.58384
5.83312 -12.6398 -7.58877
14.9709 10.1577 -9.77113
13.6606 -10.8772 -9.43273
14.1315 7.8391 -8.48196
0.298268 14.7426 -7.73642
5.74029 -10.0121 -6.03951
10.5823 -9.60178 -7.20496
12.7426 -10.6358 -8.09942
15.3766 -11.6013 -9.37474
10.041 -2.52583 -4.72016
16.0856 7.38415 -7.83258
9.60368 -3.45218 -4.53146
14.6337 7.94254 -7.26448
19.8878 20.35 -11.9584
14.1171 -11.1656 -7.61993
15.6017 7.41222 -7.2397
9.67146 -3.26502 -4.24933
14.1531 7.88149 -6.50476
15.4957 7.9572 -6.93524
17.0091 15.8606 -9.2705
-9.42327 -1.36555 -3.75038
0.615609 -25.1863 -9.82798
0.87211 16.9244 -6.58774
15.9819 -12.0012 -7.65756
15.0006 11.5227 -6.91968
10.4677 -9.45414 -5.11007
-0.37701 -23.1748 -8.22857
-0.882626 -26.2168 -9.12051
-4.1023 13.8104 -4.98353
-13.8006 18.0621 -7.84179
1.39724 17.7289 -5.8921
-5.19095 14.3122 -5.01128
-2.80421 -26.1786 -8.34194
-11.181 17.1671 -6.42642
-4.24885 14.3465 -4.57134
3.81777 -12.5717 -3.97244
-5.55282 15.2863 -4.72032
3.57131 -10.423 -3.19042
-3.891 -27.7194 -7.55583
-23.5867 19.7344 -8.18556
3.21509 -10.3772 -2.85947
5.04405 -9.69004 -2.82704
-27.1413 21.192 -8.71622
-30.2976 22.1287 -9.52978
-31.8292 -44.9569 -13.318
-9.65579 16.3011 -4.42668
-9.10216 -43.4387 -10.5738
-34.91 -22.8268 -9.30691
-21.3878 20.2807 -6.46062
-14.7733 -41.9251 -9.70326
10.3233 -9.25196 -3.05756
-28.8501 -74.5508 -16.6681
43.0806 -10.5679 -9.19583
-28.3565 20.9795 -6.81114
14.7052 8.00226 -3.15711
-5.01336 13.7411 -2.66886
-32.2057 -24.1698 -6.56346
6.73075 -12.7408 -2.23662
-21.5855 19.2927 -4.19841
-31.7749 22.6438 -5.52888
46.9498 -10.19 -6.73658
-35.2193 -67.7785 -9.68969
-30.7807 23.0295 -4.64753
-34.8288 -22.6695 -4.33616
14.7196 8.0325 -1.67022
-23.5459 20.6025 -2.50421
-30.9944 23.3064 -2.77716
43.0607 -10.5655 -3.27631
-23.4144 -53.1677 -4.05304
8.01585 -11.3033 -0.909447
7.1994 -9.06429 -0.753757
16.9016 -12.3653 -1.37109
14.8937 8.09838 -1.00326
29.3125 -18.8925 -1.91186
14.9977 7.70319 -0.588072
-23.8331 -53.1172 -1.34453
-18.7545 -51.1118 -1.24162
-23.1774 20.5923 -0.547624
-36.3379 -21.4939 -0.347762
-38.6629 -25.4924 -0.260663
9.55856 -8.98807 -0.107198
19.713 -13.5324 -0.184255
15.5974 8.01353 0.134153
-31.9488 22.6006 0.379696
25.1567 -4.9423 0.873148
-6.70832 14.8263 0.646125
16.1479 10.228 0.869784
10.8095 12.8926 0.71957
14.0324 18.6299 1.06459
6.69037 -12.6744 0.64574
7.45309 -10.7176 0.56602
6.27065 -10.3058 0.589588
15.8183 25.5412 1.58201
-7.30747 -8.03761 0.550315
-6.66183 -8.03211 0.537831
10.2951 -9.40785 0.75787
9.02716 18.0058 1.34653
-7.33522 -10.2604 0.903517
10.5944 -4.77608 0.831847
-14.4149 7.94254 1.28012
6.63918 -11.624 1.04983
-6.20378 -4.26306 0.676955
-7.43459 -7.88276 0.930883
6.40371 13.2667 1.34046
9.6074 9.08664 1.25839
7.12035 10.8406 1.35371
7.35768 12.656 1.5085
8.08061 -6.51376 1.09916
-9.04084 1.36774 1.11385
6.99642 -4.51033 0.992091
7.25752 11.6353 1.68003
5.51776 -5.48687 0.982485
-7.3821 -0.917491 0.94285
7.15226 5.63237 1.2178
4.96533 -5.50313 0.987338
9.26058 -3.11899 1.30733
-6.94444 -4.29269 1.12461
7.11953 -4.33049 1.13622
7.63707 -3.55049 1.15572
-6.98878 -1.72936 1.03468
8.80195 -2.0819 1.26597
7.58616 4.92984 1.29242
-6.4325 -2.15624 0.998448
5.19479 -5.47683 1.15341
5.95359 5.10141 1.25485
7.89647 -2.16281 1.2834
3.85016 -6.1775 1.17693
4.62202 7.0727 1.40225
-7.37375 -0.924099 1.2238
-6.37008 -2.31981 1.13082
-6.52495 -2.71608 1.19273
6.89355 4.24659 1.38263
4.20204 -4.63492 1.11276
-7.20348 -1.14669 1.34971
3.57954 -5.28222 1.19129
4.14401 -5.60169 1.33644
3.7267 -4.3269 1.16213
3.92139 -3.60694 1.16859
4.4418 3.76081 1.3539
3.64924 -2.86114 1.20014
-2.1989 -3.87212 1.20987
4.03864 2.53859 1.35119
-2.37573 -2.98114 1.17663
-2.2646 -2.52923 1.10839
17.4055 -12.708 -9.86156
12.0644 -10.0604 -6.9465
0.536205 -22.3187 -7.85458
21.9483 27.6955 -11.8544
-34.1285 -25.8734 -9.05848
43.6629 -10.7461 -7.20457
29.231 -9.83538 -3.8826
44.5201 -10.988 -5.39731
6.50272 -6.61193 0.286999
9.35315 8.30272 1.43731
5.66511 11.5691 1.63771
-7.09223 -1.93542 1.09578
7.65463 -8.06785 -8.71627
6.37 -13.9452 -11.5577
5.94104 -10.7931 -9.20196
6.7349 -10.6917 -9.36698
7.40734 -10.749 -9.23646
9.94905 -9.15547 -9.55525
7.79273 -9.06009 -8.262
7.7545 -9.46088 -8.37031
6.42121 -11.029 -8.5568
7.2311 -9.51608 -7.94623
7.12427 -8.90536 -7.57676
5.63221 -12.5016 -9.05585
13.9065 7.87384 -9.67295
