ply
format ascii 1.0 
element vertex 1878
comment /media/mkaihara/Seagate Backup Plus Drive/model_iterations/model_42.ply
property float32 x 
property float32 y 
property float32 z 
end_header 
8.03682 -9.11916 0.194459
9.73715 -9.01598 0.218681
38.0053 -8.14269 0.63818
-23.6308 20.2648 0.556829
-32.8625 -22.1098 0.681393
-34.1066 -25.0237 0.740757
12.94 -10.6302 0.274544
13.2519 -10.6887 0.319212
-9.87145 -12.516 0.300851
6.83884 -11.2082 0.256073
7.99351 -9.39449 0.242612
27.1538 55.8698 1.24434
6.98679 -10.9821 0.261731
9.18719 -8.69279 0.268786
11.5438 -9.92223 0.333696
17.2833 -7.71981 0.38124
7.22106 -10.9561 0.297039
-9.41198 -12.1505 0.388654
-12.7128 -19.5157 0.556467
7.65134 -9.31543 0.274655
7.83559 -9.37055 0.283645
-25.3727 21.3255 0.860064
-28.736 -9.21504 0.756899
9.62903 -8.9593 0.338437
17.5407 -12.8139 0.5479
18.3817 -13.236 0.563611
-22.7484 19.9167 0.786926
-27.4364 21.6835 0.912014
-28.7502 -8.62884 0.785453
-32.8655 -17.5239 1.0113
-13.269 -20.0367 0.638806
14.7893 -11.4913 0.499929
22.7982 -3.31713 0.648536
-12.1235 -18.904 0.649756
25.052 -4.74591 0.742395
16.5032 25.6112 0.912977
-27.8052 -20.4836 1.0218
7.2353 -11.3337 0.40379
6.97218 -10.7069 0.3892
14.8655 24.2163 0.872219
-7.60237 -8.78465 0.355104
13.0498 -10.6781 0.515065
-7.29887 -9.48636 0.366474
-28.3854 -8.01186 0.981145
-11.8276 -17.2893 0.701512
7.87451 -9.35341 0.404641
16.1975 11.0664 0.702533
10.8672 -9.46264 0.523597
11.9051 -10.0587 0.568052
23.2268 46.7714 1.96108
-7.43149 -8.1134 0.411092
9.65652 -8.96412 0.492005
22.8674 -3.21065 0.886732
27.2802 56.3928 2.42547
-7.42582 -9.85629 0.482582
10.438 -9.52 0.554312
12.7427 -10.5243 0.667906
21.6123 -2.64885 0.887931
-28.9333 -17.5531 1.38358
8.74166 -8.70241 0.509884
-6.90742 -8.4459 0.468865
9.4416 -8.93154 0.543454
12.7291 14.6123 0.855817
-28.7202 -8.42883 1.31497
14.8075 19.2869 1.09277
15.1557 26.0949 1.34459
21.9678 43.1982 2.14328
6.19213 -13.7963 0.674302
10.8511 -9.51979 0.652983
18.5108 -1.64282 0.850364
19.6901 37.4907 1.98613
15.0995 26.6043 1.43431
-11.1568 2.76727 0.553171
-7.22422 -9.52235 0.576309
9.17132 -8.98922 0.608334
11.4039 -8.74933 0.673255
20.1424 -2.30827 0.976855
11.6695 11.8928 0.827421
16.3155 39.2375 2.08905
7.76233 -9.46065 0.602441
10.1897 -9.28056 0.682656
14.693 24.9152 1.44839
20.366 39.4937 2.25553
21.0387 -2.62088 1.07829
-7.38869 -8.4886 0.583732
9.38892 -8.93937 0.675177
16.827 24.6757 1.56903
16.6694 30.2198 1.80135
13.0215 -10.7332 0.896802
10.5927 12.3829 0.87153
14.2969 19.407 1.29489
11.0828 -9.61001 0.793352
15.0888 19.6594 1.36675
-26.0262 19.9507 1.7912
-6.95394 -8.1584 0.592926
10.2877 12.4378 0.903933
-7.24438 -9.35197 0.662463
10.0247 12.488 0.92875
-27.4731 19.3421 1.90701
6.11793 -12.9207 0.818519
11.2187 12.1276 0.949559
-6.87134 -6.78144 0.559757
11.3085 12.0588 0.973432
-6.79485 -8.39627 0.646342
6.26133 -12.5863 0.821438
14.7208 19.5862 1.47332
14.2189 23.2479 1.62569
13.5517 31.3191 2.04809
-6.11327 6.5111 0.547973
-8.152 -7.7243 0.679153
-7.10334 -8.1488 0.663787
5.7317 -12.4653 0.829659
-7.46894 -6.87651 0.631438
7.0109 -11.1704 0.815565
6.99132 -10.5661 0.790855
11.3481 -9.79586 0.926027
12.1397 -10.1554 0.981003
16.2523 7.1978 1.13263
14.9672 19.3891 1.54973
-7.22667 -6.29806 0.621576
10.2709 -9.38074 0.897861
-7.36767 -6.25042 0.633619
11.5124 12.148 1.14039
9.61286 21.6406 1.61243
-7.25556 -9.63098 0.805551
11.6748 12.6624 1.18154
-6.94746 -4.45224 0.567375
-6.74078 -8.1869 0.723112
-6.69256 -4.42897 0.553353
9.27802 -8.87045 0.893747
10.0042 -7.84904 0.89587
12.7663 16.0901 1.48513
-6.661 -6.65346 0.654015
9.81741 -8.2904 0.939745
11.5209 17.2266 1.55803
11.457 18.2658 1.61071
9.64985 18.3667 1.5646
9.0733 19.6087 1.62507
7.40319 22.0649 1.74973
10.8312 18.6954 1.64608
10.0215 -7.60345 0.961975
-7.01774 -7.17854 0.769111
-17.141 -6.21715 1.42547
9.47861 -7.68438 0.956676
9.38969 18.7541 1.6554
-6.37471 -4.25649 0.607491
-6.81853 -8.2064 0.845731
4.83408 -5.7325 0.596261
9.07773 19.9716 1.74008
7.81692 19.1126 1.66038
5.02787 -5.79481 0.618194
12.82 11.5682 1.39927
11.8181 11.8712 1.37168
6.73477 -9.39543 0.939748
12.2757 11.7415 1.39639
6.73102 19.7597 1.70881
-6.35087 -4.38412 0.628733
-7.14716 -9.45921 0.973034
11.5871 12.1394 1.38855
10.5006 9.18617 1.18804
-5.02565 -11.466 1.05761
6.128 -6.04808 0.751641
9.22318 -7.1852 1.00569
-6.78651 -6.68429 0.809141
10.4698 12.4077 1.4173
8.80264 -7.3349 0.996143
10.8681 12.2513 1.43335
-7.29791 -7.75195 0.933269
8.19503 -7.2957 0.974289
10.2459 12.5236 1.45471
-7.06059 -7.72974 0.928135
-6.92659 -8.32657 0.971956
10.638 12.366 1.4813
10.5453 13.6029 1.55946
-7.10494 -8.31419 0.996144
11.256 10.8725 1.43953
-6.3092 -4.22762 0.698146
-6.84961 -8.57887 1.00433
-6.32297 -4.3906 0.709379
11.1141 8.57705 1.31749
10.6724 9.35599 1.32341
6.53082 15.514 1.58334
10.5462 11.3458 1.46586
-11.2022 2.87055 1.09225
6.15971 -5.96744 0.817714
8.00964 -6.64009 0.999422
10.7724 9.22477 1.3769
9.56715 12.5884 1.53108
9.75245 12.5155 1.56333
7.70083 12.3159 1.443
7.95038 13.2907 1.54173
11.255 8.08223 1.41228
7.17442 12.7667 1.47811
9.09576 11.3989 1.48397
7.03511 13.6199 1.56903
5.90465 14.0306 1.56296
9.23042 10.5232 1.44686
9.07071 12.3575 1.59285
11.4182 7.67821 1.43553
9.2836 10.0399 1.42384
4.97376 -5.82017 0.821997
-6.83957 -4.65175 0.872338
5.61306 13.9845 1.5997
-7.05218 -4.50225 0.892087
8.96079 10.737 1.5017
-6.75838 -6.76799 1.02298
5.91174 -5.83512 0.897345
9.71993 8.55787 1.39603
8.9908 9.39063 1.39843
9.29065 10.3569 1.50865
4.8166 13.9597 1.5941
4.23889 -8.06175 0.986703
6.49452 10.8654 1.39315
-6.79554 -3.9215 0.863417
6.37946 11.9617 1.50436
-6.88913 -3.85964 0.874621
9.73671 7.22456 1.35595
6.70102 11.4365 1.47645
9.83146 7.04904 1.35917
5.46432 11.649 1.45512
5.47135 12.1661 1.50697
4.73355 12.3188 1.49352
9.86022 6.70178 1.35887
-6.88582 -4.55961 0.945657
7.41224 -6.23473 1.10416
-7.32237 -0.784571 0.844157
-6.27012 -5.38643 0.951867
5.25107 -5.5701 0.883411
8.90293 7.91492 1.388
4.42106 -7.18807 0.977677
10.4379 5.16744 1.36409
8.98669 7.81797 1.40034
5.20241 -5.61372 0.904332
8.62973 7.9436 1.3919
8.93392 9.08878 1.49123
-7.04094 -5.64553 1.06771
10.1639 4.75924 1.33729
-6.91284 -3.84852 0.953136
9.16483 6.16098 1.33951
5.24241 11.4914 1.53145
-6.88741 -3.06297 0.915694
-6.87188 -3.24885 0.919026
4.88307 -5.9552 0.940081
5.97806 -6.13336 1.04292
9.3971 5.63654 1.35474
8.48836 7.24688 1.38011
-6.94454 -4.30687 1.00648
-6.87613 -4.53122 1.01479
8.28847 8.6163 1.48346
5.06276 11.386 1.54762
-6.54511 -5.61332 1.07296
3.71157 -7.58021 1.05187
8.53102 7.76817 1.44389
6.08194 -5.62119 1.03845
9.19151 6.07743 1.39655
-6.1307 -5.40963 1.03159
8.57391 6.63287 1.38256
8.11435 7.5339 1.40869
-7.09365 -1.78107 0.935281
-7.00697 -2.30385 0.941829
-6.44087 -5.31489 1.06531
8.85164 5.6749 1.3481
8.18301 8.07318 1.48174
-7.25515 -1.25179 0.943872
-6.89228 -4.11557 1.03769
7.45235 6.23846 1.25891
8.10308 7.06255 1.39399
7.99677 8.15377 1.48013
-6.90432 -2.82373 0.970975
-6.90562 -2.9635 0.971362
4.57871 10.1399 1.46247
9.01612 4.11934 1.3049
-7.23941 -1.6043 0.97428
6.84397 -4.26192 1.07166
4.93099 -5.94702 1.02435
-7.32406 -1.11576 0.991484
-7.00724 -2.19714 0.982176
-7.04429 -2.26632 0.988442
-5.99133 -4.39555 0.992951
5.1919 -6.56929 1.11604
6.91489 -4.17882 1.08784
8.09789 7.19196 1.46742
-7.14335 -1.7163 0.987502
-7.07509 -1.95361 0.987023
8.8136 4.86587 1.36753
8.3533 5.88822 1.38971
-6.9152 -3.61596 1.06321
8.88521 4.1701 1.34642
3.37049 10.5936 1.52239
-7.30368 -1.19844 1.01298
-6.00649 -4.43874 1.02707
-5.98701 -4.5375 1.02832
7.15318 -3.93706 1.12238
8.09439 6.50397 1.43626
5.38097 9.09501 1.46363
-6.37766 -4.31832 1.05578
4.93543 -5.52868 1.02965
7.19089 -3.83273 1.13421
7.56612 -3.68953 1.16487
3.64356 10.1085 1.49662
3.45859 10.4072 1.52943
-7.35974 -1.08073 1.03831
-7.066 -2.00161 1.02327
4.97462 -5.29014 1.01526
7.25276 -3.74075 1.14661
7.36946 -3.67548 1.16815
7.88016 -3.35982 1.21798
-7.14661 -1.87258 1.05052
-7.00138 -2.94302 1.10047
-6.00437 -4.3708 1.06802
7.91494 -2.78574 1.22783
8.25217 4.63171 1.38665
5.01679 8.59438 1.45884
8.38961 4.51789 1.40847
7.84039 -2.34375 1.20644
7.16627 5.7048 1.37187
2.9831 9.52257 1.49254
-7.0858 -2.01719 1.10402
7.49278 -3.11343 1.22335
8.24858 4.55865 1.42876
5.80932 7.47132 1.43738
5.31409 7.66661 1.42174
5.15055 7.98004 1.44299
5.10425 8.08995 1.44806
7.34251 -3.17359 1.22188
7.68942 -2.75975 1.24424
-6.74841 -1.68084 1.04739
7.84242 -2.25994 1.25172
7.25598 5.44196 1.39294
-7.09524 -1.95012 1.14173
-6.91287 -2.78303 1.15812
6.83502 5.54409 1.38068
-7.34558 -1.09428 1.15984
-7.13581 -1.82198 1.15329
-7.03854 -2.06515 1.14919
-7.11256 -1.87026 1.15396
-6.88817 -2.9313 1.17507
4.83296 7.49395 1.41849
3.44583 -6.03122 1.10928
-7.26647 -1.29775 1.18233
3.52722 -5.70636 1.08083
3.56408 -5.61175 1.07022
7.09878 4.78511 1.39526
4.68593 7.4167 1.42816
-7.06311 -2.0212 1.19717
-7.08501 -1.94471 1.20548
6.99404 4.84656 1.40751
3.84279 7.98353 1.46736
6.05887 -3.3224 1.15121
6.66097 4.89338 1.37834
4.68747 7.20476 1.43415
3.83569 -5.29962 1.09967
7.13369 4.44227 1.41525
7.49937 2.86765 1.35709
6.34821 5.30693 1.40264
-7.26999 -1.25415 1.25616
6.77904 4.09864 1.3607
-6.44497 -2.76941 1.19681
5.5133 -3.63221 1.13427
5.69532 -3.5214 1.14978
2.77664 7.91381 1.45055
-7.36308 -1.03819 1.289
5.33694 -3.78567 1.14073
-6.30522 -2.2576 1.1612
-6.26591 -2.41461 1.17567
4.28102 -4.66458 1.10728
4.49446 -4.47766 1.11301
4.59243 -4.44976 1.12196
-6.79384 -1.73072 1.23488
4.35644 6.53614 1.4016
-7.15078 -0.927149 1.28876
-6.13898 -2.25584 1.16487
6.66412 3.70572 1.36714
6.12448 4.37942 1.36595
3.60768 -5.32602 1.17
5.17307 5.71339 1.41008
2.53509 7.25534 1.44432
6.50701 3.06256 1.36002
-1.70763 -5.78616 1.1418
6.43609 -1.38805 1.24939
6.29353 2.78697 1.32542
6.2372 2.38876 1.33278
-4.44296 3.93133 1.3943
4.33996 3.54666 1.34094
4.22428 3.30268 1.32781
4.66674 -1.67829 1.2455
4.8212 -1.38164 1.25485
-2.13664 4.78614 1.30859
3.72523 -2.95159 1.22204
3.67139 -2.54837 1.19331
3.40416 -2.95962 1.22517
4.01238 2.57474 1.33264
-2.59612 -3.53623 1.25138
-2.32779 -3.57298 1.21688
3.76045 2.06098 1.30408
3.73683 1.98308 1.30344
-2.83811 3.47971 1.38456
-2.29799 -2.42079 1.18778
1.95181 -2.77626 1.21109
-2.12161 2.76419 1.32291
-2.02679 2.75239 1.32912
2.24782 -1.86735 1.2242
2.37767 -1.49672 1.22154
-2.01493 1.8757 1.29484
-2.06565 -1.44368 1.22865
1.44662 -2.06637 1.2438
-1.99345 -1.0882 1.21458
-1.92574 -0.707882 1.21998
-1.92746 -0.70366 1.24557
-1.95635 -0.344437 1.22873
-1.89363 -0.564842 1.22983
-1.89322 -0.531039 1.2349
8.23733 -8.71758 -7.48075
12.1556 -10.3125 -8.82127
-8.7043 15.536 -6.90872
20.7053 25.2151 -11.723
-8.7904 -2.51743 -2.57655
-34.1667 -22.8235 -7.59072
-33.7788 -22.0904 -5.9556
-33.5064 -22.7703 -6.01649
-30.9472 -19.8475 -2.76503
9.30687 -8.8646 -0.39264
-7.57228 16.3222 -0.444113
-29.2787 -11.3299 0.723009
-6.90829 -8.25653 0.459764
16.8691 24.2233 1.6036
11.474 16.1367 1.63773
-6.68729 -6.66032 0.882432
4.26253 12.3689 1.50798
8.76888 9.13412 1.48119
7.99264 -8.7859 -10.4053
8.85597 -8.5625 -10.5252
6.97373 -11.9646 -11.5401
6.88887 -11.376 -10.9202
8.17335 -8.28568 -9.55669
7.03794 -12.0549 -11.3503
7.08351 -10.999 -10.4807
8.02295 -8.39923 -9.22731
6.74417 -11.3114 -10.3129
6.46084 -11.7241 -10.2363
7.77757 -8.87334 -8.99498
6.22082 -14.3488 -11.8344
8.32161 -8.7248 -9.12606
6.31512 -11.9365 -10.1984
6.16145 -12.1139 -10.134
7.5119 -9.47098 -9.02532
7.93013 -9.07933 -8.94957
10.5035 -9.48213 -10.5237
6.1332 -14.1411 -11.3926
6.11247 -13.6905 -11.023
6.1456 -12.6043 -10.3134
9.22369 -8.85168 -9.3777
9.3119 -9.09915 -9.49537
5.87876 -12.5329 -10.0558
9.38789 -9.01548 -9.28865
6.88066 -11.1559 -9.30166
5.62859 -12.9978 -10.0246
9.72216 -9.10922 -9.44141
7.62941 -9.3688 -8.49456
10.0289 -9.21558 -9.56816
10.9534 -9.52446 -10.1847
11.4815 -9.73289 -10.108
8.40812 -8.6318 -7.97765
7.45164 -9.32448 -7.88631
8.19135 -8.74371 -7.91908
7.64963 -9.37807 -7.91747
7.85912 -9.42833 -7.86649
8.34446 -8.55967 -7.64147
0.355719 15.8672 -10.1267
7.54915 -9.35039 -7.64729
10.9484 -9.64005 -9.27453
7.24823 -10.7344 -8.19718
8.17855 -8.52156 -7.44852
4.62117 -15.4285 -10.1287
8.73738 -8.72411 -7.63907
7.9438 -9.05771 -7.43107
4.05497 -18.0395 -11.3889
8.22102 -8.65181 -7.296
4.0897 -17.3149 -10.8558
0.141861 14.8708 -9.04886
6.67441 -11.2954 -7.98735
7.76401 -9.29331 -7.34735
10.1613 -9.34512 -8.3763
6.8407 -11.2836 -7.92104
8.08412 -9.23111 -7.36529
11.3095 -9.73158 -8.91998
5.41468 -13.89 -8.84119
7.75712 -9.29239 -7.17821
9.38011 -9.06141 -7.7278
6.92312 -11.1481 -7.76638
8.00646 -9.15408 -7.13571
9.78501 -9.2177 -7.83398
14.92 7.45569 -9.68808
8.69438 -8.85849 -7.17194
6.9531 -10.9958 -7.47645
2.64523 -11.232 -6.63607
7.88261 -9.09762 -6.89397
9.63684 -9.17017 -7.5562
10.8298 -9.52752 -8.13663
3.27819 -20.5739 -11.716
6.81977 -11.0116 -7.26085
10.14 -9.32221 -7.71333
12.3905 -10.3966 -9.06993
9.2693 -9.03548 -7.23292
4.6279 -14.3271 -8.39318
8.02847 -9.24448 -6.79985
14.8431 7.58888 -9.15348
9.72917 -9.13667 -7.32974
0.833057 17.476 -9.55483
2.73891 -19.8192 -10.9098
11.1697 -9.67905 -8.02441
4.24683 -14.4642 -8.15943
14.7559 7.71699 -8.97069
15.1577 10.4659 -9.89143
14.0872 7.77197 -8.59797
10.9893 -9.65167 -7.77733
13.3207 -10.8474 -9.13763
3.04085 -19.2984 -10.2705
11.3968 -9.86025 -7.66771
2.1674 -20.3475 -10.3281
10.297 -9.37472 -7.00201
14.33 -11.3341 -9.17276
13.8675 -11.2164 -8.92829
11.0481 -9.69026 -7.32107
7.52966 -9.36381 -5.95013
3.56786 -8.47912 -4.53346
-8.68666 -1.90727 -4.3724
2.21973 -20.107 -9.9221
4.53752 -9.30988 -5.06503
0.400338 13.6623 -6.69139
7.62868 -9.29527 -5.86757
-8.43698 16.0966 -8.79995
-9.1852 -2.4282 -4.57764
15.0646 -11.6332 -9.1461
19.4744 5.57211 -9.68777
-10.2934 -2.5485 -5.01557
1.90876 -20.5221 -9.80052
17.3263 16.2832 -11.2632
7.60578 -11.2437 -6.40477
20.1327 5.43424 -9.8212
14.0862 -11.152 -8.35429
2.93654 -17.3659 -8.18892
19.4539 5.75602 -9.37324
17.9381 -13.0724 -10.2519
9.88076 -2.4958 -4.70911
20.3894 5.16797 -9.70548
17.4545 16.4146 -11.0429
1.80784 -20.1743 -9.27017
9.69968 -9.06989 -6.08057
-9.19471 -1.66894 -4.26168
9.46646 -3.47362 -4.59289
6.73349 -11.3506 -6.00242
9.92825 -2.62245 -4.6581
19.3466 5.89944 -9.10666
17.854 17.7105 -11.3073
9.38215 -3.09065 -4.44667
15.505 -11.9308 -8.77892
7.05889 -11.5971 -6.07206
7.17051 -10.9455 -5.8321
9.57318 -3.40976 -4.52892
-9.94096 16.2902 -8.49442
17.7472 -12.9519 -9.7624
19.635 5.65638 -9.0576
16.1823 7.34021 -7.8697
17.9649 18.1468 -11.2952
16.5063 -12.2758 -9.06572
-11.1672 16.9789 -8.93039
-6.52145 14.8983 -7.12868
-5.22044 4.89598 -3.11756
20.2386 5.49519 -9.1181
9.57207 -3.41002 -4.3856
18.3672 18.6173 -11.2425
15.8979 -12.234 -8.63138
14.9322 7.46621 -7.1261
3.8448 -9.31661 -4.28195
-11.0946 16.8713 -8.54651
6.96296 -10.9351 -5.46601
-13.5375 3.31763 -5.87198
0.742929 -22.3053 -9.4053
15.8771 -12.0212 -8.32782
-5.14724 5.66726 -3.20218
0.997132 -22.1639 -9.30071
1.23237 -20.7534 -8.70958
14.2362 7.63553 -6.75794
18.7087 19.4981 -11.2925
3.78799 -8.96675 -4.05912
14.8444 7.76818 -6.97507
18.0685 19.2988 -10.9733
-9.49536 -1.0898 -3.94523
4.01081 -8.50943 -3.85422
14.1031 7.78757 -6.61464
6.86245 -11.0161 -5.30576
-13.5791 2.53662 -5.65076
-7.91697 15.3338 -7.01082
19.4331 21.1175 -11.6287
15.1482 7.2789 -6.77251
-5.24938 14.329 -6.11678
14.0136 -11.079 -6.99647
1.53487 19.3319 -7.53358
-8.69351 15.6979 -6.97141
19.0915 5.82233 -7.73437
-1.7505 13.2362 -5.17065
5.30616 -9.41221 -4.16664
-2.37827 13.4453 -5.24341
19.7817 22.8852 -11.6014
4.66689 -8.52681 -3.69143
19.5221 5.60056 -7.72908
0.872224 -26.3113 -10.0056
14.9749 -11.5395 -7.11421
20.086 5.44176 -7.78938
9.45709 -3.4456 -3.76335
0.531063 -22.497 -8.38715
3.25735 -10.8226 -4.22204
20.3951 23.7295 -11.6222
0.908872 -8.71199 -3.24855
14.0877 -11.1565 -6.62587
20.498 5.2135 -7.77736
18.0331 17.8197 -9.26657
-12.9985 2.27721 -4.79753
21.0672 25.1594 -11.9041
2.2928 -13.2868 -4.85706
13.0864 -10.5827 -6.05573
0.794513 15.4776 -5.54644
-8.18896 -2.79452 -3.09486
0.409237 -21.7064 -7.76152
-4.19643 13.7643 -5.1168
0.637086 -21.8176 -7.75714
15.9358 -12.0356 -7.07757
-15.6293 18.0676 -8.41778
5.9413 -11.3619 -4.50789
-10.9569 16.533 -6.9259
0.0946508 -18.412 -6.47292
14.3261 -11.3535 -6.39122
20.4533 5.38663 -7.38323
0.655971 -22.9137 -7.91715
-4.98732 14.4715 -5.24291
3.64417 -8.45936 -3.17052
4.88463 -9.04772 -3.52329
-14.4108 17.89 -7.8617
2.27812 -10.8984 -3.8154
-8.83317 16.0211 -6.23464
3.04099 -13.7548 -4.8021
-14.8828 18.2657 -7.98603
20.2705 5.51133 -7.0613
22.3172 27.6094 -11.8678
36.4631 -20.5832 -13.9912
-5.27678 13.9909 -4.96456
1.92206 20.8727 -6.95707
1.26764 -10.2463 -3.41372
32.7869 -20.6111 -12.7347
-5.22549 14.3827 -4.96864
-12.5086 17.1231 -6.87758
18.6775 -13.3094 -7.44713
3.56246 -8.67847 -3.00776
6.23485 -10.1369 -3.81371
2.31521 -11.0132 -3.58123
-4.50122 -33.8334 -10.8499
-1.12679 -23.6526 -7.53857
15.1098 10.4065 -5.79126
-13.1264 17.4658 -6.90455
-17.8614 19.2645 -8.25704
3.00155 -9.68 -3.19751
6.9841 -11.1299 -4.06197
1.38164 -21.8064 -6.75961
-2.54703 -27.1525 -8.3724
7.27189 33.6041 -10.4952
0.769785 15.0705 -4.58463
-11.061 16.6877 -6.03291
-2.67001 -26.2354 -7.94306
-14.2485 17.8141 -6.80521
-5.23693 -34.3591 -10.3499
0.833947 -24.8569 -7.43724
-5.35879 14.7337 -4.66201
2.09049 20.837 -6.17191
-21.116 19.6885 -8.51683
18.3084 5.8262 -5.65603
-4.27313 14.3447 -4.3995
-7.87624 15.278 -5.04148
4.2642 -9.16102 -2.96979
4.65052 -11.6514 -3.66786
-12.5806 2.21625 -3.67131
-32.4342 -45.9445 -16.1845
-15.0916 18.1545 -6.78547
6.98382 -11.1229 -3.7807
2.56698 -9.55675 -2.81152
12.987 -10.512 -4.75453
-8.43788 -2.45568 -2.49185
21.3314 27.5124 -9.86583
-8.56465 -2.25732 -2.50281
-2.51997 -25.7311 -7.25708
-12.9854 1.98986 -3.65832
4.40282 -11.3671 -3.38299
-9.24533 15.8981 -5.04771
-12.9671 17.2932 -5.93573
-5.35652 14.2916 -4.1701
-8.36842 -40.6523 -11.3577
-21.2969 19.8736 -7.83007
-9.66236 16.0209 -5.01259
-26.482 20.3428 -8.8832
11.5087 11.5837 -4.30989
4.34222 -11.3345 -3.21512
47.6937 -13.8646 -13.1567
-8.04991 -37.9964 -10.2108
4.09835 -8.6761 -2.52639
11.2132 -9.97355 -3.92553
-14.3425 17.9575 -5.97489
6.55438 -10.452 -3.19295
3.18449 -9.66489 -2.63051
-29.6301 -43.3969 -13.5704
-4.29452 -28.1761 -7.37592
3.55096 -10.4003 -2.83346
4.07759 -9.4085 -2.63539
15.691 -11.7985 -5.00867
-7.09784 15.1192 -4.22619
-31.071 -41.4375 -13.135
4.32633 -11.181 -3.03394
4.26264 -7.71824 -2.24392
6.55853 -10.6979 -3.12911
45.3338 -13.7064 -11.8071
-28.0015 21.1259 -8.6715
-11.4423 16.8098 -5.01188
-27.221 -39.7104 -11.8388
-9.72119 -38.2683 -9.74117
-24.261 20.3771 -7.78531
4.36096 -10.3573 -2.76086
-11.9711 17.1463 -5.06932
-7.78505 15.1667 -4.10782
10.3087 -9.2985 -3.32391
40.7034 -13.5207 -10.2626
15.1969 7.60022 -4.04586
-6.20592 -35.5511 -8.59846
3.97243 -9.10265 -2.35321
47.5578 -12.7284 -11.6837
-11.9094 -43.8558 -10.7674
4.2135 -9.01559 -2.37384
3.87723 -11.1201 -2.77505
4.91907 -8.71213 -2.35353
-12.6781 17.2765 -4.98616
11.0473 -9.68119 -3.35704
-6.10541 -30.9681 -7.20341
-26.8938 20.7714 -7.70246
41.9526 -9.1749 -9.74487
-30.1778 21.9106 -8.36085
-35.104 -23.0046 -9.40467
-5.29532 -25.2142 -5.74662
41.1399 -12.7176 -9.66755
5.46791 -9.49724 -2.44657
-12.3688 2.82229 -2.78368
41.0163 -12.0199 -9.44271
43.0268 -12.2768 -9.84325
27.8918 39.2841 -10.5551
-5.3302 13.9819 -3.2704
13.4534 -10.8258 -3.80065
38.4228 -12.3478 -8.87161
-23.1695 20.1934 -6.66615
-28.5727 -70.4461 -16.498
4.32082 -9.7249 -2.30746
4.54999 -9.20217 -2.21716
-14.454 18.0078 -4.93052
-30.598 22.2258 -8.07499
-31.461 22.3267 -8.24636
-27.1683 -72.0838 -16.5148
-10.5966 16.5574 -4.16734
-8.30035 -35.2395 -7.7001
3.19902 -9.71133 -2.1801
3.97818 -9.85878 -2.2665
46.2997 -10.7347 -10.1448
15.0283 7.52755 -3.56409
-15.0211 18.4906 -5.0431
5.17568 -9.07526 -2.1948
27.0956 39.2052 -9.96189
-27.4091 -26.8228 -7.96356
15.071 7.8875 -3.53233
-29.8898 -23.084 -7.83491
-31.6667 -81.1971 -18.0464
40.9072 -11.0088 -8.76038
-11.3464 16.7171 -4.10484
-15.4808 18.3031 -4.87959
-34.75 23.3268 -8.50446
44.9016 -9.79409 -9.37124
-12.9784 -41.7627 -8.88994
4.1469 -9.76007 -2.15735
11.6488 -9.68335 -3.08179
-11.8877 17.0592 -4.14985
-19.3831 -55.6319 -11.7758
-12.7388 -39.5744 -8.23229
4.08082 -9.94793 -2.12869
-33.7996 -23.1118 -8.0723
-26.4516 20.7603 -6.61772
-32.8438 -23.4937 -7.87212
-6.81863 15.0656 -3.20873
-25.8505 -60.7419 -12.8242
-33.2587 -22.1413 -7.69994
3.44461 -9.38603 -1.93046
46.3754 -10.7449 -9.14038
-12.6257 17.2378 -4.08396
3.99934 -9.3687 -1.94381
-36.1015 -21.9291 -7.99637
-21.0067 -34.125 -7.62179
-15.2576 -44.0253 -8.81772
38.2606 -12.6213 -7.61555
-35.4861 23.8336 -7.99986
-33.3829 -23.055 -7.62192
-32.3452 -23.665 -7.52373
-20.8169 -51.5732 -10.4663
-16.538 -44.9231 -8.88101
3.82758 -9.2243 -1.84454
43.0189 -11.5944 -8.2729
5.77375 -9.73991 -2.07494
-23.9276 -54.2572 -10.8581
-20.0018 -49.6476 -9.68237
-14.4134 17.9666 -4.08367
-30.8103 -24.8492 -7.03633
-20.1155 -26.8047 -5.99348
-38.8274 24.5007 -8.1005
-26.4584 20.7749 -5.85494
-33.6511 23.0273 -7.07972
3.92092 -10.0789 -1.87507
4.78181 -8.63055 -1.7146
14.0784 7.56057 -2.75678
14.156 8.12344 -2.79599
-30.4516 22.144 -6.45467
42.6945 -12.0793 -7.5533
42.4795 -11.0019 -7.46936
-30.968 -24.5945 -6.709
-20.8364 19.844 -4.83157
-19.9264 -49.5299 -9.02198
14.9409 7.48845 -2.80349
-31.3094 22.1653 -6.40781
-22.9807 -54.7912 -9.81902
44.0508 -11.867 -7.41458
-10.2391 16.2549 -3.09948
-20.1974 -50.1074 -8.61756
-34.5519 -23.8514 -6.61634
-22.5267 19.7917 -4.6953
-23.9024 20.4047 -4.8707
-39.5283 23.9332 -7.1607
-11.0991 16.6117 -3.08366
3.48216 -9.55645 -1.57287
3.88272 -10.2673 -1.69943
-7.52237 15.2567 -2.59739
-30.6731 22.3248 -5.79925
-31.4634 -24.3014 -6.04576
-27.6854 -25.8966 -5.74342
42.6755 -11.0944 -6.70174
45.3781 -9.88636 -7.07493
-6.45725 14.3817 -2.35799
9.85362 -5.16502 -1.65125
-33.1707 -23.9245 -6.09098
-25.6596 -64.8822 -10.3493
10.2294 -9.1974 -2.0499
45.5267 -10.5321 -6.939
-36.2795 -24.1508 -6.41467
-31.2053 -25.7394 -5.91771
-12.412 -41.1274 -6.32192
17.0176 -12.3122 -3.07642
-25.0932 20.6601 -4.72362
-24.1145 -54.0322 -8.52726
-7.52187 15.065 -2.40706
-12.5706 17.1393 -3.03004
6.06154 -11.5804 -1.8675
-13.2592 17.7221 -3.10869
-34.2348 23.1265 -5.80853
6.78659 -11.0855 -1.81648
37.9791 -12.5339 -5.62446
-30.8581 -24.7266 -5.51909
-32.5584 23.3983 -5.5544
-20.1364 -48.5329 -7.25824
45.6815 -10.2196 -6.45424
-6.77532 14.9833 -2.24642
-22.0081 -57.439 -8.35711
7.77456 -9.40859 -1.63783
-13.8476 17.6812 -3.02724
13.2794 -10.5914 -2.29812
-21.9692 19.9837 -3.99347
42.6009 -11.0146 -5.84111
45.3986 -9.94424 -6.15088
-22.3513 19.6695 -3.89332
-32.3756 -24.2261 -5.28203
-14.7282 18.0352 -3.0105
-33.5791 22.4124 -5.24154
-37.9877 -16.0399 -5.32455
7.04191 -10.4728 -1.61906
10.8345 8.8707 -1.79867
-33.4851 -23.0757 -5.20452
-31.0254 22.6494 -4.85932
-35.2415 -21.991 -5.20709
42.4559 -10.9798 -5.48735
6.82039 -10.4049 -1.55441
-7.55381 15.1087 -2.09097
-24.7178 20.7551 -3.95229
-32.9423 23.2169 -4.97157
6.32485 -12.1301 -1.66631
45.3486 -9.67513 -5.67898
15.0885 7.90504 -2.04849
-17.615 -42.6633 -5.56631
7.11256 -10.5708 -1.53391
-20.3945 9.03866 -2.64059
-14.0164 -42.3999 -5.25155
-31.5485 -24.3233 -4.6584
-31.0375 -24.8221 -4.65101
42.5457 -11.3968 -5.17621
11.2753 -9.71005 -1.72379
-29.4941 22.3639 -4.25872
6.66771 -10.8641 -1.45914
7.51032 -9.24656 -1.36253
11.6305 -9.76357 -1.72461
9.46936 -4.61961 -1.19318
15.0658 7.74195 -1.90949
-10.223 16.2748 -2.16873
-31.7492 23.1995 -4.40545
39.3135 -12.9416 -4.64091
9.38718 -9.05242 -1.44267
-10.9343 16.3992 -2.14244
6.82964 -12.8579 -1.57682
45.4939 -9.8875 -5.04654
10.8342 8.90317 -1.51195
16.8743 -12.5348 -2.25578
42.7466 -11.0867 -4.73143
9.65083 -9.00839 -1.39859
8.40223 -8.4876 -1.25109
-30.6104 -24.4954 -4.08264
-29.367 -58.9045 -6.86688
15.062 7.55382 -1.72202
-31.4919 -24.2822 -4.08044
-12.7041 17.3183 -2.18079
-12.628 16.9186 -2.09839
10.2429 -9.11954 -1.34342
-20.3289 -51.6283 -5.44033
6.34983 -12.1602 -1.32754
16.7412 -12.2482 -1.99367
42.6359 -11.4569 -4.23135
-29.8595 -60.3576 -6.40191
-20.2693 -53.193 -5.40658
-23.0355 20.149 -2.86129
46.2183 -10.2818 -4.42192
9.74881 -9.01694 -1.22922
40.1657 -13.2497 -3.94067
-14.8422 18.1942 -2.12646
-29.4844 -13.4428 -2.95411
-31.4232 -61.2572 -6.34637
15.9474 -11.9364 -1.81184
8.66168 -8.75295 -1.11504
12.9509 -10.6903 -1.46218
45.7998 -10.6157 -4.02693
9.43255 -9.05745 -1.0992
10.9935 -9.68119 -1.23119
-33.6811 23.1306 -3.40064
16.9431 -12.3555 -1.73661
-16.5738 -43.128 -3.70098
14.7603 -11.5416 -1.49394
-11.5518 -32.3399 -2.7108
-29.4248 22.3735 -2.85915
-32.6343 23.0673 -3.08572
-22.1755 -50.655 -4.26922
-50.2341 27.3398 -4.33173
-21.1332 19.8897 -2.11145
-32.8592 23.2425 -2.91754
16.4767 -12.3114 -1.50442
42.6673 -11.4179 -3.21742
-38.0018 -71.903 -5.86935
14.0454 -11.1128 -1.2816
-15.247 -40.4463 -2.98353
10.8072 -9.65156 -0.992642
-23.0579 20.1894 -2.07033
12.9296 -10.6689 -1.122
18.0688 -13.1052 -1.48784
16.1359 -12.205 -1.33596
-14.3736 -39.8522 -2.7406
44.4734 -11.5666 -2.8719
-30.9177 -62.6443 -4.26303
36.2105 -8.78478 -2.28643
43.6119 -9.98213 -2.74623
6.08892 -13.162 -0.86663
31.2699 -20.6913 -2.24316
-9.70702 16.2046 -1.11058
-15.2634 -39.816 -2.42809
16.7106 -12.4887 -1.17113
-9.64974 -12.5093 -0.865893
15.0551 7.72384 -0.915223
13.971 -11.0595 -0.954025
-12.6288 17.114 -1.11123
-16.1537 -40.0384 -2.29293
14.9494 7.86086 -0.828153
-15.9714 -40.8251 -2.15093
-13.9773 17.7164 -1.07951
9.59722 -9.05276 -0.605064
-23.3542 -53.5717 -2.64429
12.5065 -10.2814 -0.75048
-15.6413 -43.6015 -2.05649
-16.8635 -41.5482 -1.91961
6.89615 -12.734 -0.642361
-13.6058 -41.475 -1.85923
-51.5954 28.0597 -2.38032
18.4605 -13.2626 -0.922281
16.9054 -12.5658 -0.820156
-39.9094 -77.4604 -3.28693
-17.7908 -46.6535 -1.83873
-33.1636 22.7867 -1.47242
43.1523 -11.1188 -1.60418
-33.3679 -66.3745 -2.48511
-25.1719 -55.1642 -2.04127
20.4314 23.6301 -1.03789
-21.176 19.844 -0.946118
8.17437 -14.4273 -0.556787
9.45252 -9.02392 -0.423572
11.3453 -9.98797 -0.491255
18.7177 -13.2349 -0.753192
35.2073 -13.2791 -1.24835
22.2956 26.9889 -1.12322
-27.1978 -13.6422 -0.953974
-22.6155 20.1394 -0.923484
-31.2625 22.1418 -1.19631
-24.2754 -55.8098 -1.88463
-13.5413 -38.3083 -1.25134
-20.9204 -53.3655 -1.73521
-16.2368 -44.0052 -1.34356
-33.7071 -20.4374 -1.0501
11.4948 -9.75153 -0.40374
16.4351 -12.2242 -0.539796
-40.3908 24.9874 -1.25343
-29.8653 22.7249 -0.929165
-30.3848 22.2685 -0.891318
9.59953 -9.03688 -0.30537
-40.8313 14.1125 -0.955615
-30.7225 -51.4454 -1.34928
21.4309 -14.3331 -0.566481
30.8361 -18.6982 -0.813522
14.2917 3.94965 -0.302606
28.2171 49.309 -1.04551
23.7142 -11.0403 -0.460475
47.8169 -11.0108 -0.912259
-30.3602 -21.8179 -0.681855
-29.2557 -28.7349 -0.650233
-18.5575 -45.5357 -0.81849
12.7784 -10.5081 -0.272105
18.6484 -13.4753 -0.351422
-29.0665 -12.9193 -0.41782
-32.5006 -24.3226 -0.564891
-32.3042 -65.1226 -0.980871
-26.9478 -57.3536 -0.867844
-33.5966 -22.9446 -0.531281
-29.882 22.7341 -0.442796
17.1044 -12.7732 -0.253311
29.6283 -18.3711 -0.409867
-30.3469 22.279 -0.419919
-18.6979 -42.8825 -0.500177
-11.8032 -35.5271 -0.376711
-32.5282 -57.3141 -0.606695
-14.1442 17.9417 -0.175829
-26.5363 -13.3788 -0.240134
-14.8266 18.0736 -0.160359
-22.2857 19.9032 -0.154415
-20.7454 19.4586 -0.130014
-10.5168 -13.5203 -0.0601773
14.8165 7.78347 -0.0203889
11.1524 -9.80666 -0.00774287
-34.1852 -18.7239 0.0593226
-11.1516 -33.1426 0.114223
17.062 -12.3962 0.0917034
-18.4318 -42.3158 0.205635
18.9091 -13.323 0.123061
7.21529 -12.403 0.104767
26.2147 -10.7554 0.174554
-54.4497 19.4425 0.550314
16.3462 -12.1143 0.194418
37.8669 -7.73111 0.365064
-28.8927 -8.14703 0.350862
-35.9245 -21.6832 0.462699
-11.154 -31.9576 0.363474
-53.3807 29.256 0.743271
-12.4988 -34.6348 0.438841
-10.1272 -31.1289 0.393194
6.37128 -13.0231 0.185111
7.24494 -11.1614 0.175006
-27.8177 21.8362 0.540728
11.3591 -9.92043 0.226817
-23.8244 20.3743 0.51672
10.9432 -9.77109 0.230333
13.034 -10.7301 0.266098
36.7956 -7.87489 0.626413
-34.2172 -22.9249 0.749146
-30.821 22.0374 0.743163
6.18225 -12.9169 0.27789
7.05206 -11.098 0.25336
8.05183 -9.44835 0.242457
28.5102 58.6238 1.4171
7.75346 -9.4737 0.276808
10.1652 -9.20707 0.33094
-28.6304 -9.18054 0.723978
-23.0333 20.1047 0.826481
-27.2312 21.4719 0.929945
-28.7588 -8.63523 0.790995
9.21906 -8.92391 0.34665
9.6562 -8.97477 0.359398
-25.2667 21.2952 0.897068
25.5488 -5.16861 0.725956
13.0438 -10.7006 0.502687
15.0375 24.4973 0.886529
6.22832 -12.8488 0.449321
7.49242 -11.6796 0.43548
-28.2931 -7.97949 0.964255
-12.5334 -19.19 0.755276
-27.9798 -8.74502 1.01329
16.2233 11.1041 0.710427
-29.601 -18.3426 1.21714
16.0337 27.8521 1.14663
-30.2216 -16.485 1.27559
23.6808 -4.27619 0.869587
-27.6244 -19.6469 1.25609
-7.28546 -7.94362 0.406688
9.07947 -8.85389 0.471445
12.5285 13.705 0.715808
26.9051 55.5033 2.33555
25.7369 54.7966 2.27925
-11.5282 -9.12506 0.579646
8.74875 -8.69432 0.487954
-25.3597 20.8904 1.33303
21.9584 -2.97601 0.897896
-28.595 -17.3686 1.37053
9.44431 -8.9551 0.533668
12.5596 14.4651 0.824049
6.61331 -12.5243 0.601417
15.0192 19.5152 1.08247
21.1073 29.1549 1.57619
-9.46087 -13.7562 0.73388
-9.9366 -15.5404 0.818895
7.62843 -10.9947 0.589599
8.64909 -8.73883 0.555656
24.3371 -3.72827 1.11185
-29.6784 -8.64867 1.41074
6.77009 -11.1299 0.599386
-8.26092 -8.12968 0.545385
21.8871 44.16 2.35778
-28.3593 -17.5271 1.57583
-9.73377 -13.6534 0.798127
9.69157 -8.99214 0.622723
15.9522 44.3306 2.2804
-30.0544 -13.3119 1.56874
-6.75406 -8.23415 0.523979
14.8702 34.5813 1.92062
-29.5561 -11.5741 1.59272
-7.58399 -6.9737 0.52069
-6.69275 -7.58693 0.51172
16.398 29.7051 1.76169
10.6134 12.4105 0.882418
14.3673 19.5515 1.30262
9.3737 -8.95295 0.694543
14.9593 19.464 1.35537
15.4699 23.8932 1.56723
-27.2221 19.1672 1.82402
-6.96432 -8.18452 0.595893
-26.1523 20.0667 1.83185
6.13044 -12.9441 0.801272
-7.09538 -9.14403 0.659999
10.0184 12.5137 0.942671
15.1075 25.4543 1.7292
6.50041 -13.0557 0.839277
14.0012 22.8427 1.58246
-8.24791 -8.10733 0.69676
11.5978 11.6779 0.981413
14.8096 19.697 1.48054
-7.38444 -9.99636 0.772915
7.03654 -11.2134 0.80675
11.301 -9.74785 0.904817
5.88817 -10.7941 0.762945
-7.18861 -6.64447 0.6116
14.62 20.7395 1.60548
16.2127 7.1966 1.15174
-7.03153 -6.14347 0.612579
6.50266 -13.5286 1.00024
9.51516 21.4932 1.58566
10.4765 12.6274 1.12164
13.6633 18.3724 1.59694
12.5217 20.7609 1.67761
11.4057 12.0485 1.16449
6.61577 -9.86645 0.841222
11.5534 11.8203 1.19615
9.8239 -6.93473 0.855666
12.4216 12.0253 1.26976
9.94855 -8.40147 0.953963
-6.13459 6.64869 0.674919
10.4709 9.21997 1.04802
12.017 17.9674 1.6264
11.5706 18.4344 1.63997
-6.93895 -7.69137 0.803193
10.9493 18.8985 1.67584
9.53655 -8.97872 1.01228
10.539 14.147 1.38303
-6.41324 -4.2973 0.608699
9.27081 18.574 1.65896
10.0992 -6.91084 0.979891
12.5134 11.6101 1.3799
9.83547 19.0966 1.72974
-7.25433 -9.62221 0.98154
6.73161 -9.39956 0.940777
12.3003 11.767 1.3948
12.2053 12.0035 1.42157
11.4776 11.9967 1.37454
-5.04109 -11.5056 1.05678
10.3685 12.9725 1.41309
-6.95607 -6.07847 0.795561
-6.8123 -6.69124 0.806482
-5.20227 -11.4098 1.0665
-7.29375 -7.73958 0.915765
9.29994 -7.26803 1.01981
-7.114 -8.05024 0.940119
-7.01096 -7.68383 0.914722
9.43917 12.5995 1.3958
-6.94545 -8.36407 0.971252
10.8519 9.10545 1.29107
10.522 13.5519 1.5502
10.5603 9.27471 1.28664
7.77236 14.1088 1.48172
-6.49294 -8.12924 0.953218
-6.89548 -9.00863 1.04709
11.2448 10.8453 1.44155
11.2881 9.20991 1.36334
10.9135 10.8479 1.44251
6.54336 15.1211 1.54842
-11.4033 2.92136 1.10353
-6.35865 -4.16914 0.712179
-6.80152 -6.29 0.859
9.48659 13.3789 1.58225
-6.00718 6.52736 0.873024
7.97074 -6.61781 1.0097
7.98141 13.3083 1.5416
-7.0625 -7.6109 1.04595
9.3521 11.6938 1.5104
7.05095 12.5194 1.45837
7.11085 13.1004 1.51976
9.56635 9.12415 1.36822
5.91295 14.0961 1.58461
9.1897 12.4988 1.61755
-6.10454 -4.45479 0.791965
6.01043 13.8111 1.58683
6.27149 13.7375 1.58788
-6.96565 -4.42469 0.882492
8.79806 9.04959 1.34567
9.17338 10.2194 1.49364
7.36669 11.0614 1.44447
5.86381 11.5499 1.40848
-6.29444 -7.40476 1.0622
10.2914 6.4679 1.34496
9.01862 8.16266 1.34097
7.35369 11.7547 1.5312
6.88696 11.7053 1.5017
5.39703 11.9849 1.46265
4.90906 12.2028 1.47186
4.75234 13.8211 1.60825
9.89172 7.07266 1.35789
8.79011 9.34385 1.43363
5.42022 11.5978 1.44188
-6.83586 -6.71794 1.06668
6.90291 10.7746 1.44165
4.36287 13.3098 1.58342
9.76657 -3.20042 1.146
-6.10082 -5.41105 0.943998
7.29673 -6.12627 1.08154
10.4369 5.72649 1.36546
-7.37232 -0.984593 0.852046
-6.25349 -5.35278 0.947373
5.24729 -5.55587 0.88047
5.106 11.712 1.48448
-6.87802 -4.55586 0.955869
4.45492 -7.26416 0.985473
10.4278 5.15858 1.36532
8.90942 7.90759 1.39854
-5.99921 -4.36613 0.86458
-6.4815 -5.26994 0.986729
4.0947 -7.87113 1.05514
4.96602 -5.84952 0.920607
10.1851 4.76244 1.34793
8.5446 8.29712 1.44273
5.31311 11.5753 1.55502
9.06456 6.27954 1.35025
8.03663 8.36391 1.45316
-6.4853 -5.74275 1.07825
3.70771 -7.57543 1.05633
8.69609 6.70508 1.38095
-6.46368 -5.34097 1.06108
9.1094 6.02543 1.39452
8.2042 7.15875 1.38933
8.13616 7.52794 1.41544
5.77772 -5.34616 1.01065
-6.96706 -4.44 1.06033
8.12585 8.02302 1.4813
-7.34887 -1.04118 0.958763
-6.91804 -2.82432 0.975673
8.98978 4.10755 1.29447
8.4222 6.6445 1.40841
4.99852 -6.02821 1.02938
4.91675 -6.19292 1.04711
6.87346 -4.28473 1.07818
-7.12667 -1.71665 0.982517
-7.00383 -2.21816 0.982022
-6.02287 -4.42048 0.998656
8.15491 6.67473 1.42879
8.62439 4.4471 1.32308
8.64765 5.17681 1.37676
8.04963 7.15708 1.46626
-6.8038 -3.73095 1.05347
8.87588 4.16634 1.34224
8.28267 5.84595 1.38843
-6.39449 -4.32669 1.05635
-5.95507 -4.52324 1.02116
5.38447 9.07375 1.4576
3.66767 10.147 1.49878
-7.35915 -1.09169 1.03006
-6.89919 -3.9242 1.10136
4.94851 -5.54316 1.02696
5.22843 -5.39847 1.04309
7.46927 -3.53973 1.15597
3.41173 10.2324 1.51182
8.41712 4.60674 1.35747
7.38061 -3.68094 1.17005
7.59316 -3.33761 1.18256
7.76852 -3.30853 1.19817
8.95109 2.81847 1.35084
4.83324 -5.6348 1.06711
7.35917 -2.85518 1.14928
-6.95307 -3.29757 1.12152
7.92531 -2.78214 1.2247
8.67411 -1.82206 1.30111
5.03274 8.61688 1.47328
2.97491 9.50966 1.48285
7.73921 -1.88965 1.17417
7.24674 5.77129 1.38045
3.47992 9.62745 1.51368
3.21079 9.8714 1.53892
-7.36137 -1.04211 1.10215
-7.06773 -2.02113 1.09535
6.96605 6.30604 1.41882
-6.25892 -2.27014 0.998984
-7.23202 -1.37375 1.11103
7.95568 4.82766 1.41787
5.73083 7.38462 1.4185
5.31461 7.66308 1.41956
5.07979 8.05027 1.43942
6.76349 -3.22759 1.1334
7.25158 -3.127 1.20942
7.64254 -2.75782 1.23819
-7.30745 -0.732032 1.12131
-7.09026 -1.95254 1.13489
6.79318 -3.09472 1.15449
3.74919 -5.78563 1.06611
-7.04626 -2.07398 1.15136
-7.33724 -1.09158 1.16458
7.37657 4.78465 1.38882
-7.19052 -1.44189 1.1666
-7.26311 -1.29958 1.18368
-7.09047 -2.01702 1.19861
7.08455 4.77319 1.39462
-7.09406 -1.94349 1.2081
7.02436 4.87536 1.42042
6.62941 4.8626 1.37218
5.22331 6.26364 1.35888
4.69228 7.20162 1.43581
3.84202 7.97459 1.47174
-7.24097 -1.37194 1.23008
2.79036 -5.77275 1.08091
7.15601 4.43736 1.41864
6.52862 5.25048 1.41357
3.87298 -5.36437 1.11558
3.93577 -5.01987 1.07989
-7.26387 -1.25097 1.25017
-6.59304 -2.62313 1.20373
7.42739 2.852 1.34956
7.04242 3.8981 1.37185
-6.40957 -2.75096 1.18655
6.78688 4.10612 1.3619
5.68485 -3.52112 1.15103
-7.38708 -1.03835 1.28984
-6.35208 -2.2787 1.16003
5.53732 -3.64926 1.14317
5.32048 -3.77512 1.14356
3.61296 7.1946 1.41657
-6.79295 -1.73349 1.23103
4.48007 -4.46751 1.11351
-7.08399 -0.913585 1.27219
4.72584 -4.45839 1.14981
4.34446 6.51682 1.39789
6.59642 3.47937 1.34696
6.63656 3.68862 1.36416
-6.43566 -1.49922 1.18832
3.60779 -5.32482 1.1701
5.09174 5.6285 1.38996
-6.15089 -2.18175 1.19594
3.41157 -5.15627 1.14988
3.40219 6.80054 1.42303
-1.69838 -5.78369 1.14486
6.45315 2.73551 1.33397
-2.14376 -5.72871 1.17573
6.31726 2.79966 1.33043
-2.78788 -5.37708 1.18674
-3.51135 5.33164 1.38252
4.47902 3.90078 1.35581
4.15061 -2.8784 1.17701
4.62943 -2.18666 1.23724
4.20603 3.29695 1.32407
3.70625 -2.92936 1.22363
4.02309 2.57773 1.33513
-1.44514 -4.12261 1.22288
-2.32327 -3.58279 1.21322
3.86419 2.36702 1.31314
-2.8557 3.51888 1.35806
-2.48299 -2.91906 1.19006
-2.38046 -2.94029 1.19503
1.83898 -2.80595 1.17986
1.86204 -2.78439 1.2099
1.98817 -2.52174 1.19643
-2.0406 2.80229 1.31764
2.80247 -0.555405 1.25888
2.78201 -0.336675 1.24071
-2.09148 -1.62067 1.21354
-2.07913 -1.45254 1.23855
-1.86448 -1.79778 1.28418
-1.99659 -1.13236 1.20491
-1.98804 -1.07123 1.23172
-1.94774 -0.881028 1.23188
-1.932 -0.708909 1.22209
-1.93084 -0.70199 1.2493
-1.90706 -0.470002 1.22202
-1.87239 -0.345946 1.21918
-1.8573 -0.40145 1.22594
2.37612 -19.6615 -9.99354
-7.58539 -8.95551 0.464001
8.0359 -8.81886 -10.4901
8.28116 -8.64718 -10.5248
8.23261 -8.30728 -9.90604
6.97326 -11.9823 -11.4335
8.53685 -8.99496 -9.76433
7.86742 -8.95633 -9.15472
5.86197 -12.8224 -10.7491
9.45238 -8.85749 -9.77031
6.16026 -14.1212 -11.5975
8.30691 -8.69932 -9.0433
8.03688 -9.19046 -9.12954
7.30832 -9.26611 -8.79222
5.92314 -14.1812 -11.2125
7.73669 -9.32777 -8.74436
7.87388 -9.13768 -8.68863
7.14426 -10.6029 -9.10239
6.83559 -11.0973 -9.23934
10.0839 -9.22069 -9.59631
6.55435 -11.1998 -8.88346
8.05155 -8.64746 -7.8678
7.37775 -9.30218 -7.8897
8.53667 -8.70212 -8.10265
7.73981 -9.49647 -8.0482
6.5033 -12.8047 -9.37751
7.95266 -9.20295 -7.93265
5.00891 -16.0556 -10.8172
-0.475988 13.9201 -8.90627
7.74602 -9.26611 -7.74434
7.35436 -10.8914 -8.36723
8.39852 -8.58711 -7.65219
10.911 -9.652 -9.23964
9.01216 -8.84092 -7.91752
11.8089 -10.0698 -9.72577
8.09295 -8.55711 -7.24588
4.0442 -16.8492 -10.6198
4.25542 -15.3965 -9.80777
7.86449 -9.38248 -7.33657
3.95594 -15.6376 -9.61847
11.5208 -9.86286 -9.08288
6.88163 -11.1045 -7.7568
7.78825 -8.83754 -6.97795
5.49986 -14.0268 -8.90141
6.5045 -12.7365 -8.36914
8.38225 -8.61506 -7.00467
9.71657 -9.10793 -7.76533
2.79611 -11.816 -6.95972
5.49676 -13.9419 -8.48477
9.62401 -9.13298 -7.49997
6.63381 -11.0963 -7.27904
3.3454 -20.6714 -11.7359
8.90269 -8.96299 -7.08163
12.2365 -10.266 -8.94788
6.84016 -11.032 -7.23109
4.6946 -14.6449 -8.49888
6.23863 -12.6548 -7.76112
0.893932 18.6021 -10.1385
14.6873 7.76117 -9.02626
4.21417 -14.2751 -8.03835
14.7916 -11.7047 -10.1674
15.0437 7.47581 -8.94853
14.0753 7.75536 -8.53934
4.77525 -14.8757 -8.30108
12.1247 -10.1849 -8.33273
1.81287 -20.459 -10.5669
11.4538 -9.88458 -7.75076
2.08063 -20.1919 -10.3006
14.0231 -11.1307 -9.05537
0.00167804 14.2712 -7.1634
-7.24115 15.0487 -8.36883
10.6276 -9.63066 -7.20632
7.5342 -9.44989 -6.0212
-8.43728 15.9925 -8.7384
11.6834 -9.81214 -7.38444
10.5272 -9.6147 -6.84588
14.8495 -11.3844 -9.02475
16.814 15.9285 -11.004
7.50702 -11.0952 -6.38228
15.082 7.45221 -7.89362
13.9821 -11.0715 -8.33523
-11.8348 16.946 -9.46981
15.9111 -12.0559 -9.11957
9.79661 -2.45633 -4.63956
-9.09154 -1.65284 -4.20207
18.874 18.2135 -11.8356
3.92049 -9.11557 -4.50364
-10.1157 16.5234 -8.70007
-5.32801 4.43045 -3.11583
6.8793 -11.3252 -5.96509
9.45374 -9.11144 -5.79076
16.0948 7.34231 -7.80482
-6.57382 14.9275 -7.12372
1.50226 -18.7501 -8.13551
-11.0624 16.8305 -8.67143
9.60164 -3.37737 -4.35968
7.03863 -11.0785 -5.54835
15.8933 -12.0141 -8.33956
14.7178 7.78027 -6.98315
18.9141 19.6792 -11.4079
1.01882 -22.5482 -9.39713
-4.50025 13.7606 -5.96505
-9.91022 -1.10845 -4.13276
14.1533 7.81525 -6.60167
20.6562 22.47 -12.4416
-13.0185 2.43969 -5.39556
15.1854 7.21512 -6.79976
-5.17645 14.1819 -6.07167
3.64452 -8.82322 -3.79966
12.4378 -10.3076 -6.32802
14.0002 -11.0544 -6.97104
19.4838 21.8072 -11.3443
18.9043 5.82948 -7.67119
1.54231 19.3239 -7.51679
-8.64018 15.5671 -6.86369
11.4385 -10.0853 -5.86557
19.4291 22.5265 -11.4593
0.68113 15.4049 -5.90553
-1.65575 12.692 -4.92411
2.71597 -12.2523 -4.81495
-8.75263 -1.2501 -3.36063
0.701518 -23.5459 -8.88921
15.2529 -11.6889 -7.24708
9.5101 -3.47015 -3.81889
-14.4136 17.7686 -8.52746
-7.87981 -3.50038 -3.16243
1.09544 -10.4503 -3.86462
7.04982 -11.2708 -4.86138
14.264 7.96463 -5.8984
-8.28001 -2.84284 -3.14804
0.788435 15.3202 -5.47034
-3.91587 13.2387 -4.88414
5.75304 -11.0164 -4.37356
15.9094 -12.0233 -7.06281
19.1815 5.92428 -7.063
2.12683 20.7907 -7.32985
21.8947 26.4695 -11.9385
-14.6983 18.1435 -8.01525
2.97868 -13.3691 -4.71416
-8.78577 15.8702 -6.1993
18.5814 -13.1609 -7.80406
-4.98708 14.3253 -5.15803
1.35649 -22.1588 -7.35707
1.76542 19.715 -6.53938
1.44841 -10.318 -3.44351
39.5646 -20.2246 -14.5818
6.18254 -10.0691 -3.78211
17.6571 -12.4676 -6.9229
2.12675 20.7887 -6.65117
-13.1875 17.6056 -6.93599
1.44552 -22.6123 -7.06036
-4.25659 14.5662 -4.716
-10.814 16.3851 -5.95036
-2.71755 -27.6693 -8.44761
3.06901 -9.48394 -3.02943
0.791252 -24.1323 -7.26179
19.2341 -13.6523 -6.99876
17.687 5.59551 -5.44357
-7.78868 15.0772 -4.94073
4.23724 -10.5142 -3.29449
3.62937 -10.5932 -3.18694
4.25244 -10.9735 -3.30356
-13.1347 17.5563 -6.09968
-9.1636 15.6648 -4.93761
-13.1924 1.9776 -3.65778
-16.6904 19.176 -6.90359
26.5097 -17.4517 -8.59967
-3.85557 -27.4964 -7.44806
3.78875 -9.15933 -2.65205
-9.67065 16.0757 -4.99407
47.8137 -13.9606 -13.2079
10.566 -9.42376 -3.74766
-6.35702 14.718 -4.1885
-14.2251 17.835 -5.98712
-7.85313 -37.1609 -9.89481
4.96794 -9.59024 -2.79563
6.5743 -10.5214 -3.2007
-7.10588 15.0809 -4.23809
-10.4142 16.2204 -4.92573
-9.68623 -38.3873 -9.84706
-8.83604 -38.1476 -9.56349
10.978 -9.67755 -3.59856
-7.85637 15.2476 -4.15972
-11.5672 16.8129 -4.94069
14.6843 7.75678 -3.94214
4.05204 -9.26459 -2.39328
15.2899 7.57241 -4.02148
3.75194 -8.92085 -2.27501
-6.42019 -31.992 -7.5569
5.63691 -9.90286 -2.64105
45.2371 -10.9472 -10.8175
-12.6345 17.2101 -4.91499
14.9422 7.65245 -3.79853
44.2545 -9.57346 -10.2568
-9.65289 16.0791 -4.19815
3.72144 -9.27025 -2.17331
43.4065 -11.1354 -9.78033
15.2024 7.54194 -3.63449
-10.489 16.3734 -4.1655
-21.6158 -33.9823 -8.65306
4.83057 -9.77044 -2.35142
45.5401 -10.6631 -10.0069
-14.5833 18.0683 -4.8857
-31.8878 -23.536 -8.40104
42.1221 -14.0938 -9.39656
14.9279 7.88825 -3.52163
-34.9314 23.6224 -8.62339
-8.20124 -33.5464 -6.99468
3.96313 -11.5382 -2.45236
45.0566 -9.72131 -9.37492
11.8205 -9.78454 -3.07734
43.4298 -11.1802 -8.93636
-26.6175 20.0863 -6.6193
6.15912 -10.3089 -2.39087
46.4517 -10.8626 -9.31711
-12.6153 17.2128 -4.12463
-26.485 20.756 -6.53912
16.1579 12.2221 -3.87289
-6.77634 14.9165 -3.14542
-32.7737 -23.7055 -7.74249
-31.2955 -24.5065 -7.63925
-35.1565 23.4269 -7.95597
-33.2875 -21.9586 -7.53628
18.114 5.69495 -3.54441
-33.8166 -20.4039 -7.3762
-14.7168 -42.4304 -8.36751
3.77936 -9.84388 -1.98543
-23.8212 -59.3063 -11.8876
-16.4198 -44.2359 -8.63172
3.98332 -9.6546 -1.88387
13.1194 -10.2515 -3.00262
45.9181 -10.2181 -8.44954
-14.5407 18.0343 -4.13973
-26.6306 20.8867 -5.97568
15.1677 8.02911 -2.98954
-29.971 -26.1176 -6.92945
43.2906 -11.0888 -7.67228
-7.81863 15.0618 -2.87495
-9.59557 17.6717 -3.39728
45.1779 -10.635 -7.84813
-30.3103 22.0781 -6.31359
-29.9763 -23.0621 -6.32175
-20.5366 19.6364 -4.72762
-31.891 22.5223 -6.51373
16.001 -11.9388 -3.27151
-10.1901 16.178 -3.04206
-42.6801 25.1144 -7.85711
-31.3276 -23.5345 -6.27317
-33.146 -22.863 -6.34232
3.44061 -9.51559 -1.58244
-23.4617 20.0421 -4.76578
17.0057 -12.0221 -3.22591
-11.0195 16.4922 -3.0137
46.5965 -10.9205 -7.26385
-22.3174 -51.7192 -8.51232
-29.0874 21.815 -5.43691
-37.8214 23.5827 -6.61615
-31.3432 -24.3298 -5.91991
45.1735 -9.68046 -6.87879
-33.4101 -24.1625 -6.02496
-49.0845 27.4061 -8.0839
-35.1896 -23.4719 -6.08907
6.76387 -12.98 -2.12528
-35.8799 -20.8536 -5.87367
-6.82986 15.0581 -2.29645
-12.9396 17.4677 -3.02484
-31.7189 22.8363 -5.46345
-24.0169 -53.4868 -8.08564
-15.7568 -46.0631 -6.69614
37.0686 -12.3276 -5.35735
-22.8819 20.1077 -4.0535
-31.9676 -23.9401 -5.21448
-30.343 -24.8924 -5.18929
-33.5817 -23.1278 -5.22344
7.46599 -9.45653 -1.55797
43.3467 -11.0958 -5.74115
-33.0511 22.4907 -5.08308
-29.564 -15.7756 -4.2718
6.05141 -7.83701 -1.26481
45.3289 -10.6542 -5.90319
-30.6645 22.5368 -4.74911
14.5761 -11.356 -2.27007
-29.6109 22.3022 -4.48477
-32.1582 22.733 -4.74199
-10.2142 16.2456 -2.21731
-31.236 -22.4654 -4.52704
-22.4457 -54.033 -6.8073
13.0479 -10.5531 -1.96445
36.1567 -11.9478 -4.40605
6.36383 -10.3779 -1.39926
11.2354 -9.73621 -1.67504
16.5365 -12.3122 -2.32316
-10.9207 16.3753 -2.17957
6.7914 -12.6538 -1.57371
11.646 -9.72566 -1.68031
43.184 -11.0738 -4.89427
-38.4727 23.9883 -4.86648
45.393 -10.6071 -5.01892
14.9916 -11.5118 -2.01087
-12.7893 17.2787 -2.20822
14.8518 7.86089 -1.67961
14.0719 -11.101 -1.7904
-13.8284 17.6861 -2.1777
6.43214 -12.3264 -1.3384
9.43303 -8.94763 -1.25668
17.1135 -12.5135 -2.06901
-28.6898 -13.7094 -2.99573
-14.7934 18.1154 -2.18045
-35.9215 -69.9817 -7.32277
-33.6718 -21.0699 -3.51743
16.226 -12.1587 -1.82454
38.9141 -12.9481 -3.67033
11.1548 -9.91575 -1.23339
43.6022 -11.1442 -3.75324
-15.9035 -41.3853 -3.56155
-38.6654 -75.605 -6.61538
17.7231 -12.9148 -1.73183
-29.8016 22.5549 -2.85916
7.46834 -9.1998 -0.91724
-32.4331 22.9585 -2.95229
-16.2976 -40.3176 -3.25039
-35.7525 -67.2774 -5.41862
-34.6111 -69.3205 -5.30814
12.6262 -10.5077 -1.10566
17.1675 -12.5038 -1.43565
-38.9097 24.2226 -2.99733
43.8647 -11.2305 -2.97193
-28.4928 -13.398 -1.88585
-39.0414 -75.4266 -5.14386
14.5805 -11.3669 -1.11394
31.4826 -20.7393 -2.05989
31.4425 -19.817 -2.03124
15.4281 7.61962 -0.893034
14.864 7.8818 -0.865295
-12.7108 17.3458 -1.09147
-24.1322 -53.2529 -3.00411
-13.2638 -36.1019 -1.90666
-26.9697 -15.5762 -1.47835
-40.8957 -77.0748 -4.26119
9.68706 -9.12337 -0.665586
13.5121 -10.7455 -0.847909
16.0689 10.2223 -0.900024
16.3761 11.4782 -0.93142
6.8654 -12.5919 -0.681992
-19.9602 -5.88959 -0.893784
-29.2924 -52.2021 -2.64127
10.2895 -13.8915 -0.706525
18.164 -13.099 -0.915129
43.0658 -11.0007 -1.76852
-9.36274 -12.3833 -0.598999
44.625 -10.4497 -1.80191
22.4811 27.0271 -1.19971
-32.3504 22.1146 -1.35871
-36.193 -20.2955 -1.35108
-17.8858 -44.5756 -1.54335
16.5737 -12.3649 -0.674602
14.4476 3.91338 -0.441602
-25.2562 -58.036 -1.89797
-22.5675 20.103 -0.863831
-12.1317 -36.7865 -1.04167
43.4843 -9.23744 -1.2428
-41.4827 25.8026 -1.32143
-53.7777 19.3378 -1.36985
44.1902 -10.2615 -0.975453
-30.6561 23.1683 -0.768596
-30.2364 9.61745 -0.663888
32.2778 56.5135 -1.19717
-29.9459 22.1011 -0.713379
13.028 -10.6749 -0.291784
-34.3808 -21.396 -0.627901
-29.8646 -60.061 -0.998323
17.5905 -12.6859 -0.314991
-12.394 -37.4701 -0.509293
-14.103 17.903 -0.232675
-19.7221 -45.3256 -0.537154
30.5487 -19.1337 -0.324795
-22.5602 20.1288 -0.205612
-9.89531 -12.7003 -0.0487353
7.0481 -11.7571 -0.0236792
14.6888 7.68145 0.000402135
-35.3743 -21.8434 0.221405
-23.559 -40.2657 0.343907
-52.7962 28.9222 0.614757
6.7179 -11.9195 0.141777
8.02807 -9.12791 0.121522
-40.8559 -21.7211 0.508479
-11.3321 -32.0916 0.379727
11.1388 -9.70986 0.193805
-22.9482 19.6082 0.396942
-12.3321 -19.1338 0.330951
-30.9382 22.0155 0.676046
-35.0271 -23.4827 0.754645
-34.5248 -25.505 0.74894
10.6694 -9.58828 0.234144
7.81137 -9.62876 0.266482
7.91643 -9.23993 0.26259
-70.1659 24.2969 1.73509
18.2046 -13.2149 0.547934
-28.6244 -8.5995 0.799785
-27.7604 21.7697 1.01593
11.6241 -9.95908 0.417601
17.3359 -7.51465 0.538155
-24.8135 21.0449 0.968497
-7.90109 -9.26523 0.3875
12.7786 13.8934 0.671247
6.17073 -12.7144 0.497301
8.93138 -8.78873 0.42825
24.6565 -4.36925 0.83771
18.6536 17.8139 0.931359
13.9938 24.2249 1.05202
-56.3622 18.5261 2.13547
24.4625 -4.75206 0.944304
-25.2865 20.6562 1.23405
9.4029 -8.94525 0.501831
22.4674 -3.09538 0.857011
12.2813 14.2244 0.769312
14.8773 19.2231 0.99544
6.5441 -12.4077 0.575861
18.2498 42.1813 1.91889
7.67209 -11.0557 0.567358
-7.55225 -7.43421 0.46818
-8.2734 -11.4464 0.631091
-29.489 -11.6737 1.51045
16.4502 10.6791 0.977518
-7.72873 -7.19119 0.505545
15.42 23.9566 1.47224
-6.95637 -8.18907 0.590656
14.6477 20.058 1.3612
-25.9298 19.9667 1.80937
14.5382 23.6767 1.60902
-7.12687 -9.18703 0.664438
6.84902 -13.5728 0.872714
9.94343 12.5075 0.94584
14.7997 19.6632 1.54315
15.1559 26.9737 1.90534
10.4715 29.367 1.98329
-7.30538 -9.97091 0.790774
9.57817 21.828 1.60026
11.4549 10.0762 1.08755
11.4942 12.1548 1.18109
13.7624 15.9027 1.50525
8.21516 -12.6636 1.06568
10.7876 9.00499 1.03405
12.9409 14.5146 1.45526
-14.3392 8.45608 1.25861
-11.1219 2.09522 0.856018
12.4867 16.2542 1.59095
11.6403 18.5513 1.70108
10.1061 -6.91615 0.956303
-7.67515 -8.11917 0.893801
12.7841 11.5724 1.40676
11.8836 11.6257 1.38023
-7.0123 -6.16974 0.758932
