ply
format ascii 1.0 
element vertex 1873
comment /media/mkaihara/Seagate Backup Plus Drive/model_iterations/model_30.ply
property float32 x 
property float32 y 
property float32 z 
end_header 
-7.04564 -2.01619 1.19392
-7.0674 -1.93986 1.20218
7.02764 4.86989 1.41426
3.87929 8.05964 1.48164
6.07011 -3.32852 1.15328
6.69296 4.91693 1.38496
4.723 7.25953 1.44522
3.84162 -5.30774 1.10127
7.16608 4.46248 1.42167
7.52716 2.87831 1.36208
6.38069 5.33415 1.40985
-7.25085 -1.25084 1.25251
6.80781 4.11608 1.36647
-6.43094 -2.76336 1.19395
5.52229 -3.6381 1.13606
5.70501 -3.52735 1.15168
2.80713 8.00142 1.46708
-7.34316 -1.03538 1.28516
5.34535 -3.79159 1.14246
-6.29198 -2.25284 1.15848
-6.25289 -2.40957 1.17295
4.28684 -4.67085 1.10871
4.50065 -4.48378 1.11447
4.59893 -4.45601 1.12348
-6.77781 -1.72662 1.23165
4.38642 6.58129 1.41146
-7.13209 -0.92472 1.28502
-6.12663 -2.25129 1.16224
6.69052 3.72045 1.37255
6.15108 4.3985 1.37191
3.61293 -5.33369 1.1716
5.20208 5.74552 1.41811
2.56058 7.32914 1.45953
6.52992 3.07339 1.36481
-1.70516 -5.77774 1.14013
6.44861 -1.39071 1.25178
6.31429 2.79621 1.3298
6.25628 2.39612 1.33686
-4.42333 3.91371 1.38719
4.3552 3.55921 1.34581
4.23816 3.31363 1.33234
4.67125 -1.67987 1.24671
4.82643 -1.3831 1.25622
-2.12206 4.75186 1.29793
3.72678 -2.95278 1.22256
3.67253 -2.54912 1.19371
3.4048 -2.96013 1.22543
4.02287 2.58157 1.33631
-2.59538 -3.53508 1.25072
-2.32749 -3.57236 1.21641
3.76849 2.06548 1.30706
3.74456 1.98728 1.30632
-2.82728 3.46578 1.37803
-2.29841 -2.42107 1.18754
1.94965 -2.77327 1.20995
-2.11595 2.75591 1.318
-2.02157 2.74428 1.32425
2.24596 -1.86583 1.22341
2.37615 -1.49577 1.22098
-2.01183 1.87219 1.2916
-2.06634 -1.44401 1.22841
1.44427 -2.06329 1.24222
-1.99413 -1.08844 1.21428
-1.9263 -0.708011 1.21954
-1.928 -0.703777 1.2451
-1.9566 -0.344472 1.22804
-1.89412 -0.564933 1.22932
-1.89369 -0.531123 1.23437
8.26945 -8.75109 -7.50908
12.2278 -10.3733 -8.87265
-8.58033 15.3116 -6.80705
21.0444 25.6305 -11.9192
-8.76008 -2.50875 -2.56761
-33.5375 -22.4032 -7.4511
-33.1723 -21.6937 -5.84871
-32.8979 -22.3568 -5.90728
-30.4511 -19.5293 -2.72056
9.36001 -8.91522 -0.394831
-7.37667 15.9007 -0.432753
-28.9047 -11.1851 0.713897
-6.87925 -8.22185 0.457884
17.2295 24.7409 1.63731
11.643 16.3746 1.66163
-6.66579 -6.63895 0.879588
4.33337 12.575 1.53336
8.84225 9.21058 1.49349
8.01886 -8.81403 -10.4382
8.88693 -8.59184 -10.561
6.99568 -12 -11.5737
6.91038 -11.4096 -10.9519
8.20066 -8.31283 -9.58767
7.05874 -12.0881 -11.3812
7.10631 -11.0327 -10.5123
8.05021 -8.42723 -9.25769
6.76582 -11.3458 -10.3437
6.4812 -11.7588 -10.2661
7.80403 -8.90284 -9.02448
6.24016 -14.3893 -11.8671
8.35184 -8.75592 -9.1582
6.33492 -11.9715 -10.2278
6.17967 -12.1471 -10.1613
7.53911 -9.50447 -9.05669
7.95727 -9.10964 -8.97907
10.5535 -9.52683 -10.5727
6.14933 -14.1741 -11.4187
6.12609 -13.7169 -11.044
6.16413 -12.6394 -10.3415
9.26157 -8.88756 -9.41521
9.35027 -9.1361 -9.53344
5.89658 -12.5679 -10.0833
9.42651 -9.05204 -9.32586
6.90635 -11.196 -9.3344
5.64512 -13.0325 -10.0507
9.76571 -9.14959 -9.48267
7.65667 -9.40146 -8.52372
10.0747 -9.25721 -9.61082
11.0049 -9.56866 -10.2315
11.5408 -9.78263 -10.159
8.43952 -8.6635 -8.00657
7.4795 -9.35862 -7.91467
8.22324 -8.77728 -7.94901
7.67868 -9.41295 -7.94642
7.88904 -9.46347 -7.89534
8.37652 -8.5921 -7.67001
0.350999 15.85 -10.1162
7.57819 -9.38565 -7.67562
11.0035 -9.68815 -9.32024
7.27867 -10.7783 -8.23002
8.20983 -8.5537 -7.4762
4.63094 -15.454 -10.145
8.76941 -8.75546 -7.66626
7.97403 -9.09155 -7.4584
4.06195 -18.0585 -11.4005
8.25234 -8.68427 -7.32299
4.09336 -17.3193 -10.8585
0.137546 14.8523 -9.03804
6.70154 -11.3397 -8.01801
7.79311 -9.32741 -7.37389
10.2134 -9.3928 -8.41836
6.8681 -11.3272 -7.95102
8.11627 -9.2672 -7.39361
11.3707 -9.78377 -8.96719
5.43265 -13.9317 -8.86719
7.78731 -9.32788 -7.20517
9.42113 -9.10055 -7.76073
6.95171 -11.1927 -7.79677
8.03801 -9.18954 -7.16291
9.83119 -9.26079 -7.87008
15.0202 7.50616 -9.75507
8.73199 -8.89642 -7.20215
6.98124 -11.0388 -7.50515
2.65228 -11.2569 -6.65025
7.91398 -9.13324 -6.9205
9.68277 -9.21352 -7.59137
10.8842 -9.57499 -8.17667
0.12274 15.2943 -8.62736
3.27562 -20.5371 -11.6953
6.84602 -11.0524 -7.28726
10.19 -9.36775 -7.75047
12.4681 -10.4613 -9.12566
9.31081 -9.07553 -7.26451
4.64405 -14.3717 -8.41861
8.06284 -9.28355 -6.82805
14.944 7.64087 -9.21759
9.77559 -9.1799 -7.36391
0.828431 17.4757 -9.55548
2.73507 -19.7688 -10.8824
11.2291 -9.73013 -8.06622
4.26511 -14.5206 -8.19035
14.8559 7.76972 -9.03336
15.2754 10.5479 -9.97065
14.1813 7.82431 -8.6573
11.0484 -9.70317 -7.81826
13.4096 -10.9195 -9.19757
3.0367 -19.2527 -10.2466
11.4604 -9.91491 -7.70965
2.16513 -20.2963 -10.3024
10.3525 -9.42502 -7.03896
14.4285 -11.4115 -9.23472
13.9669 -11.2964 -8.99117
11.1111 -9.74525 -7.36198
7.56235 -9.40392 -5.97509
3.57674 -8.49896 -4.54373
-8.65592 -1.90051 -4.35668
2.21444 -20.0305 -9.88494
4.5482 -9.33018 -5.07584
0.396497 13.6623 -6.69209
7.66152 -9.33477 -5.892
-8.33681 15.9006 -8.69102
-9.15054 -2.41902 -4.56016
15.1802 -11.7222 -9.21518
19.6298 5.61671 -9.76637
-10.2493 -2.53757 -4.99388
1.90698 -20.4685 -9.77517
17.511 16.4582 -11.3866
7.64378 -11.2988 -6.43546
20.2982 5.47902 -9.9032
14.1827 -11.228 -8.41054
2.94626 -17.4087 -8.20839
19.6112 5.80271 -9.45037
18.0987 -13.189 -10.3424
9.91463 -2.50439 -4.72559
20.5581 5.21084 -9.78701
17.6431 16.5934 -11.1655
1.80426 -20.0996 -9.23628
9.74618 -9.11301 -6.10907
-9.16007 -1.66265 -4.24539
9.4981 -3.48527 -4.60846
6.76859 -11.4085 -6.03229
9.96257 -2.63155 -4.67452
19.5037 5.94745 -9.18189
18.0621 17.9184 -11.4425
9.41282 -3.1008 -4.46146
15.6322 -12.0285 -8.84984
7.09664 -11.6579 -6.10311
7.20507 -10.9972 -5.859
9.60557 -3.42133 -4.54447
-9.819 16.0864 -8.38662
17.9077 -13.0687 -9.84946
19.7951 5.70261 -9.13268
16.3027 7.39504 -7.92976
18.1777 18.3633 -11.4324
16.6439 -12.3778 -9.14016
-11.0061 16.7312 -8.79809
-6.44312 14.7137 -7.03857
-5.19359 4.87028 -3.10048
20.4076 5.54116 -9.1954
9.60446 -3.42159 -4.40065
18.5922 18.847 -11.3838
16.0282 -12.3339 -8.70103
15.0376 7.51922 -7.17794
3.85793 -9.34699 -4.29545
-10.9392 16.632 -8.42349
6.99768 -10.9886 -5.4921
-13.4465 3.29527 -5.83193
0.741908 -22.1731 -9.3502
15.9995 -12.1134 -8.39101
-5.11711 5.63339 -3.18223
0.994376 -22.0274 -9.24417
1.23211 -20.6954 -8.68536
14.3344 7.68856 -6.80613
18.9487 19.7499 -11.4409
3.79988 -8.99359 -4.07087
14.9499 7.82375 -7.02622
18.2948 19.5422 -11.1142
-9.45801 -1.08552 -3.92948
4.02041 -8.5286 -3.86269
14.2011 7.84203 -6.66217
6.89738 -11.0711 -5.3316
-13.4914 2.52017 -5.61375
-7.81016 15.123 -6.91258
19.7047 21.4144 -11.795
15.2567 7.33125 -6.82244
-5.18901 14.157 -6.04174
14.1183 -11.1615 -7.04787
1.53818 19.4316 -7.57426
-8.57056 15.4726 -6.86948
19.2453 5.86934 -7.79781
-1.74109 13.1377 -5.13139
5.32768 -9.44954 -4.18269
-2.36212 13.3342 -5.19918
20.0801 23.2323 -11.7804
4.68181 -8.55328 -3.70258
19.6822 5.64659 -7.79358
0.8653 -25.9812 -9.88169
15.0944 -11.6315 -7.17012
20.2536 5.48726 -7.85545
9.48878 -3.45717 -3.77617
0.52767 -22.2182 -8.28486
3.2738 -10.8746 -4.24153
20.713 24.1015 -11.8074
0.907791 -8.69439 -3.24228
14.1919 -11.2388 -6.67409
20.6717 5.25774 -7.84428
18.2591 18.0442 -9.38567
-12.9181 2.26311 -4.76748
21.4145 25.5764 -12.1045
2.302 -13.3309 -4.87257
13.1772 -10.6559 -6.09701
0.792493 15.5172 -5.56181
-8.1626 -2.78552 -3.0848
0.407973 -21.4771 -7.68078
-4.14432 13.5847 -5.04838
0.634848 -21.6317 -7.69195
16.0717 -12.138 -7.13703
-15.3691 17.7657 -8.27534
5.9674 -11.4101 -4.52651
-10.7853 16.2721 -6.8148
0.0961673 -18.2445 -6.41508
14.4332 -11.4381 -6.43823
20.6269 5.43245 -7.44692
0.652985 -22.6914 -7.8414
-4.91718 14.261 -5.16484
3.65626 -8.48647 -3.18033
4.90272 -9.08038 -3.53563
-14.1704 17.5903 -7.72823
2.28395 -10.9209 -3.82297
-8.6945 15.7668 -6.13379
3.062 -13.8433 -4.83193
-14.6344 17.9594 -7.8504
20.443 5.55832 -7.12242
22.7429 28.1379 -12.0984
37.1265 -20.9573 -14.2439
-5.1998 13.7814 -4.88836
1.93093 21.0204 -7.00835
1.26827 -10.2427 -3.41253
33.3585 -20.97 -12.9548
-5.15049 14.1701 -4.89345
-12.3034 16.8408 -6.7625
18.8689 -13.4457 -7.52247
3.57121 -8.69831 -3.01444
6.26467 -10.1846 -3.83116
2.3192 -11.0265 -3.58537
-4.3913 -33.0332 -10.5957
-1.10631 -23.2815 -7.42195
15.2427 10.4984 -5.84383
-12.9087 17.1747 -6.78784
-17.5396 18.9166 -8.10629
3.02136 -9.74259 -3.21732
7.0257 -11.1954 -4.08524
1.37412 -21.635 -6.70721
-2.49482 -26.6265 -8.21216
7.39408 34.1948 -10.6835
0.767813 15.1096 -4.59762
-10.8753 16.4061 -5.92939
-2.61163 -25.686 -7.77887
-14.0045 17.5081 -6.68672
-5.11471 -33.5803 -10.1173
0.825816 -24.5051 -7.33339
-5.27229 14.4902 -4.58311
2.1016 20.9941 -6.22044
-20.7275 19.3257 -8.35846
18.4541 5.87265 -5.70201
-4.21042 14.1257 -4.33066
-7.74782 15.0262 -4.95669
4.28262 -9.19973 -2.98191
4.6767 -11.7149 -3.6872
-12.5054 2.203 -3.64912
-31.4066 -44.4899 -15.674
-14.8306 17.8395 -6.66627
7.02945 -11.195 -3.80453
2.57515 -9.58436 -2.81931
13.0764 -10.5841 -4.78668
-8.41014 -2.44761 -2.4836
21.7289 28.0274 -10.0536
-8.53597 -2.24976 -2.49437
-2.45836 -25.1242 -7.08819
-12.9068 1.97781 -3.63594
4.43042 -11.4366 -3.40297
-9.08798 15.6257 -4.9596
-12.7441 16.9948 -5.8318
-5.26689 14.0477 -4.09714
-8.09974 -39.3618 -10.9998
-20.8959 19.499 -7.68113
-9.49757 15.746 -4.92503
-25.9615 19.9427 -8.70726
11.6124 11.6886 -4.35046
4.37057 -11.4068 -3.23492
48.6827 -14.152 -13.4286
-7.77051 -36.687 -9.86182
4.11814 -8.71763 -2.53803
11.2842 -10.0366 -3.94991
-14.0867 17.6364 -5.86666
6.58899 -10.5064 -3.20913
3.19905 -9.7073 -2.64161
-28.717 -42.0601 -13.154
-4.17094 -27.3755 -7.16885
3.57097 -10.4571 -2.84836
4.0979 -9.45452 -2.64781
15.8279 -11.9014 -5.05171
-6.96823 14.8407 -4.14658
-30.1628 -40.2266 -12.7526
4.354 -11.2508 -3.05224
4.2804 -7.75038 -2.25293
6.59952 -10.7642 -3.14795
46.2412 -13.9807 -12.0426
-27.4264 20.6918 -8.4922
-11.2408 16.5127 -4.92187
-26.4766 -38.6254 -11.5165
-9.39424 -36.9878 -9.41771
-23.7862 19.9781 -7.63174
4.38482 -10.4127 -2.77511
-11.7599 16.8428 -4.97823
-7.64898 14.8995 -4.03394
10.3676 -9.35144 -3.34251
41.4345 -13.7634 -10.4462
15.3125 7.65822 -4.07771
-6.00075 -34.3885 -8.31973
3.98998 -9.14199 -2.36302
48.5359 -12.9902 -11.9232
-11.4511 -42.1745 -10.3572
4.2389 -9.06985 -2.38757
3.91142 -11.2171 -2.79836
4.94265 -8.75366 -2.36437
-12.4519 16.9676 -4.89572
11.1155 -9.74083 -3.37737
-5.93603 -30.1178 -7.00751
-26.3544 20.3545 -7.5469
42.7001 -9.33847 -9.9181
-29.5336 21.4427 -8.18133
-34.444 -22.572 -9.22814
-5.19452 -24.7422 -5.64018
41.8814 -12.9468 -9.84111
5.49685 -9.54709 -2.459
-12.2937 2.80516 -2.76664
41.7564 -12.2368 -9.61247
43.8297 -12.5058 -10.0263
28.7507 40.4952 -10.8847
-5.2282 13.711 -3.20535
13.5572 -10.9093 -3.82949
39.0698 -12.5557 -9.02037
-22.7172 19.799 -6.53499
-26.9134 -66.3579 -15.5438
4.34659 -9.7823 -2.32058
4.57519 -9.25281 -2.22893
-14.1885 17.6765 -4.83867
-29.9312 21.7414 -7.89806
-30.7657 21.8333 -8.06316
-25.4864 -67.6242 -15.4966
-10.4015 16.2515 -4.08908
-8.02938 -34.0951 -7.45207
3.21951 -9.77237 -2.19325
4.00474 -9.92399 -2.28092
47.2209 -10.9484 -10.3461
15.1425 7.58491 -3.59218
-14.7415 18.1459 -4.94796
5.20238 -9.12181 -2.20568
27.8805 40.3432 -10.2549
-26.898 -26.3229 -7.81552
15.1888 7.94929 -3.56096
-29.3678 -22.6808 -7.69837
-29.4703 -75.568 -16.799
41.6334 -11.2043 -8.91539
-11.1375 16.4087 -4.02793
-15.195 17.9649 -4.78837
-33.9372 22.7812 -8.30467
45.763 -9.98209 -9.5506
-12.4734 -40.1397 -8.54668
4.17295 -9.82079 -2.17027
4.29977 -9.79145 -2.17913
11.7261 -9.7476 -3.10188
-11.6686 16.7441 -4.07205
-18.4326 -52.9065 -11.2014
-12.2995 -38.2128 -7.95084
4.10693 -10.0108 -2.14165
-33.176 -22.6854 -7.9236
-25.9165 20.3402 -6.48299
-32.2411 -23.0626 -7.7279
-6.68369 14.7654 -3.14336
-24.5682 -57.7309 -12.1908
-32.6639 -21.7454 -7.56245
3.46676 -9.44575 -1.94225
47.296 -10.9582 -9.32136
-12.3916 16.9178 -4.00708
4.0241 -9.42631 -1.95531
-35.4319 -21.5224 -7.84821
-20.4886 -33.2836 -7.4347
-14.6568 -42.2935 -8.47276
38.9122 -12.8363 -7.74467
-34.64 23.2654 -7.80836
-32.7719 -22.633 -7.48262
-31.753 -23.2317 -7.3862
-19.916 -49.3428 -10.0156
-15.8961 -43.1811 -8.5384
3.84747 -9.27148 -1.85362
43.8251 -11.8117 -8.42742
5.80785 -9.79719 -2.08675
-22.8569 -51.8301 -10.3742
-19.1827 -47.6164 -9.2879
-14.1411 17.627 -4.00555
-30.2413 -24.3903 -6.9066
-19.7462 -26.3127 -5.88391
-37.8621 23.8916 -7.89843
-25.919 20.3514 -5.73492
-32.8788 22.4988 -6.91658
3.9481 -10.148 -1.88745
4.80594 -8.67398 -1.72293
14.1838 7.61729 -2.77833
14.2664 8.18686 -2.81873
-29.7884 21.6617 -6.31345
43.4952 -12.3058 -7.69444
43.2615 -11.2044 -7.60643
-30.3991 -24.1426 -6.58593
-20.43 19.4569 -4.73663
-19.0877 -47.4463 -8.64401
15.0554 7.54594 -2.82585
-30.6249 21.6807 -6.26714
-21.9398 -52.3108 -9.37606
44.9018 -12.0963 -7.55735
-10.0435 15.9439 -3.03922
-19.3337 -47.9657 -8.25065
-33.8983 -23.4002 -6.49127
-22.0894 19.4075 -4.60359
-24.5775 -15.4079 -4.5814
-23.4251 19.9972 -4.77288
-38.5553 23.3441 -6.98396
-10.8881 16.2955 -3.0241
3.50719 -9.62464 -1.58365
3.91346 -10.348 -1.71227
-7.36266 14.9321 -2.54096
-29.9979 21.8334 -5.6711
-30.8868 -23.8561 -5.93506
-27.1768 -25.4209 -5.63807
43.4679 -11.3004 -6.82579
46.261 -10.0788 -7.21224
-6.32046 14.0759 -2.30668
9.89222 -5.18522 -1.65777
-32.5547 -23.4802 -5.97794
-24.272 -61.376 -9.7915
10.291 -9.25276 -2.062
46.4208 -10.739 -7.07492
-35.5748 -23.6817 -6.29012
-30.6138 -25.2515 -5.80562
-11.9311 -39.5359 -6.07858
17.1799 -12.4296 -3.10532
-24.5847 20.2414 -4.62743
-23.0518 -51.652 -8.15269
-7.36536 14.7508 -2.35582
-12.3329 16.8149 -2.972
6.11278 -11.678 -1.88273
-13.0028 17.3793 -3.04786
-33.4418 22.5909 -5.67359
6.83788 -11.1691 -1.82976
38.6292 -12.7485 -5.72029
-30.2911 -24.2723 -5.41775
-31.8071 22.8584 -5.42582
-19.3141 -46.5517 -6.96293
46.5808 -10.4208 -6.58097
-6.62467 14.6492 -2.19523
-20.8972 -54.5407 -7.93667
7.81831 -9.46143 -1.64679
9.26825 -9.12399 -1.79363
-13.584 17.3445 -2.96899
13.3822 -10.6735 -2.31561
-21.5364 19.5901 -3.91438
43.3953 -11.2201 -5.94968
46.2857 -10.1386 -6.27077
-21.9188 19.2888 -3.8176
-31.7773 -23.7784 -5.18442
-14.4466 17.6904 -2.95241
-32.8225 21.9075 -5.12315
-37.3308 -15.7625 -5.23245
7.09027 -10.5446 -1.62983
10.9166 8.93808 -1.81322
-32.874 -22.6545 -5.10951
-30.3323 22.1435 -4.75047
-34.5965 -21.5885 -5.11176
43.2409 -11.1829 -5.58847
6.86754 -10.4767 -1.56481
-7.39252 14.7856 -2.04538
-24.2139 20.3321 -3.87142
-32.1853 22.6834 -4.85706
6.3815 -12.2384 -1.6807
46.2327 -9.8638 -5.78943
15.2091 7.9683 -2.06565
-16.9825 -41.1319 -5.36712
7.16209 -10.6443 -1.54425
-20.1598 8.93468 -2.61018
-13.4639 -40.7299 -5.04548
-30.9708 -23.8779 -4.57306
-30.4654 -24.3645 -4.56524
43.3397 -11.6096 -5.27248
11.3498 -9.77423 -1.73497
-28.8456 21.8722 -4.16487
6.71668 -10.9437 -1.46949
7.5516 -9.29728 -1.36981
11.7093 -9.82969 -1.73608
9.50426 -4.63663 -1.19766
15.1851 7.80332 -1.92536
-10.0192 15.9503 -2.1249
-31.025 22.6704 -4.30477
40.0145 -13.1725 -4.72326
9.44128 -9.10459 -1.45081
-10.7212 16.0794 -2.10017
6.89701 -12.9844 -1.59184
46.3855 -10.0813 -5.1452
10.9182 8.9724 -1.52455
17.0387 -12.6568 -2.27739
43.5479 -11.2946 -4.81981
9.70698 -9.06081 -1.40657
8.44541 -8.5312 -1.25738
-30.0547 -24.0506 -4.00844
-27.9923 -56.1474 -6.54577
15.1806 7.61337 -1.73629
-30.9174 -23.8392 -4.0059
-12.4567 16.9811 -2.13793
-12.3881 16.5972 -2.05818
10.3045 -9.17434 -1.35134
-19.4096 -49.294 -5.19473
6.41207 -12.2794 -1.34011
9.57512 -9.04016 -1.24532
16.9017 -12.3656 -2.01246
43.4375 -11.6724 -4.3106
-28.4226 -57.4533 -6.094
-19.307 -50.6683 -5.15034
-22.5775 19.7484 -2.80431
47.1444 -10.4879 -4.5103
9.80585 -9.0697 -1.23626
40.899 -13.4917 -4.01224
-14.5528 17.8395 -2.08477
-29.085 -13.2606 -2.91403
-29.9129 -58.3133 -6.04142
16.0942 -12.0463 -1.82823
8.70875 -8.80052 -1.12097
-35.2907 -20.0153 -3.55433
13.0507 -10.7727 -1.47323
46.716 -10.8281 -4.10725
9.48737 -9.11008 -1.10545
11.0656 -9.74465 -1.23909
-32.9033 22.5966 -3.32217
17.1067 -12.4748 -1.75309
-15.9409 -41.4816 -3.55976
14.8883 -11.6417 -1.50666
-39.4519 -77.0947 -6.87857
-11.2196 -31.4103 -2.63297
-28.7768 21.8809 -2.79627
-31.8878 22.5398 -3.01524
-21.236 -48.5091 -4.08828
7.6674 -9.38229 -0.966947
-48.7732 26.5449 -4.20594
-20.715 19.4962 -2.06971
-32.1033 22.708 -2.85058
16.6354 -12.43 -1.51864
43.4741 -11.6339 -3.27802
-35.8853 -67.8988 -5.54205
14.1622 -11.2052 -1.29204
-14.6976 -38.9892 -2.87596
10.878 -9.7148 -0.999007
-22.5976 19.7866 -2.02912
13.0296 -10.7515 -1.1305
18.2572 -13.2418 -1.50306
-21.7611 -50.1368 -3.61231
16.2894 -12.3212 -1.34843
-13.8517 -38.4054 -2.64098
45.3488 -11.7944 -2.92821
-29.3731 -59.515 -4.04953
36.7787 -8.92268 -2.3222
44.4397 -10.1717 -2.7982
6.16267 -13.3214 -0.876762
31.8472 -21.0734 -2.28398
-9.50355 15.865 -1.08718
-14.7313 -38.4282 -2.34319
16.8743 -12.611 -1.18237
-9.57701 -12.415 -0.859314
15.1761 7.78597 -0.92318
14.0862 -11.1508 -0.961722
-12.3831 16.7812 -1.08968
-15.5952 -38.6541 -2.2133
15.0701 7.92437 -0.835433
-15.4032 -39.373 -2.07401
-13.7051 17.3716 -1.05862
9.65365 -9.10599 -0.608542
-22.3009 -51.1558 -2.52436
12.5996 -10.358 -0.755938
-15.0126 -41.8492 -1.97335
-16.2584 -40.0574 -1.8502
6.97084 -12.872 -0.649067
-13.0703 -39.8432 -1.78561
-50.0618 27.2258 -2.31007
18.6597 -13.4058 -0.932007
17.0738 -12.691 -0.828131
-37.4753 -72.736 -3.08515
-17.047 -44.7031 -1.76116
-32.4109 22.2696 -1.43945
43.9719 -11.33 -1.6345
-31.6038 -62.8654 -2.35254
-24.0262 -52.6535 -1.94741
20.8322 24.0938 -1.05952
-20.7575 19.452 -0.927797
8.27635 -14.6075 -0.563468
9.50789 -9.07679 -0.425995
11.4242 -10.0574 -0.494579
18.9204 -13.3783 -0.761145
35.7864 -13.4975 -1.26867
22.7969 27.5958 -1.14989
-26.8526 -13.469 -0.94173
-22.1645 19.7379 -0.905476
-30.5744 21.6547 -1.17045
-23.1302 -53.177 -1.79471
-13.0749 -36.9896 -1.20764
-19.9535 -50.8999 -1.65408
-15.5867 -42.2432 -1.28898
-33.1329 -20.0892 -1.03191
11.5736 -9.81839 -0.406432
16.5932 -12.3419 -0.544836
-39.3618 24.351 -1.22207
-29.1994 22.2183 -0.908966
-29.7165 21.7788 -0.872239
9.65611 -9.09015 -0.307124
-40.0109 13.829 -0.936858
-29.5667 -49.5105 -1.29745
21.6921 -14.5079 -0.573177
31.3712 -19.0228 -0.827288
14.3826 3.97479 -0.304903
29.4565 51.4758 -1.09377
23.985 -11.1664 -0.465631
48.8257 -11.2432 -0.931396
-29.8586 -21.4574 -0.670228
-28.6677 -28.1573 -0.636604
-17.8368 -43.7676 -0.785686
12.876 -10.5884 -0.274105
18.8534 -13.6235 -0.355121
-28.6849 -12.7496 -0.412194
-31.9058 -23.8774 -0.554107
-30.6197 -61.7267 -0.92813
-25.6941 -54.6855 -0.826087
-32.9933 -22.5326 -0.521331
-29.2147 22.2266 -0.433533
17.2777 -12.9027 -0.255744
30.1236 -18.6782 -0.416423
-29.6827 21.7915 -0.411357
-36.8951 -20.6155 -0.475614
-18.0327 -41.3572 -0.481344
-11.4196 -34.373 -0.363617
-31.131 -54.8525 -0.579195
-13.866 17.589 -0.172863
-26.2104 -13.2145 -0.237028
-14.5365 17.7203 -0.157727
-21.8501 19.5143 -0.152004
-20.3433 19.0816 -0.128088
-10.4299 -13.4085 -0.059496
14.9362 7.84642 -0.0210191
11.2286 -9.87375 -0.007763
-33.6246 -18.4169 0.058676
-10.8082 -32.1222 0.111677
17.2317 -12.5195 0.0927023
-17.7839 -40.8286 0.199658
19.1154 -13.4683 0.12451
7.28681 -12.5261 0.10584
26.5354 -10.887 0.176743
-53.0089 18.9281 0.535008
16.5035 -12.2309 0.196357
38.4855 -7.85746 0.371
-28.5426 -8.04827 0.346626
-35.276 -21.2918 0.454794
-10.8316 -31.034 0.35398
-51.7678 28.372 0.719795
-12.1145 -33.5702 0.426469
-9.83462 -30.23 0.382848
6.4465 -13.177 0.187296
7.30355 -11.2518 0.17643
-27.2255 21.3714 0.528391
11.4381 -9.98944 0.228403
-23.3472 19.9663 0.505581
11.0174 -9.8373 0.231898
13.1371 -10.815 0.268226
37.3815 -8.00036 0.636357
-33.5994 -22.511 0.736136
-30.1496 21.5574 0.726105
6.25537 -13.0698 0.28114
7.10895 -11.1876 0.255391
8.10056 -9.50555 0.243908
30.1456 61.9875 1.49656
7.80053 -9.53123 0.278466
10.2282 -9.26421 0.332975
-28.2832 -9.06919 0.71525
-22.579 19.7083 0.809312
-26.659 21.0209 0.909498
-28.4111 -8.53078 0.781464
9.27242 -8.97558 0.348628
9.71334 -9.02789 0.361498
-24.7415 20.8526 0.877516
25.8225 -5.22399 0.733638
13.1468 -10.7852 0.506654
15.3761 25.049 0.90572
6.30021 -12.9972 0.454415
7.55746 -11.781 0.439216
-27.9585 -7.8851 0.952864
-12.3747 -18.9471 0.746232
-27.6498 -8.64184 1.00138
16.3906 11.2186 0.717311
-29.1615 -18.0702 1.19946
16.4479 28.572 1.17546
-29.7842 -16.2463 1.25746
23.9131 -4.31816 0.878005
-27.2158 -19.3563 1.23798
-7.25527 -7.9107 0.405037
9.13133 -8.90447 0.474095
12.679 13.8696 0.723923
28.372 58.5303 2.46155
27.1673 57.8424 2.40461
-11.4602 -9.07117 0.576297
8.79708 -8.74236 0.490601
-24.8422 20.4643 1.30483
22.1552 -3.00268 0.905804
-28.189 -17.122 1.35145
9.49971 -9.00765 0.536752
12.7199 14.6497 0.834096
6.68258 -12.6555 0.607599
15.2769 19.8501 1.10048
21.6387 29.889 1.61512
-9.38258 -13.6424 0.728118
-9.83967 -15.3889 0.81131
7.6871 -11.0793 0.594062
8.6969 -8.78714 0.55867
24.5819 -3.76579 1.1229
-29.3107 -8.54152 1.39331
6.82555 -11.2211 0.6042
-8.22371 -8.09306 0.542974
22.834 46.0709 2.45888
-27.957 -17.2784 1.55388
-9.65422 -13.5419 0.791915
9.74921 -9.04563 0.626372
16.7832 46.6405 2.39843
-29.6523 -13.1338 1.54797
-6.72591 -8.19983 0.521852
15.425 35.8716 1.99164
-29.1759 -11.4252 1.57239
-7.55564 -6.94763 0.518739
-6.66757 -7.55839 0.509821
16.8647 30.5505 1.8112
10.7316 12.5488 0.891867
14.6169 19.8913 1.32476
9.42853 -9.00533 0.69854
15.2153 19.7972 1.37809
15.8069 24.4137 1.60084
-26.7025 18.8015 1.78817
-6.93514 -8.15023 0.593454
-25.6381 19.6723 1.79476
6.20189 -13.0949 0.810399
-7.0614 -9.10026 0.656947
10.1326 12.6563 0.953066
15.4679 26.0617 1.76996
6.57451 -13.2045 0.848641
14.2999 23.3301 1.61575
-8.21089 -8.07094 0.693684
11.7171 11.7981 0.991161
15.0673 20.0398 1.50586
-7.34433 -9.94208 0.768877
7.09375 -11.3045 0.813174
11.3784 -9.81457 0.910942
5.93611 -10.882 0.768994
-7.16378 -6.62152 0.609471
14.89 21.1227 1.6347
16.3473 7.25637 1.16101
-7.00896 -6.12374 0.610574
6.57988 -13.689 1.01186
9.74049 22.0024 1.62295
10.5951 12.7706 1.13404
13.8869 18.6733 1.62272
12.7672 21.1681 1.71016
11.5276 12.1773 1.17663
6.65915 -9.93116 0.846602
11.6747 11.9445 1.20842
9.87038 -6.96753 0.859632
12.5537 12.1531 1.28296
10.0045 -8.44874 0.959243
-6.08587 6.59586 0.668913
10.5582 9.29687 1.0565
12.2161 18.2653 1.65306
11.7718 18.7549 1.6682
-6.91177 -7.66123 0.800093
11.1508 19.2462 1.70643
9.59285 -9.03172 1.01816
10.6742 14.3286 1.40053
-6.39798 -4.28707 0.607122
9.45107 18.9353 1.69105
10.1483 -6.94442 0.984565
12.6419 11.7294 1.39381
10.0284 19.4714 1.7635
-7.21715 -9.57291 0.976672
6.77144 -9.45515 0.946203
12.4283 11.8895 1.40906
12.3344 12.1305 1.43636
11.5997 12.1244 1.38892
-5.00644 -11.4267 1.04987
10.4906 13.1252 1.4295
-6.93415 -6.05931 0.793013
-6.78969 -6.66905 0.803798
-5.16779 -11.3344 1.05978
-7.26461 -7.70866 0.912157
9.34422 -7.30263 1.02457
-7.08471 -8.0171 0.936318
-6.98374 -7.65401 0.91122
9.54916 12.7463 1.41188
-6.91589 -8.32848 0.96721
10.9419 9.18101 1.30158
10.652 13.7192 1.56915
10.6489 9.35259 1.29723
7.88565 14.3145 1.50323
-6.46677 -8.09649 0.94946
-6.86339 -8.96671 1.04235
11.3537 10.9503 1.45529
11.3828 9.28728 1.37459
11.0195 10.9532 1.45631
6.65811 15.3865 1.5756
-11.3398 2.90511 1.09692
-6.34388 -4.15945 0.710385
-6.78026 -6.27036 0.856286
9.60535 13.5465 1.60193
-5.96072 6.47682 0.865536
8.0022 -6.64391 1.01359
8.08759 13.4855 1.56204
-7.03519 -7.58147 1.04195
9.45262 11.8195 1.5265
7.14213 12.6815 1.4772
7.20864 13.2807 1.54064
9.64575 9.19992 1.37942
6.01207 14.3327 1.61129
9.29702 12.6448 1.63634
-6.09064 -4.44464 0.790034
6.10748 14.0343 1.61256
6.36963 13.9527 1.6128
-6.94719 -4.41295 0.880022
8.87076 9.12442 1.35666
9.25891 10.3148 1.50746
7.44676 11.1817 1.46013
5.93825 11.6967 1.42641
-6.2722 -7.3786 1.0585
10.3574 6.50944 1.35344
9.08628 8.22394 1.35091
7.43989 11.8926 1.54913
6.96963 11.8459 1.51973
5.47244 12.1526 1.48322
4.98291 12.3868 1.4942
4.84061 14.0782 1.6384
9.95846 7.12041 1.36691
8.86537 9.42391 1.4458
5.49256 11.7528 1.46124
-6.81296 -6.69544 1.06311
6.97732 10.8908 1.45718
4.44211 13.5522 1.61253
9.80199 -3.21201 1.15005
-6.08511 -5.3971 0.941488
7.32159 -6.1471 1.08512
10.4995 5.76092 1.37352
-7.35218 -0.981897 0.849414
-6.23722 -5.33885 0.944827
5.25949 -5.56874 0.882422
5.17738 11.8759 1.50541
-6.85987 -4.54383 0.95322
4.47079 -7.28995 0.988825
10.4873 5.18805 1.37297
8.97446 7.96536 1.40864
-5.986 -4.35651 0.862539
-6.46424 -5.25589 0.984013
4.11276 -7.90576 1.05958
4.97802 -5.86361 0.922727
10.2404 4.78836 1.35513
8.6098 8.36049 1.45366
5.38464 11.7313 1.57614
9.11973 6.31779 1.35836
8.0989 8.42876 1.46437
-6.46702 -5.72657 1.07515
3.72233 -7.60514 1.06028
8.75129 6.74768 1.38963
-6.44632 -5.32661 1.05815
9.1634 6.06118 1.40269
8.25898 7.2066 1.39853
8.19304 7.5806 1.42527
5.79181 -5.35917 1.01302
-6.94862 -4.42823 1.05738
8.18621 8.08267 1.49225
-7.32897 -1.03835 0.955851
-6.90137 -2.8175 0.973096
9.03265 4.12717 1.30054
8.47516 6.68632 1.41719
5.01118 -6.04342 1.03187
4.92972 -6.2092 1.04975
6.89061 -4.29539 1.08079
-7.10867 -1.7123 0.979748
-6.98672 -2.21273 0.979364
-6.00947 -4.41064 0.996295
8.20625 6.71679 1.43773
8.66632 4.46875 1.32942
8.69351 5.20429 1.38398
8.10343 7.20495 1.47602
-6.78717 -3.72182 1.05072
8.91822 4.18625 1.34856
8.32978 5.87924 1.39626
-6.37934 -4.31642 1.0537
-5.94184 -4.51318 1.01876
5.43625 9.16115 1.47175
3.71751 10.2854 1.51957
-7.33927 -1.08874 1.02695
-6.88181 -3.9143 1.09841
4.95936 -5.55525 1.02911
5.23997 -5.41034 1.04529
7.48872 -3.54892 1.1589
3.46073 10.3799 1.53402
8.45841 4.62937 1.36405
7.39973 -3.69045 1.173
7.6131 -3.34635 1.18559
7.78954 -3.31746 1.20133
8.98834 2.83023 1.35637
4.84389 -5.64716 1.06936
7.37717 -2.86214 1.15201
-6.93597 -3.28945 1.11855
7.94687 -2.78968 1.22795
8.70052 -1.82758 1.30499
5.0793 8.69676 1.48708
3.0159 9.64151 1.50387
7.75921 -1.8945 1.17713
7.28682 5.80327 1.38806
3.52542 9.7538 1.53394
3.25588 10.0107 1.5611
-7.34142 -1.03928 1.09883
-7.05023 -2.01611 1.09235
7.00762 6.34372 1.42729
-6.24592 -2.26541 0.996641
-7.21317 -1.37016 1.10781
7.99507 4.8516 1.42484
5.77257 7.4385 1.42892
5.35605 7.72296 1.43075
5.12272 8.11844 1.45174
6.7783 -3.23462 1.13581
7.26923 -3.13458 1.21229
7.66228 -2.76492 1.24131
-7.28747 -0.730023 1.11789
-7.0726 -1.94766 1.13177
6.80808 -3.10148 1.15695
3.75613 -5.79623 1.06797
-7.0289 -2.06886 1.14824
-7.31752 -1.08863 1.16111
7.41209 4.80773 1.39548
-7.17199 -1.43816 1.16327
-7.24404 -1.29616 1.18024
-7.07284 -2.01199 1.19534
7.1183 4.79597 1.40125
-7.0764 -1.93864 1.2048
7.05829 4.89895 1.42728
6.66109 4.88588 1.37874
5.25541 6.30226 1.36734
4.72782 7.25632 1.44688
3.87847 8.05054 1.48606
-7.2221 -1.36836 1.22654
2.79477 -5.78176 1.08249
7.18856 4.45758 1.42508
6.56175 5.27718 1.42076
3.87918 -5.37289 1.11726
3.94116 -5.02668 1.08128
-7.24476 -1.24767 1.24654
-6.57828 -2.61724 1.20077
7.45468 2.86252 1.35448
7.07175 3.91438 1.37755
-6.39574 -2.745 1.18373
6.81573 4.12362 1.36769
5.69449 -3.52706 1.15291
-7.36707 -1.03553 1.28598
-6.33861 -2.27385 1.15729
5.54645 -3.65524 1.14499
5.3288 -3.78098 1.14528
3.64354 7.2558 1.42891
-6.77691 -1.72938 1.2278
4.48619 -4.47356 1.11496
-7.06568 -0.911218 1.26853
4.73288 -4.46497 1.15145
4.37429 6.56174 1.40771
6.62147 3.49263 1.35208
6.66273 3.70322 1.36953
-6.42148 -1.4959 1.18536
3.61301 -5.33244 1.17169
5.11991 5.65973 1.39777
-6.13846 -2.17733 1.19322
3.41564 -5.16231 1.15117
3.42956 6.85559 1.43488
-1.69595 -5.77536 1.14321
6.47456 2.74463 1.3384
-2.1408 -5.72077 1.17408
6.33819 2.80899 1.33485
-2.78421 -5.36995 1.1851
-3.48783 5.29527 1.37198
4.49626 3.9159 1.36119
4.15342 -2.88031 1.1778
4.63374 -2.18865 1.23839
4.21982 3.30785 1.32857
3.70773 -2.93048 1.22413
4.03364 2.58458 1.33881
-1.44524 -4.12256 1.22266
-2.32296 -3.58216 1.21275
3.87352 2.37283 1.3165
-2.84473 3.50469 1.35162
-2.48293 -2.91885 1.18966
-2.38054 -2.94025 1.19469
1.83672 -2.8026 1.17862
1.85983 -2.78117 1.20867
1.98596 -2.51901 1.19531
-2.03521 2.79386 1.31273
2.80253 -0.555377 1.25913
2.78229 -0.336661 1.24106
-2.0922 -1.62107 1.21334
-2.0798 -1.45286 1.2383
-1.86539 -1.79841 1.28414
-1.99728 -1.13262 1.20463
-1.98871 -1.07146 1.23141
-1.94836 -0.881205 1.2315
-1.93254 -0.709033 1.22164
-1.93137 -0.702102 1.24882
-1.90749 -0.470072 1.22144
-1.87278 -0.346008 1.21855
-1.85775 -0.401525 1.22535
2.37333 -19.6131 -9.96923
-7.54878 -8.91227 0.461842
8.06301 -8.84795 -10.5242
8.3072 -8.67366 -10.5568
8.25861 -8.33291 -9.93635
6.99599 -12.0191 -11.4681
8.56788 -9.027 -9.79869
7.89363 -8.98543 -9.1841
5.87907 -12.8565 -10.7772
9.49024 -8.89242 -9.80842
6.1781 -14.158 -11.6271
8.33677 -8.73002 -9.0748
8.06582 -9.22283 -9.16124
7.33347 -9.29718 -8.82122
5.94174 -14.2214 -11.2437
7.7649 -9.36101 -8.77504
7.90201 -9.1696 -8.71855
7.1686 -10.6376 -9.13169
6.85974 -11.1348 -9.27002
10.1305 -9.26282 -9.63958
6.57768 -11.2379 -8.91309
8.08052 -8.67801 -7.89522
7.40511 -9.33595 -7.91783
8.5689 -8.73443 -8.13236
7.77043 -9.53333 -8.07887
6.52805 -12.8508 -9.41055
7.98319 -9.23764 -7.96207
5.01862 -16.0793 -10.8329
-0.479152 13.8973 -8.89205
7.77518 -9.3003 -7.77245
7.38452 -10.9348 -8.39992
8.43124 -8.62011 -7.68118
10.9661 -9.70025 -9.28526
9.04792 -8.87546 -7.94808
11.8763 -10.1269 -9.78016
8.12507 -8.59068 -7.27383
4.04814 -16.8552 -10.6234
4.26392 -15.4195 -9.82209
7.89628 -9.41975 -7.36521
3.96048 -15.6467 -9.62392
11.5852 -9.91762 -9.13263
6.90992 -11.1487 -7.78703
7.81547 -8.86775 -7.00149
5.51858 -14.0702 -8.92834
6.52995 -12.7837 -8.39952
8.41477 -8.648 -7.03109
9.76175 -9.14989 -7.80059
2.8043 -11.8452 -6.97629
5.52339 -14.0057 -8.5226
9.66986 -9.17614 -7.53487
6.66028 -11.139 -7.30648
3.33949 -20.614 -11.7038
8.94066 -9.00074 -7.11103
12.3096 -10.327 -9.00032
6.86746 -11.0745 -7.25841
4.7115 -14.6919 -8.52548
6.26504 -12.7058 -7.7917
0.890463 18.6287 -10.1543
14.7858 7.81367 -9.08866
4.22924 -14.3202 -8.06305
14.9003 -11.7903 -10.2408
15.1462 7.52713 -9.0113
14.1684 7.80711 -8.59771
4.78987 -14.9152 -8.32258
12.1951 -10.2435 -8.38013
1.81047 -20.396 -10.5348
11.5184 -9.93995 -7.7936
2.07836 -20.1394 -10.2741
14.1236 -11.2102 -9.11923
-0.00233056 14.2578 -7.15724
-7.15811 14.8709 -8.26809
10.6845 -9.68186 -7.24407
7.56801 -9.4918 -6.04733
17.8684 5.56101 -9.13018
-8.33434 15.7927 -8.62737
11.7539 -9.87111 -7.42815
10.5832 -9.66547 -6.8815
14.96 -11.4688 -9.09084
16.9864 16.0933 -11.1201
7.54642 -11.1526 -6.41448
15.1881 7.50492 -7.95076
14.0769 -11.1461 -8.39077
-11.6667 16.7027 -9.33189
16.0366 -12.1506 -9.19037
9.82984 -2.4647 -4.65563
-9.05765 -1.64667 -4.18617
19.1072 18.4399 -11.9853
3.93393 -9.14558 -4.51796
-9.97842 16.2957 -8.57827
-5.30276 4.40904 -3.1001
6.91599 -11.3845 -5.99553
9.49887 -9.15456 -5.81775
16.2134 7.39669 -7.86388
-6.49237 14.7371 -7.031
1.50372 -18.7333 -8.12808
-10.9036 16.5861 -8.54357
9.63423 -3.38887 -4.3747
7.07575 -11.136 -5.5764
16.0167 -12.1069 -8.40329
14.8217 7.83559 -7.03405
19.1576 19.9343 -11.5584
1.01586 -22.4063 -9.33872
-4.45713 13.6198 -5.90272
-9.86939 -1.10389 -4.1155
14.2522 7.87021 -6.64937
20.9707 22.8138 -12.635
-12.9372 2.42443 -5.3614
15.2945 7.26716 -6.85005
-5.11616 14.0096 -5.99625
3.658 -8.85481 -3.81276
12.5126 -10.3692 -6.36537
14.1034 -11.1357 -7.02161
19.7548 22.1126 -11.5059
19.0554 5.87621 -7.73368
1.54491 19.4145 -7.55377
-8.51745 15.3428 -6.76291
11.5057 -10.1441 -5.89929
19.714 22.8589 -11.6313
0.678325 15.4338 -5.91772
-1.64778 12.6039 -4.88922
2.72031 -12.2652 -4.81983
-8.72148 -1.24565 -3.34849
0.698607 -23.3297 -8.80866
15.3771 -11.784 -7.30523
9.54227 -3.48192 -3.832
-14.1946 17.4968 -8.39541
-7.85518 -3.48944 -3.15248
1.0942 -10.4278 -3.85657
7.0883 -11.3312 -4.88682
14.3669 8.0224 -5.94242
-8.25298 -2.83355 -3.13766
0.786294 15.3569 -5.48459
-3.86665 13.0637 -4.81785
5.78286 -11.0723 -4.39509
16.0436 -12.1245 -7.12149
19.3386 5.97291 -7.12195
2.14685 21.0283 -7.41656
22.2966 26.9572 -12.1619
-14.4543 17.8409 -7.87983
2.99293 -13.4263 -4.73362
-8.64859 15.6196 -6.09956
18.7665 -13.2918 -7.88078
-4.92068 14.1275 -5.08515
1.34825 -21.9686 -7.29481
1.77192 19.8386 -6.58226
1.44895 -10.314 -3.4422
40.3336 -20.6175 -14.8634
6.2112 -10.1149 -3.79886
17.8232 -12.5847 -6.98718
2.13621 20.9274 -6.69745
-12.9686 17.3119 -6.81867
1.43319 -22.365 -6.98429
-4.19804 14.3565 -4.64652
-10.6357 16.1133 -5.84999
-2.65394 -27.0488 -8.26049
3.08144 -9.5205 -3.04065
0.784407 -23.8154 -7.16771
19.4393 -13.798 -7.0725
17.823 5.6386 -5.48638
-7.66372 14.8327 -4.85892
4.25869 -10.5658 -3.31011
3.64957 -10.6503 -3.20347
4.27783 -11.0374 -3.32211
-12.9058 17.2492 -5.99147
-9.00763 15.3966 -4.85142
-13.1118 1.9655 -3.6352
-16.3863 18.8258 -6.77609
26.8877 -17.7003 -8.72105
-3.74452 -26.7156 -7.23922
3.80518 -9.19804 -2.66284
-9.50684 15.8017 -4.90741
48.8027 -14.2493 -13.4801
10.6287 -9.47966 -3.7695
-6.24495 14.4553 -4.11197
-13.9769 17.5229 -5.88097
-7.59817 -35.9647 -9.57891
4.99374 -9.63946 -2.8095
6.61114 -10.5797 -3.21794
-6.97657 14.8041 -4.15854
-10.2363 15.9421 -4.83974
-9.34737 -37.0503 -9.50677
-8.50618 -36.7292 -9.21082
11.0476 -9.73885 -3.62095
-7.71862 14.9782 -4.08468
-11.3633 16.5156 -4.85193
14.7966 7.81619 -3.97336
4.07077 -9.30654 -2.40373
15.4056 7.62987 -4.05294
3.76962 -8.96216 -2.28514
-6.23733 -31.0898 -7.34576
5.6672 -9.95551 -2.65466
46.1105 -11.1586 -11.0258
-12.4098 16.9033 -4.82608
15.0563 7.71101 -3.82857
45.0851 -9.75322 -10.4489
-9.47944 15.7889 -4.12103
-33.8501 -83.1789 -19.5123
3.74368 -9.32512 -2.18567
44.22 -11.3441 -9.96309
15.3192 7.60002 -3.66342
-10.299 16.0758 -4.08851
-21.0927 -33.1603 -8.44474
4.85894 -9.82734 -2.36463
46.4276 -10.8709 -10.2014
-14.3149 17.7353 -4.79455
-31.3105 -23.11 -8.24927
42.9078 -14.3566 -9.57108
15.0441 7.9498 -3.55007
-34.1106 23.0673 -8.41985
-7.92271 -32.4101 -6.75982
3.99381 -11.6257 -2.47028
45.922 -9.90812 -9.55459
11.9008 -9.851 -3.09788
44.246 -11.3904 -9.10379
-26.0921 19.6897 -6.48784
6.19923 -10.3758 -2.40589
47.3786 -11.0794 -9.50254
-12.3823 16.8945 -4.04727
-25.9488 20.3357 -6.40593
16.324 12.3481 -3.91407
-6.64053 14.6158 -3.08054
-32.1701 -23.2689 -7.60012
-30.7184 -24.0546 -7.49865
-34.3332 22.8782 -7.76889
-32.6943 -21.5672 -7.40215
18.2599 5.74087 -3.57372
-33.2287 -20.0491 -7.24811
-14.1564 -40.8163 -8.05101
3.80529 -9.91074 -1.99839
-22.6278 -56.3369 -11.2946
-15.7922 -42.5465 -8.30375
4.00751 -9.71255 -1.89475
13.214 -10.3254 -3.02393
46.8196 -10.4187 -8.61503
-14.2665 17.694 -4.06069
-26.0861 20.4596 -5.85281
15.288 8.09293 -3.01418
-29.4048 -25.6243 -6.7988
44.1063 -11.2978 -7.81641
-7.66641 14.7675 -2.81762
-9.3876 17.2877 -3.3222
46.0583 -10.8423 -8.00064
-29.6547 21.6004 -6.17641
-29.4555 -22.6615 -6.21208
-20.1381 19.2553 -4.63518
-31.181 22.0209 -6.36811
16.1438 -12.0452 -3.30024
-9.99697 15.8708 -2.98337
-41.5714 24.462 -7.65247
-30.7656 -23.1122 -6.16074
-32.5456 -22.4489 -6.22754
3.46385 -9.5792 -1.5926
-23.0011 19.6486 -4.67168
17.1681 -12.1369 -3.25627
-10.8117 16.1809 -2.95599
47.5361 -11.1408 -7.40993
-21.3514 -49.4812 -8.14523
-28.4629 21.3466 -5.31969
-36.9114 23.0153 -6.45653
-30.7694 -23.8844 -5.81162
46.0453 -9.86732 -7.01124
-32.7843 -23.7099 -5.91218
-47.6695 26.6161 -7.85045
-34.5245 -23.0283 -5.97402
6.83185 -13.1102 -2.14593
-35.2333 -20.4778 -5.76784
-6.67578 14.7176 -2.24337
-12.6913 17.1323 -2.96608
-31.0046 22.3221 -5.34002
-26.5501 -22.7684 -4.82319
-22.9579 -51.1291 -7.7302
-15.0866 -44.105 -6.41267
37.6844 -12.5324 -5.44593
-22.4293 19.71 -3.97294
-31.3842 -23.5031 -5.11933
-29.7865 -24.4359 -5.09415
-32.9671 -22.7045 -5.12783
7.50892 -9.51083 -1.56667
44.1679 -11.3061 -5.84958
-32.3062 21.9839 -4.96826
-29.1417 -15.5502 -4.21077
6.0772 -7.8704 -1.27006
46.2204 -10.8638 -6.01897
-29.9835 22.0364 -4.64335
14.6994 -11.4521 -2.28895
-28.9607 21.8126 -4.38603
-31.4325 22.2201 -4.63475
-10.0109 15.9221 -2.17254
-30.694 -22.0756 -4.44845
-21.4412 -51.6163 -6.50344
13.1467 -10.633 -1.97905
36.7443 -12.142 -4.4773
6.40832 -10.4503 -1.40872
11.31 -9.80087 -1.68595
16.6945 -12.4299 -2.345
-10.709 16.0577 -2.13678
6.85734 -12.7764 -1.58847
11.7254 -9.79194 -1.69155
44.0013 -11.2834 -4.9866
-37.5305 23.4009 -4.74719
46.2892 -10.8166 -5.11772
15.1216 -11.6116 -2.02801
-12.5415 16.9439 -2.16504
14.9697 7.92339 -1.69368
14.1881 -11.1926 -1.80491
-13.562 17.3454 -2.13544
6.49557 -12.4479 -1.35115
9.48688 -8.99869 -1.26371
17.2817 -12.6365 -2.08901
-28.3079 -13.527 -2.95581
-14.5063 17.7639 -2.13789
-33.9526 -66.1463 -6.9215
-33.086 -20.7033 -3.4561
16.379 -12.2733 -1.84144
39.6026 -13.1773 -3.73493
11.2304 -9.98291 -1.24157
44.4392 -11.3582 -3.82504
-15.3273 -39.8865 -3.43263
-36.3657 -71.1085 -6.22165
17.9065 -13.0486 -1.74945
-29.1401 22.0543 -2.79578
7.51194 -9.25358 -0.922451
-31.6938 22.4354 -2.88513
-15.7314 -38.9169 -3.13743
-33.8876 -63.7684 -5.13557
-32.6998 -65.4927 -5.01457
12.7217 -10.5872 -1.11385
17.3365 -12.627 -1.44952
-37.9476 23.6239 -2.92345
44.7147 -11.4482 -3.0293
-28.1194 -13.2224 -1.86105
-36.7508 -71.0018 -4.84137
14.7053 -11.4642 -1.12328
32.0651 -21.123 -2.09744
32.005 -20.1715 -2.06705
15.5527 7.68123 -0.900837
14.9838 7.94537 -0.872869
-12.4598 17.0033 -1.06999
-23.071 -50.9112 -2.87142
-12.8363 -34.9385 -1.84489
-26.6134 -15.3704 -1.45867
-38.4477 -72.4612 -4.00508
9.74521 -9.17817 -0.669493
13.6193 -10.8308 -0.854492
16.2225 10.3201 -0.909323
16.5469 11.5979 -0.941887
6.93772 -12.7247 -0.688919
-19.7937 -5.84044 -0.88637
-28.1435 -50.155 -2.53693
10.3991 -14.0395 -0.713785
18.3566 -13.2379 -0.924613
43.8856 -11.2102 -1.80203
-9.29344 -12.2917 -0.594484
45.4989 -10.6545 -1.83707
22.9829 27.6306 -1.22792
-31.6341 21.6251 -1.32908
-35.552 -19.936 -1.32687
-17.2017 -42.8712 -1.48359
16.7343 -12.4847 -0.680965
14.5402 3.93848 -0.444819
-24.0205 -55.1966 -1.80404
-22.1184 19.7031 -0.847062
-11.7082 -35.5026 -1.00467
44.3057 -9.412 -1.26621
-40.3956 25.1267 -1.28738
-52.3621 18.8289 -1.33432
45.0478 -10.4607 -0.994292
-29.9583 22.6411 -0.751665
-29.7883 9.475 -0.654415
33.9237 59.396 -1.26087
-29.2914 21.6182 -0.698345
13.1297 -10.7582 -0.293975
-33.7764 -21.0198 -0.616504
-28.434 -57.1838 -0.949069
17.7691 -12.8147 -0.31805
-11.9576 -36.151 -0.49049
-13.8271 17.553 -0.228596
-18.9754 -43.6096 -0.515706
31.0823 -19.468 -0.330163
-22.1133 19.7301 -0.202137
-9.8195 -12.6029 -0.0482016
7.11158 -11.863 -0.0238351
14.806 7.74283 -5.37963e-05
-34.7394 -21.4514 0.217866
-22.8551 -39.0625 0.334782
-51.2095 28.0531 0.595292
6.78094 -12.0314 0.143119
8.07432 -9.18052 0.122217
-40.0572 -21.2965 0.498981
-11.0074 -31.1726 0.369866
11.2139 -9.77538 0.19512
-22.5043 19.229 0.388519
-12.1785 -18.8956 0.327267
-30.2645 21.5363 0.660472
-34.38 -23.0489 0.741237
-33.8633 -25.0163 0.735194
10.7394 -9.65116 0.23568
7.86001 -9.68874 0.268122
7.96279 -9.29407 0.264105
-67.8181 23.4842 1.67606
18.3996 -13.3564 0.553853
-28.2798 -8.49595 0.79019
-27.1715 21.308 0.993446
11.7061 -10.0294 0.420537
17.4716 -7.57349 0.542323
-24.3029 20.612 0.947648
-7.86115 -9.2184 0.385627
12.9341 14.0625 0.678914
-27.2858 -19.4121 1.15674
6.24082 -12.8588 0.50284
8.98168 -8.83824 0.430622
24.9093 -4.41407 0.846187
18.9363 18.0839 0.944879
14.3161 24.783 1.07556
-54.864 18.0338 2.07782
24.7125 -4.80064 0.953848
-24.7763 20.2395 1.20818
9.45791 -8.99759 0.504723
22.6739 -3.12385 0.864754
12.4356 14.4032 0.778503
15.1289 19.5482 1.01169
6.61172 -12.5359 0.5817
19.0466 44.0239 2.00174
7.73194 -11.142 0.571717
-7.52258 -7.40501 0.466354
-8.21938 -11.3717 0.627175
-29.1098 -11.5235 1.49119
16.6168 10.7872 0.987029
-7.69871 -7.16327 0.503585
15.7568 24.4799 1.50383
-6.9272 -8.15472 0.588237
14.9082 20.4148 1.38492
-25.4226 19.5763 1.7729
14.8576 24.197 1.64389
-7.09312 -9.1436 0.661401
6.93198 -13.7372 0.883075
10.0569 12.6503 0.956293
15.0571 20.0052 1.56956
15.5456 27.6675 1.95386
10.8436 30.4112 2.0535
-7.26576 -9.91684 0.786647
9.80851 22.3531 1.63849
11.5588 10.1676 1.09713
11.6182 12.2861 1.19353
13.9544 16.1246 1.52591
8.29365 -12.7846 1.07569
10.8761 9.07885 1.04226
13.1057 14.6994 1.47348
-14.2037 8.37615 1.24602
-11.0647 2.08445 0.851214
12.6685 16.491 1.61383
11.8432 18.8747 1.73047
10.1553 -6.94981 0.96087
-7.64206 -8.08417 0.890014
12.9151 11.691 1.42091
12.0062 11.7456 1.39422
-6.98999 -6.15012 0.75648
-7.039 -6.883 0.816588
-7.01342 -8.88136 0.975002
11.6175 12.1269 1.44814
9.12793 -7.17311 1.01074
10.7457 9.46601 1.30183
-11.3281 2.90073 1.07398
-7.59728 -7.07619 0.932735
11.7539 9.06944 1.4216
9.35087 13.2233 1.55532
7.30842 13.4481 1.50041
8.54513 13.2862 1.58439
-6.72699 -6.70338 0.943944
7.89821 -6.56521 1.00526
9.80757 12.2844 1.57556
10.0393 10.2553 1.4823
-6.86743 -5.39085 0.908407
9.70387 9.24043 1.4286
8.29271 11.2746 1.46726
6.8715 13.3242 1.59765
9.66966 8.43794 1.35851
9.27817 10.334 1.51305
5.7846 12.7425 1.51533
-6.36925 -7.50111 1.06345
6.77575 11.5324 1.47195
5.34325 13.3887 1.59099
-6.81331 -3.97368 0.870762
-6.68125 -6.06372 0.994
3.93773 -7.80388 0.967531
5.4545 -6.11093 0.920299
9.4253 7.58769 1.36002
9.15075 9.73846 1.50707
8.01549 11.4167 1.55959
6.85562 10.8196 1.46093
-6.86541 -4.56012 0.934544
4.72744 -7.71322 1.04519
-10.5348 7.06218 1.47102
-7.07428 -2.1284 0.859349
9.06422 6.12326 1.30149
5.97841 12.2021 1.60633
5.05413 11.6886 1.50249
4.78156 -5.87306 0.891389
4.13148 -7.92136 1.08618
8.3706 3.87716 1.15635
11.0241 5.49871 1.5142
4.64398 12.922 1.70999
-6.14707 -5.37811 1.00166
-9.10045 1.29721 1.14516
8.31309 7.60328 1.42597
-6.42446 -5.30952 1.05406
7.84924 8.24425 1.46368
-6.87383 -3.56617 1.00243
4.97824 -5.97862 1.0044
5.03126 -5.43568 0.965758
8.45267 6.95451 1.45012
7.99789 7.9086 1.4967
-7.18737 -1.7201 0.995383
-7.01686 -2.20495 0.985252
-6.47488 -4.36562 1.03722
4.84024 -6.10122 1.03635
8.43229 6.39083 1.43926
-6.83658 -4.20981 1.08163
-6.04009 -4.43812 1.00787
4.95797 -5.54677 1.02158
7.43 -3.52902 1.14489
8.39533 4.26237 1.33744
8.36035 4.59414 1.35372
-6.92665 -2.90155 1.0735
7.49817 -3.74233 1.19667
7.03262 -3.06196 1.08204
4.95014 -5.7995 1.10064
8.21408 -1.73805 1.21597
-6.94577 -3.25146 1.13719
7.42171 5.59251 1.39593
5.78996 7.47555 1.42853
8.01315 3.92658 1.36363
7.93554 4.20848 1.36581
5.47085 7.85608 1.45591
5.1215 8.74874 1.53222
3.54212 9.68976 1.55735
-6.99471 -2.82125 1.14954
7.69972 -2.80107 1.2551
7.86528 -2.24143 1.26219
7.81468 -2.02169 1.24734
7.48862 4.21802 1.38607
7.09381 4.77007 1.40491
6.76668 4.93196 1.39253
5.41107 6.48448 1.40585
-7.19054 -1.3579 1.21123
5.02279 7.37655 1.48992
4.75337 7.2755 1.45941
-7.20414 -0.802484 1.21331
2.86958 -5.93725 1.11168
6.7207 4.10118 1.3454
6.53228 5.24737 1.42317
3.86663 8.00264 1.49241
-6.36961 -2.29724 1.14846
-6.27627 -2.67809 1.16344
3.77623 -5.24559 1.1005
-6.96065 -1.79244 1.25565
4.23959 -4.64685 1.10551
6.6851 3.52032 1.36466
5.08212 5.62155 1.3854
3.63632 -5.36659 1.18057
3.38285 6.78405 1.41408
6.51401 3.05678 1.36722
6.44532 2.72163 1.33595
-1.64883 -5.70599 1.14007
-2.16985 -5.76008 1.19995
6.26916 2.38351 1.34083
3.94194 -4.58377 1.20261
-2.95782 5.52006 1.33362
-3.58077 5.15009 1.36552
4.21104 -2.92919 1.20594
-4.24545 3.89895 1.40316
4.59187 -2.18951 1.23488
4.48375 -1.27067 1.15902
3.70876 -2.93559 1.23241
3.67839 -2.58447 1.19298
3.42401 -2.97698 1.2248
-2.32235 -3.61819 1.20715
-2.5006 -2.92839 1.19729
1.86632 -2.48405 1.12865
1.92814 -2.64214 1.19336
-2.03168 2.78676 1.30525
-2.07378 -1.46502 1.19716
-1.82709 -1.83244 1.30297
-1.97821 -1.17278 1.20958
6.92391 -6.93446 -8.90392
9.73084 -9.10166 -9.43047
9.28925 -8.97319 -7.69598
2.44272 -19.9936 -10.697
3.68551 -9.33199 -4.52373
27.4812 34.1455 -14.7257
2.08802 20.763 -6.19034
-21.6983 -30.2254 -6.94827
-27.6109 -25.6796 -5.81398
9.58173 -8.84013 -1.62948
8.82392 -8.69466 -1.242
8.97695 -8.85401 -0.93458
19.4713 -13.7867 -1.30421
44.7433 -12.018 -2.39816
-30.818 -13.0337 0.337505
10.1528 6.98775 1.30861
-3.4551 5.25603 1.34938
8.01079 -8.2696 -10.3284
7.87181 -8.29656 -10.0675
8.41004 -8.49972 -9.902
6.86261 -11.8458 -11.2466
8.00579 -8.26643 -9.10276
8.04657 -8.74824 -9.13418
6.23276 -14.1852 -11.6566
5.88521 -14.2139 -11.2637
9.12929 -8.87418 -9.33322
7.66097 -9.24543 -8.70194
7.89059 -9.14823 -8.63628
7.2457 -10.7344 -9.21472
10.2898 -9.36714 -9.75368
6.45149 -11.1177 -8.78176
8.21135 -9.11731 -8.22725
7.3693 -9.36591 -7.95397
7.99477 -9.24354 -8.03445
5.04004 -15.9768 -10.8067
-0.529413 14.3041 -9.18821
7.33779 -10.8377 -8.39503
7.64247 -9.17611 -7.64029
11.0676 -9.87495 -9.41617
7.08661 -10.9735 -8.14117
8.2316 -8.64099 -7.41375
0.104418 14.3132 -8.72302
7.79534 -8.76656 -7.06764
11.5741 -9.82561 -9.16089
9.03162 -8.95933 -7.51788
6.60787 -12.9002 -8.54939
5.5347 -14.0257 -8.8604
7.08582 -11.148 -7.58163
5.12837 -12.8714 -7.77978
3.16515 -19.3085 -10.9707
6.64695 -11.1528 -7.27443
7.89326 -9.09769 -6.75378
12.2896 -10.2937 -8.96404
-0.494898 14.3463 -7.87952
9.76539 -9.56586 -7.4955
13.4019 -10.7434 -9.2639
15.2636 10.4554 -9.9434
15.2117 7.47477 -9.06033
14.0139 7.72726 -8.46701
11.505 -9.92835 -7.80776
-0.071263 15.2602 -7.72168
2.36113 -19.4145 -9.88007
10.7546 -9.64072 -7.26551
7.38623 -9.32845 -5.96868
14.2656 -11.3144 -9.16714
18.2917 -13.0787 -10.939
18.8559 5.82239 -9.59099
2.65198 -19.4387 -9.52822
12.9654 -10.7102 -8.13031
15.5877 -11.8677 -9.50285
7.35115 -10.8356 -6.3055
15.1827 7.44314 -7.87196
7.13509 -10.9749 -6.10046
6.26277 -10.6963 -5.7396
10.0546 -2.52306 -4.76659
17.6103 -12.8668 -10.02
-11.5006 16.5037 -9.16429
3.55587 -9.06739 -4.41189
-9.96681 16.2885 -8.57723
16.1862 7.32136 -7.95189
-10.9549 16.6615 -8.59572
-6.97043 6.75896 -4.17968
-6.39905 6.38177 -3.84515
1.20368 -15.4748 -6.59748
20.4297 21.1691 -12.3525
16.4298 -12.4165 -8.6583
15.3431 7.54064 -7.14688
-9.99644 -1.09084 -4.17546
20.4452 22.258 -12.4164
14.2682 7.88411 -6.63798
16.6145 7.48389 -7.32322
15.1928 7.81829 -6.85663
1.48998 -17.896 -7.01248
18.9242 5.83925 -7.66701
19.929 22.2433 -11.5567
0.764682 16.3555 -6.29307
-9.1782 -1.33116 -3.59292
0.705389 -23.7663 -9.04497
17.1399 -12.677 -7.97329
14.3339 8.0046 -5.9374
0.53308 -22.2207 -7.83613
-3.96565 13.3201 -4.87366
-10.3151 15.849 -6.61515
-0.835179 -22.2623 -7.8349
-14.553 17.9566 -7.99005
-8.65252 15.6251 -6.12554
-4.90294 13.9536 -4.98269
1.2784 17.804 -5.95127
-5.20779 13.866 -4.87939
39.8252 -20.4626 -14.7792
12.6115 -10.4316 -5.27383
8.07529 -9.25148 -3.93421
7.45003 -8.84852 -3.58028
-4.11208 13.8273 -4.33703
11.6521 -9.88231 -4.6111
15.3327 9.65081 -5.19093
13.8196 -10.7909 -5.0303
-5.33694 14.2199 -4.27132
-13.0173 17.4683 -6.14478
15.9213 10.7621 -5.29577
-9.32882 15.6731 -4.8445
-26.1353 20.2416 -8.6303
-23.0797 19.3868 -7.7951
-6.91042 14.6646 -4.14187
-7.68266 14.9028 -4.08564
-25.15 19.8472 -7.80531
-3.20139 13.0786 -3.22142
-11.3628 16.4846 -4.78248
3.12718 -9.6021 -2.38776
14.9644 7.98276 -4.00558
-32.2484 -25.3169 -9.61551
5.45099 -11.7518 -3.05131
51.1474 -12.3358 -12.2268
-6.82478 -33.3954 -7.83742
-9.41275 15.7842 -4.19832
15.2669 7.48097 -3.85323
-29.0194 21.098 -7.96343
-11.4716 -41.0613 -9.36813
3.7568 -9.49093 -2.24755
43.8645 -11.1145 -9.77463
-33.7543 -22.1695 -8.60817
-14.302 17.7462 -4.73106
14.8392 7.92602 -3.49579
-30.9762 -23.4394 -7.99749
9.37668 -9.28242 -2.73593
44.6513 -11.3515 -9.44992
47.5549 -10.0854 -9.81027
-27.4551 20.6066 -6.7696
-20.3319 -33.0508 -7.63013
5.58177 -10.5005 -2.27742
-32.1605 -23.2355 -7.5025
-33.5718 -22.1527 -7.51219
-14.2723 17.7414 -4.13375
15.5309 7.61546 -3.04925
-5.06005 13.4978 -2.53369
-17.9158 19.1695 -4.63739
-20.3691 -48.5002 -9.17586
-21.4472 -34.5985 -7.02644
-32.6012 22.087 -6.67883
9.2081 -9.05691 -2.19173
-29.9408 21.8102 -6.0277
-31.0815 -23.3531 -6.209
-18.6812 -49.7229 -8.48628
43.981 -11.1668 -7.23737
-42.4242 25.0573 -7.76369
-35.8772 -22.4615 -6.56436
6.51348 -10.9935 -1.99571
-28.3286 -25.2527 -5.73422
-29.6599 -24.3359 -5.75136
-18.8868 -46.5334 -7.46267
6.57397 -12.5909 -2.12039
-32.0898 -23.0784 -5.65796
-30.1556 -23.7386 -5.44683
-30.9535 22.161 -5.32385
-12.5905 16.9983 -2.87818
-31.8369 -23.8019 -5.38287
-29.265 -25.1773 -5.24082
-30.9244 -19.2321 -4.78242
-32.7159 -22.5513 -5.24185
-32.1403 21.7999 -4.89372
-29.412 21.8909 -4.48328
-38.9868 23.0286 -5.56558
13.1101 -10.6 -1.97681
9.79721 -9.17306 -1.54335
10.6518 -9.31897 -1.55879
-12.6169 17.0588 -2.23431
15.3256 -11.7851 -2.06355
-30.0017 -23.7267 -3.8793
47.4094 -10.0762 -4.84462
17.4102 -12.7034 -2.12129
43.699 -11.7452 -4.26672
-30.596 -62.7666 -6.19374
-22.5223 19.7067 -2.62237
-28.3236 -12.711 -2.69771
7.02886 -10.804 -1.13177
17.3191 -12.5144 -1.85014
-28.4219 -25.3588 -3.21385
9.9377 -9.02317 -1.10793
