ply
format ascii 1.0 
element vertex 1871
comment /media/mkaihara/Seagate Backup Plus Drive/model_iterations/model_38.ply
property float32 x 
property float32 y 
property float32 z 
end_header 
-14.7606 -42.6538 -4.73333
16.6766 -12.3498 -2.17613
-29.122 -58.5076 -6.78037
14.9819 7.54417 -1.71497
-30.5396 -24.3388 -4.01192
13.9042 -11.0013 -1.81689
-31.2855 -24.2001 -4.00254
14.9712 7.82219 -1.69769
-12.4294 16.6223 -2.03967
-19.4987 -49.4379 -5.15088
-31.0624 -62.7494 -6.70442
-22.9512 20.0772 -2.88145
-30.3946 -24.8994 -3.73551
-30.3677 -25.2248 -3.76313
-20.628 -53.9778 -5.44983
-13.8045 17.6646 -2.09867
-30.6681 -23.9932 -3.63454
-15.1271 -41.2031 -4.0898
-13.3585 -41.5208 -4.06958
9.85175 -9.13144 -1.24817
-31.6494 -61.6515 -6.38576
8.58535 -8.68288 -1.10869
16.6083 -12.3747 -1.89464
-14.6874 18.0172 -2.08562
-35.194 -21.8898 -3.75126
-32.3897 22.8687 -3.49297
-30.4581 -24.5726 -3.45893
14.1187 -11.2294 -1.60128
-31.6307 -19.2751 -3.16102
11.0918 -9.73404 -1.25652
-26.1137 21.1824 -2.82489
-10.991 -34.2085 -3.03725
9.4267 -9.03871 -1.09649
-33.0922 22.7523 -3.33756
8.70942 -8.71106 -1.01178
16.8739 -12.3063 -1.70583
-16.0956 -41.8242 -3.6024
-20.6031 -47.1308 -4.02709
-14.8196 -36.5855 -3.12944
-12.8814 -36.1427 -3.04915
9.22831 -8.96816 -1.01101
11.3292 -9.8211 -1.17539
14.9481 -11.6921 -1.50231
-29.2898 22.3361 -2.86716
-28.8693 -13.4755 -2.47562
11.9074 -10.0878 -1.20956
-22.2299 -49.5085 -4.15744
12.8359 -10.6543 -1.26369
-38.6395 -73.3064 -5.99803
9.98035 -9.15986 -0.981739
10.9473 -9.77178 -1.02271
-32.6803 -20.2877 -2.66153
12.0024 -10.0875 -1.08549
14.7936 -11.6479 -1.30847
-15.0312 -37.9816 -2.78042
-14.6273 -38.696 -2.83641
18.7091 -13.5209 -1.53218
-22.8514 20.0079 -2.01646
-23.7215 -54.7216 -3.94458
12.9325 -10.6385 -1.11938
-14.1393 -39.2269 -2.71035
15.3627 -11.5996 -1.25072
-30.8015 -62.3631 -4.3686
-14.3499 -44.479 -2.90474
-32.1189 22.6901 -2.40764
-31.2628 -61.8236 -4.21723
-16.4308 -40.0239 -2.63849
31.3682 -20.7972 -2.29042
42.6865 -11.1317 -2.67762
36.9765 -8.91505 -2.30414
-14.6311 -39.2817 -2.53307
-26.425 21.4464 -1.93025
-28.5999 -14.0804 -1.84261
-15.3086 -39.8812 -2.38307
17.0088 -12.6915 -1.18863
-26.7953 -16.1244 -1.68391
43.291 -9.64323 -2.28044
-9.33527 -12.4734 -0.791101
-14.9067 -39.6712 -2.11116
5.74895 -12.5471 -0.685544
-13.9209 17.6477 -1.09655
-14.461 -45.453 -2.34282
14.9901 7.86425 -0.815974
-15.7953 -40.4872 -2.06568
-13.9286 -45.3004 -2.23647
18.8616 -13.3825 -1.1081
-16.4807 -47.7957 -2.35853
37.2798 -9.15626 -1.79834
-28.5011 -14.5739 -1.43277
-23.3337 -53.4666 -2.58712
-16.0214 -39.42 -1.89434
9.68991 -9.14391 -0.59392
12.6612 -10.3921 -0.735022
44.994 -10.2954 -2.05209
-13.537 -41.1773 -1.84505
-32.0478 22.6553 -1.6353
-52.0705 28.2796 -2.36477
-33.0669 22.7565 -1.47373
-18.1074 -47.3526 -1.90271
-34.0251 -21.4261 -1.43764
9.777 -9.0989 -0.490952
6.6343 -10.8788 -0.442028
-12.639 -37.6783 -1.31542
7.51053 -13.183 -0.517988
18.7529 -13.2823 -0.775858
-25.4929 -55.8338 -2.02073
-12.9495 -36.738 -1.26202
21.5032 24.8008 -1.05508
-22.6743 20.13 -0.955631
-22.7567 -57.0133 -1.96418
-19.987 -51.1791 -1.70351
21.2154 -14.4676 -0.780215
-27.2862 -14.0417 -0.930576
-12.5365 -40.1216 -1.24952
-23.6231 20.0728 -0.891111
-22.7205 -52.2887 -1.62133
-16.8766 -45.676 -1.40434
22.7345 -10.231 -0.75215
-33.8984 -20.6543 -1.09824
-9.72415 -12.758 -0.458296
-21.9638 -51.7968 -1.58764
18.164 -13.5319 -0.576227
31.6599 52.8347 -1.59796
-29.439 22.4618 -0.952879
-30.5749 22.3634 -0.937735
-26.9169 -12.9333 -0.732188
9.59473 -9.02906 -0.318787
-20.4041 -32.8648 -0.90184
-39.4795 13.6946 -0.914603
21.4163 -14.3299 -0.5467
-51.9458 18.7353 -1.02047
18.5785 -13.3942 -0.429347
12.8749 -10.5772 -0.277403
-7.05059 15.262 -0.294648
-32.6345 10.3206 -0.566597
-27.9517 -13.3104 -0.490476
-36.4441 -20.7544 -0.637396
-17.5091 -42.9223 -0.716595
-7.67854 16.1486 -0.243313
-31.9934 -23.8999 -0.553835
-33.3309 -22.7219 -0.516462
-33.0494 -66.7782 -0.922231
17.4203 -12.9972 -0.263351
18.3627 -13.2211 -0.286562
29.3113 -18.0743 -0.458892
-20.4714 -52.4316 -0.681932
-29.615 22.5789 -0.398213
-36.947 -20.6533 -0.467681
-26.5692 -56.6939 -0.665692
-18.042 -41.3817 -0.482624
-51.763 28.368 -0.492593
-32.3338 -57.0384 -0.603274
-19.2135 -50.3905 -0.511361
38.0061 -9.18198 -0.358868
-14.0259 17.8027 -0.159925
-33.2073 -73.9497 -0.553296
-17.3393 -42.056 -0.309042
9.60295 -9.03613 -0.0409506
13.1453 15.0446 -0.0415119
14.8884 7.83769 -0.0289021
-29.0527 -12.9604 -0.0579075
-11.5718 -16.8482 0.024911
-12.7348 -19.1679 0.0438925
-18.1009 -41.5504 0.187953
9.46768 -9.01403 0.0596853
-32.0851 22.7069 0.203062
-20.8434 -52.6203 0.275335
-29.8269 -13.8431 0.197127
16.9384 -12.3589 0.117508
-12.9738 -19.8922 0.155078
14.784 -11.5163 0.147701
-51.8691 18.584 0.486236
7.12081 -12.2352 0.11892
16.0874 -11.9212 0.170233
-35.8584 -21.6989 0.439527
38.7059 -7.95551 0.411941
-34.7282 -21.7632 0.466719
-12.2408 -33.8092 0.420371
-12.7096 -34.1781 0.442579
-10.9303 -31.4747 0.406102
-9.41121 -29.1189 0.37099
26.9517 54.5727 0.791585
9.61525 -9.04401 0.17075
-12.6601 -19.6178 0.318031
-10.6049 -32.1923 0.46503
8.58676 -8.53028 0.183561
6.32652 -12.943 0.209842
7.17537 -11.057 0.201265
9.36995 -9.08356 0.18857
8.0478 -9.13163 0.194723
9.75135 -9.02914 0.219001
38.1724 -8.17853 0.64103
-23.4985 20.1514 0.553449
-32.7075 -22.0056 0.678238
-33.9306 -24.8946 0.73702
12.9655 -10.6512 0.2751
13.2785 -10.7101 0.319867
-9.85269 -12.4922 0.300298
6.85225 -11.2302 0.256572
8.00489 -9.40788 0.242955
27.542 56.6689 1.26172
6.99992 -11.0028 0.26222
9.19964 -8.70458 0.269148
11.564 -9.93959 0.334286
17.3185 -7.73557 0.382025
7.23444 -10.9764 0.297585
-9.39468 -12.1282 0.387959
-12.6697 -19.4494 0.554669
7.66204 -9.32846 0.275035
7.84667 -9.38382 0.284043
-25.224 21.2005 0.854731
-28.6406 -9.18443 0.754337
9.64289 -8.9722 0.338923
17.5876 -12.8482 0.549395
18.4331 -13.273 0.565218
-22.6224 19.8064 0.78229
-27.2722 21.5539 0.906261
-28.6553 -8.60033 0.782806
-32.7255 -17.4492 1.00701
-13.2227 -19.967 0.63668
14.8227 -11.5173 0.501077
22.8549 -3.3254 0.650141
-12.0841 -18.8426 0.647737
25.1218 -4.75915 0.744466
16.6079 25.7737 0.918583
-27.69 -20.3987 1.01763
7.24957 -11.356 0.404579
6.9846 -10.726 0.389884
14.9574 24.3659 0.877427
-7.59359 -8.77451 0.354681
13.0758 -10.6995 0.516104
-7.28982 -9.47461 0.366015
-28.2935 -7.98591 0.977908
-11.7931 -17.239 0.699546
7.88561 -9.3666 0.405204
16.2435 11.0978 0.70443
10.8849 -9.47805 0.524449
11.9266 -10.0768 0.56908
23.5161 47.354 1.98525
-7.4237 -8.1049 0.410642
9.67049 -8.97709 0.492712
22.9245 -3.21869 0.888939
27.6865 57.2328 2.4613
-7.416 -9.84326 0.481946
10.4547 -9.53527 0.555198
12.7674 -10.5448 0.669209
21.6629 -2.65506 0.889998
-28.8206 -17.4847 1.37823
8.75327 -8.71398 0.510553
-6.90012 -8.43699 0.468357
9.45506 -8.94429 0.544223
12.7748 14.6647 0.858778
-28.6261 -8.40119 1.3106
14.8773 19.3778 1.0978
15.2586 26.2721 1.35357
22.2169 43.6881 2.16738
6.21227 -13.8412 0.67645
10.8688 -9.53533 0.654045
18.5474 -1.64607 0.852024
19.8842 37.8602 2.00552
15.2045 26.7893 1.44414
-11.1398 2.76306 0.552195
-7.21516 -9.5104 0.575587
9.18429 -9.00194 0.609186
11.4218 -8.76303 0.674305
20.1861 -2.31329 0.978962
11.7037 11.9277 0.829758
16.5053 39.694 2.1132
7.77343 -9.47418 0.603289
10.2055 -9.29489 0.683702
14.7879 25.0761 1.45762
20.5772 39.9033 2.27875
21.0866 -2.62686 1.08074
-7.38061 -8.47932 0.583081
9.40225 -8.95206 0.676126
16.9292 24.8255 1.57843
16.8015 30.4593 1.81549
13.0476 -10.7547 0.898599
10.6258 12.4216 0.874161
14.3654 19.4999 1.30098
11.1013 -9.62605 0.79467
15.1611 19.7536 1.37319
-25.8824 19.8406 1.78097
-6.94691 -8.15015 0.59231
10.3202 12.4771 0.906702
-7.23555 -9.34059 0.661656
10.0567 12.528 0.93164
-27.3243 19.2373 1.89634
6.1347 -12.9561 0.820713
11.2525 12.1642 0.952342
-6.86566 -6.77584 0.559262
11.3425 12.095 0.976274
-6.78781 -8.38758 0.645661
6.27738 -12.6186 0.823498
14.7915 19.6804 1.48031
14.3044 23.3875 1.63535
13.6769 31.6084 2.06693
-6.09941 6.49633 0.546548
-8.14338 -7.71614 0.678411
-7.09609 -8.14048 0.663094
5.74662 -12.4977 0.831765
-7.46223 -6.87034 0.630838
7.02435 -11.1918 0.817099
7.00333 -10.5843 0.792187
11.3677 -9.81274 0.927614
12.162 -10.1741 0.982803
16.2895 7.21426 1.13517
15.038 19.4807 1.55697
-7.22078 -6.29293 0.62103
10.287 -9.39545 0.899257
-7.36159 -6.24526 0.633055
11.5472 12.1847 1.14378
9.67651 21.7839 1.62306
-7.2464 -9.61883 0.80454
11.7114 12.7021 1.18518
-6.94295 -4.44935 0.566946
-6.73407 -8.17875 0.722378
-6.68844 -4.42625 0.552951
9.29101 -8.88288 0.894984
10.0173 -7.85929 0.897027
12.8171 16.1542 1.49097
-6.65585 -6.64832 0.653474
9.83067 -8.30161 0.941001
11.5724 17.3036 1.56494
11.5121 18.3537 1.61841
9.70056 18.4633 1.57278
9.12722 19.7253 1.63469
7.46193 22.24 1.76362
10.8863 18.7905 1.65441
10.0342 -7.61313 0.963186
-7.01153 -7.17219 0.768402
-17.1081 -6.20521 1.42268
9.49023 -7.69381 0.957835
9.44118 18.8569 1.66445
-6.37112 -4.25409 0.607084
-6.8117 -8.19818 0.844871
4.83606 -5.73485 0.596487
9.13287 20.0929 1.75063
7.86566 19.2318 1.67073
5.03012 -5.7974 0.618453
12.8567 11.6013 1.40323
11.8529 11.9062 1.37567
6.74404 -9.40836 0.941011
12.3114 11.7756 1.40039
6.77917 19.9011 1.72106
-6.34727 -4.38164 0.628313
-7.13839 -9.44761 0.971847
11.622 12.176 1.39269
10.5252 9.2077 1.19078
-5.01727 -11.4469 1.05591
6.13186 -6.05189 0.752097
9.23366 -7.19337 1.00682
-6.7811 -6.67897 0.808461
10.5027 12.4467 1.42172
8.81243 -7.34307 0.997236
10.9015 12.289 1.43772
-7.2908 -7.7444 0.932339
8.20359 -7.30333 0.975289
10.2787 12.5636 1.45932
-7.05387 -7.72239 0.927233
-6.91947 -8.31802 0.970948
10.6713 12.4047 1.4859
10.582 13.6502 1.56486
-7.09755 -8.30554 0.995098
11.2867 10.9021 1.44341
-6.30571 -4.22529 0.697693
-6.84235 -8.56977 1.00326
-6.31942 -4.38813 0.708915
11.1387 8.59605 1.32037
10.6978 9.37825 1.32653
6.56443 15.5939 1.59152
10.5764 11.3782 1.47002
-11.185 2.86617 1.09042
6.16356 -5.97117 0.818207
8.01713 -6.6463 1.00034
10.7978 9.24647 1.3801
9.59853 12.6297 1.53608
9.78401 12.556 1.56836
7.72748 12.3585 1.44799
7.98029 13.3407 1.54753
11.2789 8.09944 1.41525
7.20131 12.8146 1.48365
9.1228 11.4328 1.48836
7.06415 13.6762 1.57552
5.9326 14.097 1.5704
9.25547 10.5517 1.45076
9.10035 12.3979 1.59805
11.4418 7.69403 1.43846
9.30754 10.0658 1.42749
4.97597 -5.82274 0.822343
-6.83516 -4.64875 0.871711
5.64033 14.0524 1.60753
-7.04749 -4.49925 0.891426
8.98583 10.767 1.50588
-6.75293 -6.76254 1.02212
5.91513 -5.83847 0.897843
9.74136 8.57673 1.39909
9.01256 9.41336 1.40179
9.31541 10.3845 1.51266
4.84215 14.0338 1.60264
4.24279 -8.06914 0.987569
6.51527 10.9001 1.39761
-6.79141 -3.91911 0.862817
6.40273 12.0054 1.50987
-6.88486 -3.85725 0.874003
9.7554 7.23843 1.35853
6.72354 11.475 1.48143
9.85001 7.06234 1.36171
5.48521 11.6935 1.46073
5.49351 12.2154 1.51312
4.75463 12.3737 1.50024
9.87817 6.71398 1.36133
-6.88138 -4.55667 0.944979
7.41814 -6.23969 1.10502
-7.31701 -0.783998 0.843422
-6.26623 -5.38309 0.951222
5.25341 -5.57257 0.883788
8.9213 7.93126 1.39085
4.424 -7.19283 0.978296
10.4545 5.17564 1.36624
9.00503 7.83393 1.40318
5.20472 -5.61621 0.904717
8.64763 7.96007 1.39477
8.95489 9.11012 1.49472
-7.03577 -5.64139 1.06688
10.1792 4.76641 1.33928
-6.90854 -3.84613 0.952465
9.18034 6.17141 1.34176
5.26255 11.5356 1.53739
-6.88325 -3.06112 0.915051
-6.86772 -3.24689 0.918385
4.8853 -5.9579 0.94049
5.98179 -6.13718 1.04355
9.41219 5.64559 1.3569
8.50458 7.26072 1.38274
-6.94008 -4.3041 1.00576
-6.87171 -4.52831 1.01406
8.30715 8.63573 1.48681
5.08233 11.4301 1.55367
-6.54072 -5.60955 1.07219
3.71427 -7.58568 1.05259
8.54838 7.78397 1.44682
6.0854 -5.62438 1.03902
9.20694 6.08763 1.39888
-6.127 -5.40636 1.03091
8.58913 6.64464 1.38501
8.13045 7.54884 1.41148
-7.08901 -1.7799 0.934564
-7.00257 -2.30241 0.941138
-6.43678 -5.31151 1.06458
8.8657 5.68391 1.35023
8.20035 8.09028 1.48488
-7.25009 -1.25091 0.943099
-6.88795 -4.11298 1.03696
7.46485 6.24893 1.26101
8.11823 7.07576 1.39659
8.01393 8.17126 1.4833
-6.90013 -2.82202 0.970293
-6.90143 -2.9617 0.97068
4.59463 10.1752 1.46764
9.02812 4.12482 1.30662
-7.23447 -1.60321 0.973505
6.84777 -4.26428 1.07224
4.93323 -5.9497 1.02479
-7.31884 -1.11497 0.990659
-7.00284 -2.19576 0.981456
-7.03983 -2.26488 0.987715
-5.98823 -4.39327 0.992365
5.19499 -6.57319 1.11668
6.91877 -4.18116 1.08844
8.11329 7.20564 1.47021
-7.13862 -1.71516 0.986738
-7.07053 -1.95235 0.986281
8.82629 4.87287 1.36949
8.36678 5.89773 1.39195
-6.91094 -3.61373 1.06247
8.89702 4.17564 1.3482
3.38531 10.6404 1.52924
-7.29853 -1.1976 1.01215
-6.00335 -4.43642 1.02646
-5.98386 -4.53512 1.02771
7.15734 -3.93935 1.12302
8.10849 6.51531 1.43876
5.39591 9.12029 1.46774
-6.37404 -4.31587 1.05511
4.93737 -5.53085 1.03004
7.19509 -3.83497 1.13486
7.57091 -3.69186 1.1656
3.65785 10.1482 1.50263
3.47323 10.4514 1.53605
-7.35444 -1.07995 1.03744
-7.06146 -2.00032 1.0225
4.97644 -5.29207 1.01561
7.25703 -3.74295 1.14727
7.37391 -3.6777 1.16885
7.88542 -3.36206 1.21878
-7.14193 -1.87135 1.04972
-6.99707 -2.94121 1.09969
-6.00125 -4.36853 1.0674
7.92018 -2.78758 1.22863
8.26347 4.63805 1.38855
5.03016 8.61731 1.46279
8.40099 4.52402 1.41038
7.84548 -2.34527 1.20721
7.17741 5.71367 1.37401
2.99508 9.561 1.49871
-7.08124 -2.01589 1.1032
7.49733 -3.11531 1.22408
8.25977 4.56484 1.4307
5.8216 7.48712 1.44046
5.32606 7.6839 1.42499
5.1629 7.99918 1.4465
5.11676 8.1098 1.45166
7.34679 -3.17544 1.22259
7.69427 -2.76149 1.24502
-6.74428 -1.67981 1.04664
7.84753 -2.26141 1.25253
7.26684 5.45011 1.39503
-7.09065 -1.94886 1.14088
-6.90866 -2.78133 1.15732
6.84538 5.5525 1.38279
-7.34033 -1.0935 1.15889
-7.13114 -1.82079 1.15242
-7.03407 -2.06384 1.14835
-7.10793 -1.86904 1.1531
-6.88401 -2.92952 1.17426
4.84398 7.51107 1.42179
3.4467 -6.03272 1.10954
-7.26142 -1.29685 1.18138
3.52792 -5.70748 1.08103
3.56474 -5.61277 1.07041
7.10837 4.79158 1.39715
4.69661 7.43363 1.43148
-7.05859 -2.0199 1.19629
-7.08044 -1.94345 1.20458
7.00356 4.85316 1.40943
3.85342 8.00567 1.47153
6.06127 -3.3237 1.15166
6.67005 4.90006 1.38023
4.69777 7.22063 1.43738
3.83638 -5.30056 1.09985
7.14283 4.44796 1.41708
7.50706 2.87059 1.35849
6.35748 5.31469 1.40471
-7.26492 -1.25328 1.25516
6.78715 4.10355 1.36234
-6.44147 -2.7679 1.19605
5.51505 -3.63335 1.13462
5.69727 -3.5226 1.15017
2.78559 7.93949 1.4554
-7.35778 -1.03745 1.28794
5.33851 -3.78677 1.14106
-6.30188 -2.2564 1.16047
-6.26265 -2.41335 1.17495
4.28177 -4.66538 1.10746
4.49534 -4.47852 1.11322
4.59339 -4.45068 1.12219
-6.78968 -1.72966 1.234
4.36517 6.54927 1.40448
-7.14581 -0.926508 1.28773
-6.13589 -2.2547 1.16417
6.67155 3.70986 1.36867
6.13206 4.38484 1.36766
3.6082 -5.32676 1.17015
5.18145 5.72266 1.41241
2.54261 7.27708 1.44881
6.51342 3.06558 1.36137
-1.70739 -5.78527 1.14158
6.4391 -1.3887 1.24997
6.29932 2.78954 1.32665
6.24248 2.39079 1.33392
-4.43725 3.92619 1.39221
4.34436 3.55027 1.34236
4.22828 3.30583 1.32913
4.66756 -1.67858 1.24573
4.82225 -1.38194 1.25514
-2.13234 4.77601 1.30543
3.72508 -2.95146 1.22201
3.6712 -2.54822 1.19327
3.40378 -2.95928 1.22506
4.01537 2.57668 1.3337
-2.59627 -3.53639 1.25132
-2.32805 -3.57331 1.21688
3.76272 2.06224 1.30494
3.73901 1.98426 1.30426
-2.83493 3.4756 1.38263
-2.29836 -2.42112 1.1878
1.95077 -2.77483 1.21054
-2.11995 2.76173 1.32144
-2.02526 2.74998 1.32767
2.24695 -1.86664 1.22382
2.37693 -1.49626 1.22124
-2.01403 1.87466 1.29387
-2.06601 -1.44388 1.22864
1.44567 -2.06512 1.24315
-1.99378 -1.08834 1.21454
-1.92601 -0.70796 1.21989
-1.92773 -0.703734 1.24546
-1.95651 -0.344467 1.22855
-1.89387 -0.5649 1.22971
-1.89345 -0.531092 1.23478
8.24532 -8.72594 -7.48783
12.1741 -10.328 -8.83443
-8.66849 15.4713 -6.87938
20.7979 25.3286 -11.7766
-8.78239 -2.51515 -2.5742
-33.9947 -22.7086 -7.55261
-33.6131 -21.982 -5.92646
-33.34 -22.6572 -5.9867
-30.8118 -19.7606 -2.75296
9.31974 -8.87686 -0.393169
-7.51609 16.2011 -0.440858
-29.177 -11.2905 0.720467
-6.90124 -8.24812 0.459279
16.9686 24.3662 1.61294
11.5213 16.2033 1.64445
-6.6821 -6.65516 0.881713
4.28282 12.4279 1.51526
8.78965 9.15574 1.48469
7.99925 -8.79302 -10.4136
8.86378 -8.56992 -10.5343
6.97924 -11.9735 -11.5486
6.89427 -11.3844 -10.9282
8.18021 -8.29252 -9.56451
7.04313 -12.0632 -11.358
7.08922 -11.0075 -10.4886
8.02978 -8.40627 -9.23496
6.74959 -11.3201 -10.3207
6.46594 -11.7328 -10.2438
7.78417 -8.88072 -9.00237
6.22572 -14.3591 -11.8427
8.32919 -8.73262 -9.13416
6.32008 -11.9453 -10.2058
6.16599 -12.1222 -10.1408
7.51873 -9.4794 -9.03322
7.9369 -9.0869 -8.95696
10.5162 -9.49355 -10.5362
6.13725 -14.1494 -11.3991
6.11583 -13.697 -11.0282
6.15023 -12.6131 -10.3204
9.23327 -8.86077 -9.38721
9.32159 -9.1085 -9.50502
5.88322 -12.5417 -10.0627
9.39764 -9.02473 -9.29808
6.8871 -11.166 -9.3099
5.63274 -13.0065 -10.0311
9.73323 -9.11949 -9.45192
7.63619 -9.37694 -8.50185
10.0406 -9.22618 -9.57904
10.9664 -9.53569 -10.1966
11.4967 -9.74564 -10.1211
8.41595 -8.63972 -7.98489
7.45856 -9.33298 -7.89339
8.19932 -8.75213 -7.92659
7.65684 -9.38675 -7.92469
7.86656 -9.43708 -7.87369
8.35245 -8.56777 -7.64861
0.354376 15.8617 -10.1233
7.55636 -9.35916 -7.65435
10.9624 -9.65227 -9.28616
7.25582 -10.7454 -8.20539
8.18633 -8.52956 -7.45543
4.62361 -15.4349 -10.1328
8.74533 -8.7319 -7.64584
7.9513 -9.06612 -7.43788
4.05679 -18.0445 -11.392
8.22878 -8.65987 -7.30272
4.09058 -17.3158 -10.8563
0.140637 14.865 -9.04543
6.68116 -11.3064 -7.995
7.7712 -9.30174 -7.35393
10.1745 -9.35722 -8.38699
6.8475 -11.2944 -7.9285
8.0921 -9.24008 -7.37234
11.3251 -9.74489 -8.93203
5.41917 -13.9004 -8.84771
7.76458 -9.30117 -7.18489
9.3904 -9.07123 -7.73608
6.93022 -11.1592 -7.77395
8.01426 -9.16287 -7.14247
9.79664 -9.22856 -7.84309
14.9472 7.4694 -9.70627
8.70377 -8.86797 -7.1795
6.96005 -11.0064 -7.48356
2.64701 -11.2384 -6.63972
7.89036 -9.10643 -6.90055
9.6484 -9.18109 -7.56508
10.8435 -9.53954 -8.14678
0.125838 15.3033 -8.63201
3.27747 -20.564 -11.7105
6.82622 -11.0216 -7.26737
10.1526 -9.33371 -7.72272
12.4105 -10.4132 -9.08427
9.27969 -9.04552 -7.24085
4.63198 -14.3384 -8.39963
8.03698 -9.25416 -6.80685
14.8705 7.60302 -9.17092
9.74084 -9.14755 -7.33835
0.831719 17.4751 -9.55456
2.73789 -19.806 -10.9026
11.1847 -9.692 -8.03503
4.25153 -14.4788 -8.16743
14.7831 7.73135 -8.98775
15.1899 10.4883 -9.91305
14.1128 7.78624 -8.61415
11.0043 -9.66472 -7.78771
13.3435 -10.8659 -9.15303
3.03976 -19.2865 -10.2643
11.4129 -9.87413 -7.67837
2.16684 -20.3345 -10.3216
10.3111 -9.38745 -7.01137
14.3553 -11.354 -9.18869
13.8931 -11.237 -8.94451
11.0641 -9.70422 -7.33146
7.5377 -9.37369 -5.95629
3.5699 -8.48373 -4.53586
-8.67839 -1.90545 -4.36817
2.21836 -20.0872 -9.91249
4.53997 -9.31456 -5.06753
0.39923 13.6618 -6.69129
7.63673 -9.30497 -5.87358
-8.40799 16.04 -8.76847
-9.17592 -2.42574 -4.57296
15.0944 -11.6562 -9.16393
19.5164 5.58415 -9.70899
-10.2816 -2.54556 -5.00975
1.90835 -20.5087 -9.79422
17.3767 16.331 -11.2969
7.61518 -11.2574 -6.41239
20.1774 5.44632 -9.84333
14.1109 -11.1715 -8.36871
2.93912 -17.3775 -8.1942
19.4964 5.76864 -9.39408
17.9798 -13.1027 -10.2754
9.88944 -2.49801 -4.71336
20.4349 5.17953 -9.72746
17.5059 16.4634 -11.0763
1.80695 -20.1554 -9.2616
9.71123 -9.08061 -6.08767
-9.18534 -1.66723 -4.25728
9.47446 -3.47657 -4.59685
6.74215 -11.3649 -6.00981
9.93704 -2.62478 -4.66233
19.389 5.91241 -9.12698
17.9109 17.7674 -11.3442
9.38991 -3.09323 -4.45044
15.5379 -11.9561 -8.79728
7.06821 -11.6121 -6.07974
7.17897 -10.9582 -5.83871
9.58138 -3.41269 -4.53288
-9.90564 16.2313 -8.46323
17.7889 -12.9822 -9.78502
19.6783 5.66887 -9.07788
16.2151 7.35514 -7.88605
18.0231 18.206 -11.3327
16.5419 -12.3022 -9.08498
-11.121 16.9078 -8.89244
-6.49872 14.8448 -7.10256
-5.21256 4.88844 -3.11255
20.2843 5.5076 -9.13897
9.58027 -3.41295 -4.38943
18.4287 18.68 -11.2811
15.9315 -12.2598 -8.64937
14.961 7.48069 -7.14026
3.84786 -9.32373 -4.28513
-11.0499 16.8025 -8.51113
6.97142 -10.9482 -5.47239
-13.5119 3.31137 -5.86076
0.742709 -22.2723 -9.39154
15.9086 -12.0449 -8.34408
-5.13837 5.6573 -3.19632
0.996459 -22.1294 -9.28642
1.23239 -20.7399 -8.70395
14.2631 7.65003 -6.77112
18.7743 19.5669 -11.3331
3.79072 -8.97297 -4.06186
14.8732 7.78336 -6.98905
18.1304 19.3654 -11.0118
-9.48519 -1.08863 -3.94095
4.0129 -8.51363 -3.85609
14.13 7.80248 -6.62766
6.87097 -11.0295 -5.31208
-13.5546 2.53203 -5.64041
-7.88605 15.2728 -6.98241
19.5071 21.1984 -11.674
15.1778 7.29318 -6.78614
-5.23176 14.2789 -6.0949
14.0405 -11.1002 -7.00967
1.53581 19.3599 -7.54502
-8.658 15.6329 -6.942
19.1332 5.83506 -7.75154
-1.74771 13.2073 -5.15913
5.3112 -9.42097 -4.17042
-2.37349 13.4127 -5.2304
19.8632 22.98 -11.6502
4.67024 -8.53277 -3.69396
19.5654 5.61301 -7.74653
0.870427 -26.2251 -9.97323
15.0056 -11.5632 -7.1286
20.1314 5.45407 -7.80725
9.46507 -3.44852 -3.7666
0.530181 -22.4243 -8.36051
3.26134 -10.8353 -4.2268
20.4819 23.831 -11.6727
0.908613 -8.70808 -3.24716
14.1144 -11.1776 -6.63822
20.545 5.22546 -7.79544
18.0951 17.8812 -9.29921
-12.9761 2.27328 -4.78916
21.1623 25.2736 -11.9589
2.29522 -13.2986 -4.86123
13.1095 -10.6013 -6.06625
0.793917 15.4883 -5.5506
-8.18205 -2.79216 -3.09222
0.408922 -21.6475 -7.74078
-4.18119 13.7118 -5.09682
0.63654 -21.7705 -7.74064
15.9708 -12.062 -7.0929
-15.5551 17.9816 -8.37721
5.94747 -11.3733 -4.51231
-10.9075 16.458 -6.89395
0.0950359 -18.369 -6.45807
14.3534 -11.3751 -6.40323
20.5003 5.39903 -7.40046
0.655236 -22.8573 -7.89793
-4.96689 14.4103 -5.2202
3.64682 -8.46532 -3.17269
4.88873 -9.05514 -3.5261
-14.3421 17.8044 -7.8236
2.27954 -10.904 -3.81728
-8.79306 15.9476 -6.2055
3.04638 -13.7777 -4.80981
-14.8117 18.1781 -7.94723
20.3172 5.52403 -7.07782
22.4331 27.7532 -11.9305
36.6375 -20.6816 -14.0576
-5.25437 13.93 -4.9424
1.92459 20.9145 -6.97156
1.26782 -10.2459 -3.41358
32.9371 -20.7054 -12.7925
-5.20362 14.3208 -4.94674
-12.4497 17.0421 -6.84458
18.7274 -13.3449 -7.46674
3.56424 -8.68249 -3.00913
6.24189 -10.1482 -3.81784
2.31613 -11.0163 -3.5822
-4.47195 -33.6204 -10.7823
-1.12147 -23.5564 -7.50834
15.1463 10.4317 -5.80569
-13.0639 17.3823 -6.87109
-17.7697 19.1654 -8.21411
3.00628 -9.69503 -3.20227
6.99413 -11.1457 -4.06759
1.37978 -21.7635 -6.74649
-2.53323 -27.0136 -8.33009
7.30611 33.7693 -10.5479
0.769214 15.0813 -4.58822
-11.0076 16.6068 -6.00315
-2.65465 -26.091 -7.89991
-14.1786 17.7265 -6.7713
-5.20458 -34.1532 -10.2884
0.831898 -24.767 -7.41072
-5.33357 14.6628 -4.63903
2.09369 20.8817 -6.18572
-21.0056 19.5855 -8.47189
18.348 5.83881 -5.66851
-4.2548 14.2808 -4.3794
-7.839 15.205 -5.01691
4.26834 -9.16974 -2.97253
4.65671 -11.6664 -3.67244
-12.5597 2.21256 -3.66515
-32.1503 -45.5426 -16.0436
-15.0169 18.0644 -6.75138
6.99487 -11.1404 -3.78648
2.56881 -9.56297 -2.81328
13.0096 -10.5302 -4.76266
-8.43056 -2.45355 -2.48968
21.44 27.653 -9.91707
-8.55706 -2.25532 -2.50059
-2.50365 -25.5705 -7.21238
-12.9635 1.98651 -3.6521
4.40935 -11.3836 -3.38774
-9.19988 15.8194 -5.02227
-12.9032 17.2077 -5.90595
-5.33035 14.2205 -4.14881
-8.29545 -40.3018 -11.2605
-21.1831 19.7673 -7.78781
-9.61474 15.9415 -4.98731
-26.3348 20.2297 -8.83348
11.5375 11.6128 -4.32115
4.34891 -11.3516 -3.2198
47.9555 -13.9406 -13.2286
-7.97367 -37.6391 -10.1156
4.10277 -8.68541 -2.52901
11.231 -9.98936 -3.93165
-14.2694 17.8657 -5.94396
6.56249 -10.4647 -3.19675
3.18773 -9.67434 -2.63299
-29.3778 -43.0276 -13.4554
-4.26121 -27.9602 -7.32012
3.55557 -10.4134 -2.83691
4.08215 -9.41884 -2.6382
15.7262 -11.825 -5.01975
-7.06023 15.0384 -4.20311
-30.8204 -41.1034 -13.0296
4.33281 -11.1973 -3.03823
4.26648 -7.72522 -2.24589
6.56827 -10.7136 -3.1336
45.5745 -13.7791 -11.8695
-27.8388 21.0032 -8.62083
-11.3843 16.7244 -4.98601
-27.0169 -39.4129 -11.7505
-9.63189 -37.9186 -9.65285
-24.1265 20.2641 -7.74186
4.36636 -10.3698 -2.76409
-11.9103 17.059 -5.04312
-7.74554 15.0891 -4.08638
10.3233 -9.3116 -3.32852
40.8966 -13.5848 -10.3111
15.2286 7.61612 -4.05459
-6.15029 -35.2359 -8.52291
3.97622 -9.11117 -2.35534
47.817 -12.7978 -11.7471
-11.7835 -43.394 -10.6548
4.21929 -9.02799 -2.37698
3.8854 -11.1434 -2.78064
4.92437 -8.72147 -2.35598
-12.6131 17.1878 -4.96021
11.0642 -9.69603 -3.3621
-6.06004 -30.7404 -7.15097
-26.7411 20.6534 -7.65846
42.1518 -9.21849 -9.79098
-29.9955 21.7782 -8.31008
-34.9233 -22.8861 -9.35641
-5.26932 -25.0926 -5.71921
41.3362 -12.7783 -9.71345
5.47453 -9.50863 -2.44942
-12.3478 2.8175 -2.77893
41.2129 -12.0775 -9.48776
43.2394 -12.3374 -9.89167
28.1235 39.6108 -10.644
-5.30041 13.9029 -3.25142
13.4799 -10.8471 -3.808
38.5938 -12.4027 -8.91089
-23.0412 20.0816 -6.62899
-28.1039 -69.291 -16.2285
4.32665 -9.7379 -2.31044
4.55566 -9.21359 -2.21983
-14.3779 17.9129 -4.90423
-30.4098 22.0891 -8.0251
-31.2651 22.1877 -8.19478
-26.691 -70.8181 -16.2259
-10.5404 16.4693 -4.14481
-8.22703 -34.9299 -7.63302
3.20363 -9.7251 -2.18307
3.98423 -9.87365 -2.2698
46.5447 -10.7915 -10.1983
15.0596 7.54329 -3.57179
-14.9411 18.392 -5.01589
5.1817 -9.08577 -2.19727
27.3076 39.5125 -10.041
-27.2707 -26.6874 -7.92352
15.1034 7.90447 -3.54019
-29.7472 -22.9738 -7.79767
-31.0406 -79.5925 -17.6909
41.1003 -11.0608 -8.80154
-11.2863 16.6284 -4.08273
-15.3991 18.2065 -4.85354
-34.5212 23.1733 -8.44829
45.1309 -9.84415 -9.41894
-12.839 -41.3145 -8.79519
4.15276 -9.77376 -2.16027
4.27658 -9.73882 -2.16787
11.6682 -9.69952 -3.08684
-11.8247 16.9686 -4.12751
-19.117 -54.8689 -11.615
-12.6183 -39.2009 -8.15512
4.0867 -9.96211 -2.13162
-33.629 -22.9952 -8.03169
-26.3003 20.6415 -6.57965
-32.6791 -23.3759 -7.83277
-6.77932 14.9782 -3.1897
-25.4915 -59.8988 -12.6469
-33.0961 -22.0331 -7.66242
3.44949 -9.39922 -1.93307
46.6195 -10.8015 -9.18833
-12.5585 17.146 -4.06193
4.00484 -9.38153 -1.94638
-35.9184 -21.8179 -7.95592
-20.8652 -33.8951 -7.57072
-15.0918 -43.5473 -8.72253
38.4331 -12.6782 -7.64969
-35.2481 23.6738 -7.94605
-33.216 -22.9396 -7.58393
-32.1834 -23.5466 -7.48621
-20.5664 -50.9531 -10.341
-16.3611 -44.4432 -8.78667
3.83183 -9.23439 -1.8465
43.2329 -11.6521 -8.31387
5.7816 -9.75311 -2.07767
-23.6286 -53.5794 -10.723
-19.7748 -49.0846 -9.57309
-14.3356 17.8695 -4.06136
-30.655 -24.724 -7.001
-20.0155 -26.6714 -5.96385
-38.5555 24.3291 -8.04362
-26.306 20.6553 -5.82107
-33.4333 22.8783 -7.03377
3.92699 -10.0944 -1.87785
4.78711 -8.6401 -1.71644
14.1074 7.57618 -2.76271
14.1864 8.14091 -2.80225
-30.2642 22.0078 -6.41481
42.9069 -12.1394 -7.5907
42.6869 -11.0556 -7.50567
-30.8129 -24.4713 -6.67551
-20.7211 19.7342 -4.80466
-19.6929 -48.9499 -8.91682
14.9724 7.50424 -2.80963
-31.1162 22.0285 -6.36815
-22.6909 -54.1005 -9.69575
44.2768 -11.9279 -7.45243
-10.1827 16.1653 -3.08212
-19.9576 -49.5128 -8.51575
-34.3733 -23.7281 -6.58222
-22.4028 19.6828 -4.66934
-23.7674 20.2894 -4.84305
-39.2538 23.767 -7.1109
-11.0383 16.5207 -3.06651
3.48765 -9.57143 -1.57525
3.88963 -10.2854 -1.70232
-7.47601 15.1625 -2.58102
-30.4825 22.1862 -5.76312
-31.3061 -24.1799 -6.01561
-27.5472 -25.7674 -5.71487
42.8857 -11.149 -6.73461
45.6127 -9.9375 -7.11136
-6.41738 14.2926 -2.34304
9.86315 -5.17001 -1.65286
-33.0024 -23.8031 -6.06016
-25.2702 -63.8982 -10.1928
10.2446 -9.21107 -2.05289
45.7641 -10.5871 -6.97504
-36.0869 -24.0226 -6.38071
-31.0441 -25.6064 -5.88722
-12.2795 -40.6888 -6.2549
17.0595 -12.3425 -3.08386
-24.9493 20.5416 -4.69643
-23.8198 -53.372 -8.42342
-7.47643 14.9739 -2.39219
-12.5024 17.0462 -3.0134
6.07363 -11.6034 -1.8711
-13.1856 17.6238 -3.09125
-34.0113 22.9755 -5.77054
6.79877 -11.1054 -1.81964
38.1514 -12.5908 -5.64982
-30.7035 -24.6027 -5.49153
-32.3462 23.2458 -5.51812
-19.909 -47.9849 -7.17662
45.9204 -10.273 -6.48785
-6.73148 14.8861 -2.23153
-21.6974 -56.6285 -8.2396
7.78497 -9.42117 -1.63997
9.22728 -9.08362 -1.78587
-13.7722 17.5849 -3.01059
13.3056 -10.6123 -2.30256
-21.8467 19.8724 -3.97113
42.8121 -11.0692 -5.86992
45.6344 -9.99591 -6.18269
-22.2284 19.5613 -3.87183
-32.2123 -24.1039 -5.25547
-14.6477 17.9367 -2.99392
-33.3658 22.2701 -5.20822
-37.8077 -15.9639 -5.29939
7.05336 -10.4898 -1.62162
10.8574 8.8895 -1.80273
-33.3183 -22.9607 -5.17864
-30.8298 22.5066 -4.82864
-35.0652 -21.8809 -5.1811
42.6641 -11.0337 -5.51412
6.83151 -10.4218 -1.55687
-7.50694 15.0149 -2.07773
-24.5753 20.6355 -3.92946
-32.7287 23.0664 -4.93931
6.33826 -12.1557 -1.66972
45.5836 -9.72529 -5.70829
15.1217 7.92245 -2.0532
-17.4407 -42.2412 -5.51146
7.1243 -10.5882 -1.53636
-20.3285 9.00944 -2.63207
-13.8642 -41.9398 -5.19481
-31.3911 -24.2019 -4.6352
-30.8817 -24.6975 -4.62772
42.7563 -11.4532 -5.20169
11.2939 -9.72606 -1.72658
-29.311 22.2251 -4.23227
6.67924 -10.8829 -1.46158
7.52003 -9.25849 -1.36425
11.6502 -9.78014 -1.72748
9.47797 -4.62381 -1.19429
15.0986 7.75884 -1.91384
-10.1643 16.1813 -2.15611
-31.5446 23.05 -4.37705
39.4993 -13.0028 -4.66269
9.40035 -9.06513 -1.44465
-10.873 16.3072 -2.13029
6.8458 -12.8882 -1.58042
45.7307 -9.93899 -5.07269
10.8576 8.92249 -1.51545
16.9166 -12.5662 -2.26133
42.9594 -11.1419 -4.75485
9.66458 -9.02123 -1.40055
8.41254 -8.49801 -1.25259
-30.459 -24.3742 -4.06249
-28.9824 -58.1332 -6.77713
15.0946 7.5702 -1.72593
-31.3354 -24.1615 -4.0602
-12.6332 17.2217 -2.16852
-12.5593 16.8266 -2.0869
10.2581 -9.13306 -1.34537
-20.0735 -50.9798 -5.37215
6.36474 -12.1888 -1.33056
16.7825 -12.2784 -1.99849
42.8487 -11.5141 -4.25233
-29.4574 -59.5447 -6.31581
-20.0015 -52.4905 -5.33534
-22.9056 20.0354 -2.84517
46.4644 -10.3366 -4.44535
9.76277 -9.02986 -1.23094
40.36 -13.3139 -3.95959
-14.7595 18.0928 -2.11456
-29.3756 -13.3932 -2.94325
-31.001 -60.4341 -6.26119
15.9851 -11.9647 -1.81604
8.673 -8.76439 -1.11647
12.9761 -10.7112 -1.46497
46.0437 -10.6722 -4.04825
9.4459 -9.07027 -1.10073
11.0114 -9.69695 -1.23315
-33.462 22.9802 -3.37859
16.9851 -12.3862 -1.74084
-16.3997 -42.675 -3.66217
14.793 -11.5672 -1.49718
-11.4618 -32.0881 -2.68975
-29.2418 22.2344 -2.84144
-32.4233 22.9183 -3.06585
-21.915 -50.0599 -4.2191
-49.8225 27.1159 -4.29636
-21.0148 19.7783 -2.09966
-32.6466 23.0922 -2.89876
16.5175 -12.3419 -1.50807
42.8818 -11.4754 -3.23348
-37.4052 -70.7743 -5.77719
14.0752 -11.1364 -1.28425
-15.0962 -40.0465 -2.95405
10.8247 -9.66725 -0.994218
-22.9277 20.0755 -2.05871
12.9549 -10.6898 -1.12414
18.1174 -13.1404 -1.49176
-22.4765 -51.7845 -3.73131
16.1753 -12.2349 -1.33915
-14.2307 -39.4559 -2.71336
44.7059 -11.6271 -2.8868
-30.485 -61.7677 -4.2033
36.3616 -8.82146 -2.2959
43.8319 -10.0325 -2.75999
6.10657 -13.2001 -0.869057
31.4214 -20.7916 -2.25384
-9.64827 16.1066 -1.10383
-15.1179 -39.4365 -2.40492
16.7528 -12.5202 -1.17401
-9.63113 -12.4852 -0.864237
15.0885 7.74095 -0.917399
14.0003 -11.0827 -0.955976
-12.5584 17.0188 -1.10508
-16.0012 -39.6603 -2.27123
14.9827 7.87836 -0.830144
-15.8158 -40.4273 -2.12991
-13.8994 17.6177 -1.07355
9.61105 -9.06581 -0.605916
-23.0616 -52.9005 -2.61104
12.53 -10.3008 -0.751855
-15.4681 -43.1189 -2.03364
-16.6977 -41.1397 -1.90064
6.91418 -12.7673 -0.643981
-13.4591 -41.028 -1.8391
-51.1638 27.825 -2.36063
18.5121 -13.2997 -0.924786
16.9488 -12.5981 -0.8222
-39.2205 -76.1233 -3.22993
-17.5854 -46.1148 -1.81735
-32.952 22.6413 -1.46321
43.3695 -11.1748 -1.61216
-32.8731 -65.3902 -2.44801
-24.8537 -54.4669 -2.01527
20.5414 23.7574 -1.04379
-21.0574 19.733 -0.940957
8.19942 -14.4716 -0.558428
9.46601 -9.0368 -0.424161
11.365 -10.0053 -0.492079
18.7702 -13.272 -0.755236
35.3603 -13.3368 -1.25368
22.4325 27.1546 -1.13047
-27.1042 -13.5952 -0.950712
-22.4878 20.0257 -0.918419
-31.0683 22.0044 -1.18906
-23.9561 -55.0757 -1.85962
-13.4142 -37.9489 -1.23947
-20.6515 -52.6797 -1.7127
-16.0584 -43.5217 -1.32863
-33.5507 -20.3425 -1.04522
11.5145 -9.76823 -0.404407
16.4758 -12.2545 -0.541081
-40.1004 24.8078 -1.24464
-29.6775 22.582 -0.923514
-30.1963 22.1304 -0.885983
9.61331 -9.04986 -0.305795
-40.6021 14.0333 -0.950444
-30.4018 -50.9084 -1.33498
21.4989 -14.3786 -0.568204
30.9767 -18.7835 -0.817107
14.3165 3.9565 -0.303219
28.5488 49.8888 -1.05837
23.7853 -11.0734 -0.461804
48.0855 -11.0728 -0.917292
-30.2237 -21.7197 -0.678757
-29.0958 -28.5778 -0.646594
-18.3593 -45.0495 -0.809522
12.803 -10.5284 -0.272602
18.7015 -13.5137 -0.352363
-28.9629 -12.8732 -0.416355
-32.3386 -24.2013 -0.562027
-31.8326 -64.1718 -0.966186
-26.5986 -56.6103 -0.856283
-33.4322 -22.8323 -0.528642
-29.6937 22.5909 -0.440226
17.1491 -12.8066 -0.253924
29.758 -18.4515 -0.411551
-30.1603 22.1421 -0.417561
-37.3967 -20.8958 -0.482427
-18.5152 -42.4635 -0.495057
-11.699 -35.2134 -0.373189
-32.1405 -56.6311 -0.599145
-14.0647 17.841 -0.175001
-26.4479 -13.3342 -0.239352
-14.7436 17.9726 -0.159626
-22.1622 19.793 -0.153764
-20.6316 19.352 -0.1295
-10.4944 -13.4915 -0.060033
14.8495 7.80083 -0.0205442
11.1714 -9.82341 -0.00774229
-34.0319 -18.6399 0.0590715
-11.0588 -32.8669 0.113499
17.1058 -12.428 0.0919761
-18.2544 -41.9085 0.203946
18.9624 -13.3605 0.123454
7.23248 -12.4326 0.105025
26.2992 -10.7901 0.175161
-54.0463 19.2985 0.545938
16.3867 -12.1444 0.194932
38.0318 -7.76479 0.366696
-28.7972 -8.12009 0.349644
-35.7475 -21.5764 0.460463
-11.0669 -31.7081 0.360874
-52.9294 29.0086 0.736617
-12.395 -34.3474 0.435462
-10.0486 -30.8873 0.390379
6.38925 -13.0599 0.185633
7.25891 -11.183 0.175346
-27.651 21.7053 0.537211
11.3788 -9.93765 0.22722
-23.6896 20.259 0.513536
10.9617 -9.78756 0.230728
13.0601 -10.7516 0.266646
36.952 -7.90842 0.629117
-34.049 -22.8121 0.745527
-30.6318 21.9021 0.738307
6.19968 -12.9534 0.278665
7.06555 -11.1193 0.253842
8.06342 -9.46195 0.242804
28.9455 59.519 1.43831
7.76461 -9.48733 0.277203
10.1807 -9.22116 0.331447
-28.5356 -9.15015 0.721533
-22.905 19.9927 0.821596
-27.0698 21.3447 0.924137
-28.6639 -8.60672 0.788331
9.23201 -8.93646 0.347135
9.67014 -8.98774 0.359915
-25.1185 21.1703 0.891509
25.6215 -5.18333 0.728028
13.0699 -10.722 0.503703
15.1311 24.6497 0.891863
6.24543 -12.8842 0.450534
7.50802 -11.7039 0.436378
-28.2018 -7.95373 0.961083
-12.4917 -19.1262 0.752863
-27.89 -8.71692 1.00998
16.2696 11.1357 0.712355
-29.4818 -18.2687 1.21228
16.1473 28.0495 1.15457
-30.103 -16.4202 1.27061
23.7425 -4.28735 0.871852
-27.5139 -19.5683 1.25113
-7.27809 -7.93558 0.406255
9.09204 -8.86616 0.472092
12.5706 13.751 0.718098
27.2974 56.3129 2.36931
26.1189 55.6099 2.31279
-11.5106 -9.11109 0.578742
8.76038 -8.70588 0.488595
-25.2137 20.7702 1.32503
22.0109 -2.98314 0.900033
-28.485 -17.3018 1.36529
9.45781 -8.96792 0.534424
12.6043 14.5166 0.826875
6.62982 -12.5556 0.602892
15.0907 19.608 1.08749
21.2528 29.3558 1.58689
-9.44083 -13.727 0.732373
-9.91157 -15.5012 0.816903
7.64251 -11.015 0.590673
8.66055 -8.75042 0.556383
24.4023 -3.73827 1.11482
-29.5781 -8.61944 1.40592
6.78315 -11.1514 0.600522
-8.25166 -8.12057 0.544754
22.143 44.6763 2.38515
-28.2503 -17.4597 1.56982
-9.71337 -13.6248 0.796501
9.70567 -9.00523 0.623622
16.1757 44.9519 2.31219
-29.9449 -13.2634 1.56301
-6.74726 -8.22586 0.523436
15.0218 34.9338 1.94006
-29.4524 -11.5335 1.58711
-7.57701 -6.96728 0.520179
-6.68671 -7.58008 0.511235
16.5261 29.937 1.7753
10.6466 12.4493 0.88509
14.4366 19.6458 1.30879
9.38703 -8.96569 0.695521
15.0303 19.5564 1.3617
15.563 24.037 1.57655
-27.076 19.0644 1.81389
-6.95724 -8.1762 0.595271
-26.0075 19.9557 1.82136
6.14746 -12.98 0.803446
-7.08707 -9.13331 0.659223
10.0505 12.5538 0.945612
15.2068 25.6216 1.74046
6.51818 -13.0914 0.841524
14.0839 22.9776 1.59171
-8.2387 -8.09828 0.695962
11.6312 11.7116 0.984165
14.8811 19.792 1.48759
-7.37455 -9.98297 0.771889
7.05011 -11.235 0.808276
11.3204 -9.76453 0.906356
5.89927 -10.8144 0.764346
-7.18255 -6.63887 0.611049
14.6949 20.8459 1.61362
16.2497 7.21303 1.15431
-7.02606 -6.13869 0.612061
6.52112 -13.5669 1.00302
9.57792 21.635 1.59607
10.5098 12.6677 1.12514
13.7255 18.4561 1.60414
12.59 20.8741 1.68669
11.4399 12.0846 1.16792
6.62582 -9.88145 0.842471
11.5874 11.8551 1.19961
9.83527 -6.94276 0.856644
12.4586 12.061 1.27347
9.96226 -8.41306 0.955265
-6.12043 6.63333 0.673161
10.4955 9.24158 1.05042
12.0725 18.0505 1.63386
11.6268 18.5238 1.64787
-6.93238 -7.6841 0.802413
11.0055 18.9955 1.6844
9.55027 -8.99164 1.01372
10.5771 14.1981 1.38798
-6.40958 -4.29485 0.608288
9.32128 18.6751 1.66796
10.1113 -6.91914 0.981053
12.5493 11.6434 1.38381
9.88936 19.2013 1.73919
-7.24519 -9.61008 0.980311
6.74079 -9.41238 0.942031
12.3361 11.8012 1.39881
12.2414 12.039 1.42573
11.5119 12.0325 1.3786
-5.03271 -11.4865 1.05508
10.4029 13.0154 1.41772
-6.95077 -6.07384 0.794912
-6.80684 -6.68588 0.805801
-5.19393 -11.3916 1.06485
-7.28662 -7.73202 0.91485
9.31069 -7.27644 1.02097
-7.10687 -8.04216 0.939161
-7.00434 -7.67659 0.913839
9.47013 12.6408 1.40034
-6.93826 -8.35542 0.970238
10.8771 9.12663 1.29404
10.5585 13.5988 1.55554
10.5852 9.29658 1.28963
7.80434 14.1668 1.48781
-6.48667 -8.12139 0.952286
-6.88767 -8.99842 1.0459
11.2754 10.8748 1.44542
11.3146 9.23159 1.36651
10.9433 10.8774 1.4464
6.57581 15.1961 1.55612
-11.3856 2.91682 1.10165
-6.35512 -4.16683 0.711715
-6.79637 -6.28524 0.85831
9.52006 13.4261 1.58782
-5.99367 6.51266 0.870834
7.97813 -6.62395 1.01062
8.01144 13.3584 1.5474
-7.05587 -7.60375 1.04494
9.38048 11.7293 1.51496
7.07689 12.5655 1.46374
7.13856 13.1515 1.52569
9.58874 9.1455 1.37139
5.94109 14.1632 1.5922
9.21998 12.54 1.62287
-6.10127 -4.4524 0.791475
6.03799 13.8745 1.59415
6.29936 13.7986 1.59497
-6.96112 -4.42181 0.88185
8.81865 9.07077 1.34879
9.19755 10.2464 1.49756
7.38946 11.0956 1.44894
5.88511 11.5918 1.41362
-6.28916 -7.39854 1.06129
10.3099 6.4795 1.34735
9.03773 8.17996 1.3438
7.3782 11.7939 1.53631
6.91049 11.7453 1.50685
5.41858 12.0328 1.46854
4.93021 12.2555 1.47827
4.77742 13.8941 1.61683
9.91045 7.08605 1.36044
8.8114 9.36649 1.43709
5.4409 11.6421 1.44743
-6.83033 -6.71251 1.06578
6.92412 10.8077 1.44609
4.38555 13.3791 1.59176
9.77552 -3.20336 1.14703
-6.09717 -5.40781 0.943378
7.30239 -6.13102 1.08237
10.4543 5.73608 1.36773
-7.36695 -0.983878 0.851313
-6.24965 -5.34949 0.946736
5.24961 -5.55832 0.880843
5.12644 11.7589 1.49048
-6.87358 -4.55292 0.955185
4.45798 -7.26913 0.986119
10.4443 5.16676 1.36746
8.92779 7.9239 1.40141
-5.99611 -4.36387 0.864064
-6.47737 -5.26658 0.986043
4.09823 -7.8779 1.05601
4.96824 -5.85213 0.921
10.2005 4.76963 1.34995
8.56307 8.31506 1.44584
5.33358 11.6199 1.56107
9.08009 6.29029 1.35255
8.0543 8.3823 1.45636
-6.48093 -5.73888 1.07747
3.71038 -7.58086 1.05705
8.71167 6.71709 1.38342
-6.45954 -5.33755 1.06034
9.12457 6.03546 1.39683
8.21972 7.17229 1.39195
8.15229 7.54286 1.41824
5.78058 -5.3488 1.01113
-6.96253 -4.4371 1.05957
8.14298 8.03993 1.48442
-7.34357 -1.04043 0.957955
-6.91383 -2.8226 0.974985
9.0017 4.113 1.29618
8.43716 6.6563 1.41091
5.00092 -6.03108 1.02985
4.9192 -6.19599 1.04761
6.87731 -4.28713 1.07877
-7.12197 -1.71551 0.981759
-6.99943 -2.21676 0.981303
-6.01972 -4.41816 0.998062
8.16944 6.68662 1.43133
8.6361 4.45313 1.32486
8.66052 5.18451 1.3788
8.06488 7.17063 1.46904
-6.79969 -3.7287 1.05275
8.88766 4.17188 1.34402
8.29595 5.85533 1.39065
-6.39085 -4.32422 1.05567
-5.95198 -4.52089 1.02056
5.39937 9.09889 1.46168
3.6821 10.187 1.50481
-7.35387 -1.09091 1.0292
-6.8949 -3.92176 1.10059
4.95048 -5.54535 1.02735
5.23061 -5.40072 1.04351
7.47385 -3.5419 1.15667
3.42591 10.275 1.51825
8.42867 4.61306 1.35932
7.38508 -3.68317 1.17075
7.5979 -3.3397 1.18329
7.77356 -3.31068 1.19894
8.96133 2.82169 1.35237
4.83514 -5.63702 1.06752
7.36344 -2.85683 1.14993
-6.94879 -3.29554 1.12074
7.93056 -2.78398 1.2255
8.6808 -1.82346 1.3021
5.04618 8.63992 1.47727
2.98684 9.54799 1.48897
7.74417 -1.89086 1.17491
7.25812 5.78036 1.38263
3.49311 9.66404 1.51956
3.22388 9.9118 1.54537
-7.35606 -1.04136 1.10124
-7.0632 -2.01983 1.09454
6.9779 6.31677 1.42125
-6.25565 -2.26896 0.998358
-7.22705 -1.37281 1.11014
7.96675 4.83438 1.41984
5.74284 7.40011 1.42151
5.32657 7.68035 1.4228
5.0922 8.06994 1.44299
6.76687 -3.22919 1.13396
7.25573 -3.12879 1.2101
7.6473 -2.75954 1.23895
-7.3021 -0.731497 1.12036
-7.08568 -1.95128 1.13404
6.7966 -3.09627 1.15506
3.75009 -5.78699 1.06635
-7.04178 -2.07266 1.15052
-7.332 -1.0908 1.16362
7.3866 4.79115 1.39071
-7.18564 -1.44091 1.16569
-7.25807 -1.29868 1.18273
-7.08591 -2.01572 1.19773
7.0941 4.77962 1.39651
-7.08948 -1.94224 1.20721
7.03396 4.88203 1.42238
6.63841 4.8692 1.37406
5.23261 6.27481 1.36134
4.70259 7.21747 1.43903
3.85264 7.99668 1.47592
-7.23599 -1.371 1.22911
2.79059 -5.77321 1.08099
7.16519 4.44305 1.42047
6.53805 5.25808 1.41563
3.87373 -5.3654 1.11578
3.93635 -5.0206 1.08004
-7.25881 -1.2501 1.24917
-6.58934 -2.62165 1.20294
7.43495 2.85491 1.35094
7.05066 3.90266 1.37346
-6.40612 -2.74947 1.1858
6.79502 4.11104 1.36355
5.68679 -3.52232 1.15141
-7.38177 -1.0376 1.28877
-6.34868 -2.27748 1.1593
5.5391 -3.65043 1.14353
5.32203 -3.77622 1.14389
3.62191 7.21248 1.42019
-6.78878 -1.73242 1.23015
4.48093 -4.46836 1.11371
-7.07913 -0.91296 1.27118
4.72695 -4.45942 1.15007
4.35315 6.52989 1.40076
6.60346 3.48309 1.34841
6.64392 3.69272 1.36568
-6.43199 -1.49836 1.18751
3.6083 -5.32555 1.17025
5.09988 5.63751 1.39223
-6.14777 -2.18064 1.19521
3.41181 -5.1566 1.14996
3.41022 6.81667 1.42651
-1.69815 -5.78282 1.14465
6.4591 2.73804 1.33522
-2.14342 -5.72776 1.17549
6.32309 2.80226 1.33168
-2.78739 -5.37609 1.18647
-3.50446 5.32096 1.37942
4.484 3.90514 1.35738
4.15081 -2.87853 1.17708
4.63012 -2.18698 1.23744
4.21001 3.30008 1.32538
3.70609 -2.92922 1.22359
4.0261 2.57968 1.3362
-1.44544 -4.12331 1.22299
-2.32352 -3.58312 1.21322
3.86685 2.36867 1.31411
-2.85248 3.51469 1.35615
-2.48328 -2.91935 1.19006
-2.38076 -2.94062 1.19504
1.83792 -2.80437 1.17927
1.861 -2.78287 1.20931
1.98714 -2.52047 1.1959
-2.03902 2.79979 1.31617
2.80226 -0.555355 1.25887
2.78188 -0.336649 1.24074
-2.09187 -1.62092 1.21354
-2.07949 -1.45274 1.23854
-1.86491 -1.79811 1.28424
-1.99693 -1.13251 1.20488
-1.98837 -1.07137 1.23167
-1.94804 -0.881132 1.23181
-1.93227 -0.708986 1.22199
-1.9311 -0.702062 1.24919
-1.90728 -0.470048 1.22187
-1.87259 -0.345984 1.21902
-1.85752 -0.401495 1.22579
2.37542 -19.6492 -9.98736
-7.57639 -8.94488 0.463441
8.04275 -8.82623 -10.4987
8.28769 -8.65384 -10.5329
8.23915 -8.31375 -9.9137
6.979 -11.9916 -11.4423
8.54467 -9.00305 -9.77302
7.87395 -8.9636 -9.16208
5.86627 -12.831 -10.7562
9.46195 -8.86633 -9.77997
6.16476 -14.1305 -11.605
8.31439 -8.70704 -9.05123
8.04413 -9.19859 -9.13751
7.31459 -9.27388 -8.79948
5.92786 -14.1914 -11.2204
7.74372 -9.33607 -8.75204
7.8809 -9.14567 -8.69614
7.15032 -10.6115 -9.10971
6.84163 -11.1067 -9.24704
10.0958 -9.23142 -9.60734
6.56016 -11.2093 -8.89086
8.05873 -8.65505 -7.87463
7.38453 -9.31057 -7.8967
8.54472 -8.7102 -8.11009
7.74745 -9.50568 -8.05587
6.50948 -12.8163 -9.38578
7.96026 -9.21161 -7.94001
5.0113 -16.0614 -10.8211
-0.476856 13.9128 -8.90173
7.75326 -9.27462 -7.75135
7.36189 -10.9022 -8.37542
8.40667 -8.59535 -7.65945
10.925 -9.66426 -9.25125
9.02113 -8.8496 -7.92521
11.8262 -10.0845 -9.73975
8.10097 -8.5655 -7.25288
4.04516 -16.8506 -10.6206
4.25756 -15.4023 -9.81141
7.87235 -9.39171 -7.34368
3.95709 -15.6399 -9.61986
11.5373 -9.87686 -9.09561
6.88867 -11.1155 -7.76435
7.79494 -8.84498 -6.98376
5.50454 -14.0377 -8.90816
6.51085 -12.7483 -8.37672
8.3903 -8.62323 -7.01124
9.72794 -9.1185 -7.77423
2.79819 -11.8235 -6.96401
5.50355 -13.9582 -8.49445
9.63554 -9.14384 -7.50877
6.64033 -11.1069 -7.28583
3.34378 -20.656 -11.7273
8.91215 -8.97241 -7.08898
12.2552 -10.2816 -8.96132
6.84689 -11.0425 -7.23785
4.69888 -14.6568 -8.50563
6.24521 -12.6675 -7.76876
0.892927 18.6088 -10.1425
14.7141 7.77547 -9.04326
4.21803 -14.2867 -8.04472
14.8198 -11.7269 -10.1864
15.0716 7.48978 -8.96562
14.1007 7.76947 -8.55526
4.77885 -14.8854 -8.30637
12.1426 -10.1998 -8.34482
1.81226 -20.4428 -10.5587
11.4702 -9.89865 -7.76166
2.08006 -20.1785 -10.2939
14.0489 -11.1512 -9.07181
0.000541992 14.2667 -7.16132
-7.21715 14.9974 -8.33975
10.642 -9.6436 -7.21587
7.54252 -9.46022 -6.02765
17.771 5.53064 -9.07943
-8.40751 15.9348 -8.70633
11.7014 -9.82718 -7.3956
10.5413 -9.6275 -6.85487
14.878 -11.4062 -9.0418
16.8611 15.9736 -11.0357
7.5168 -11.1095 -6.39029
15.1109 7.46657 -7.90919
14.0064 -11.0906 -8.34948
-11.7866 16.8763 -9.43028
15.9435 -12.0803 -9.13783
9.80513 -2.45848 -4.6437
-9.08239 -1.65117 -4.19778
18.9376 18.2752 -11.8764
3.92365 -9.12268 -4.50704
-10.0762 16.4579 -8.66502
-5.32062 4.42419 -3.11123
6.88834 -11.3398 -5.97261
9.46494 -9.12214 -5.79747
16.1271 7.3571 -7.82089
-6.55022 14.8724 -7.09689
1.50271 -18.7468 -8.13405
-11.0166 16.7601 -8.63463
9.60989 -3.38029 -4.36351
7.04774 -11.0926 -5.55525
15.9251 -12.0379 -8.35595
14.7462 7.79539 -6.99706
18.9807 19.7489 -11.4491
1.01811 -22.5126 -9.38248
-4.48755 13.7192 -5.94674
-9.89909 -1.10721 -4.12806
14.1804 7.83029 -6.61473
20.7418 22.5635 -12.4942
-12.9957 2.43544 -5.38603
15.2152 7.22931 -6.81348
-5.15886 14.1318 -6.0497
3.64764 -8.83057 -3.80272
12.4567 -10.3231 -6.33746
14.0267 -11.0752 -6.98402
19.5579 21.8906 -11.3885
18.9452 5.84214 -7.68812
1.54306 19.3495 -7.52725
-8.60473 15.5024 -6.8346
11.4554 -10.1001 -5.87407
19.5069 22.6173 -11.5063
0.680307 15.4124 -5.90872
-1.65338 12.6661 -4.91385
2.71701 -12.2554 -4.81614
-8.74423 -1.2489 -3.35736
0.700804 -23.491 -8.86874
15.2849 -11.7134 -7.26207
9.51821 -3.47312 -3.82221
-14.3509 17.6908 -8.48965
-7.87345 -3.49756 -3.15986
1.09516 -10.4452 -3.8628
7.05915 -11.2854 -4.86756
14.2922 7.98047 -5.91047
-8.27292 -2.8404 -3.14532
0.787808 15.3301 -5.47421
-3.90149 13.1877 -4.86479
5.76021 -11.0299 -4.37875
15.944 -12.0494 -7.07793
19.2241 5.93745 -7.07897
2.13235 20.8563 -7.35378
22.0039 26.602 -11.9992
-14.6285 18.057 -7.97656
2.98229 -13.3838 -4.71914
-8.74613 15.7978 -6.1705
18.6296 -13.1949 -7.82401
-4.96769 14.2676 -5.13677
1.35444 -22.1108 -7.34137
1.76726 19.7498 -6.55144
1.44857 -10.3174 -3.44332
39.7676 -20.3283 -14.6561
6.18928 -10.0799 -3.78606
17.7002 -12.498 -6.93958
2.12948 20.8282 -6.66435
-13.1247 17.5214 -6.90235
1.44235 -22.5486 -7.04077
-4.23951 14.5051 -4.69576
-10.7627 16.3069 -5.92148
-2.70072 -27.5052 -8.39815
3.07183 -9.4923 -3.03201
0.78954 -24.0517 -7.23787
19.2875 -13.6903 -7.01797
17.724 5.60721 -5.45519
-7.75245 15.0064 -4.91703
4.24222 -10.5261 -3.29813
3.63411 -10.6066 -3.19084
4.25841 -10.9886 -3.30793
-13.0692 17.4684 -6.06871
-9.11861 15.5875 -4.91276
-13.1699 1.97423 -3.65149
-16.6035 19.0759 -6.86717
26.6085 -17.5167 -8.63137
-3.82574 -27.2866 -7.39197
3.79236 -9.16785 -2.65443
-9.62326 15.9964 -4.96902
48.0752 -14.0369 -13.2798
10.5816 -9.4377 -3.75311
-6.32438 14.6416 -4.16623
-14.154 17.7457 -5.95673
-7.78401 -36.8367 -9.8092
4.97385 -9.60154 -2.79882
6.58301 -10.5352 -3.20478
-7.06838 15.0007 -4.21504
-10.3629 16.1402 -4.90096
-9.59333 -38.0207 -9.75379
-8.7457 -37.7591 -9.46693
10.9954 -9.69287 -3.60416
-7.81639 15.1694 -4.13796
-11.5086 16.7274 -4.91518
14.7152 7.77311 -3.95072
4.05614 -9.27378 -2.39558
15.3217 7.58817 -4.0301
3.75579 -8.92986 -2.27723
-6.37119 -31.7503 -7.50035
5.64386 -9.91493 -2.64418
45.4688 -11.0033 -10.8727
-12.57 17.122 -4.88948
14.9735 7.66853 -3.80678
44.4753 -9.62126 -10.3078
-9.60276 15.9952 -4.17588
3.7264 -9.28253 -2.17608
43.6225 -11.1908 -9.82882
15.2344 7.55787 -3.64242
-10.4342 16.2875 -4.1433
-21.4731 -33.758 -8.59627
4.83703 -9.78342 -2.35444
45.7757 -10.7183 -10.0585
-14.5065 17.973 -4.85963
-31.7299 -23.4195 -8.35959
42.3297 -14.1632 -9.44261
14.9599 7.90516 -3.52944
-34.7 23.4659 -8.56604
-8.12552 -33.2375 -6.93086
3.97028 -11.5586 -2.45655
45.2868 -9.77101 -9.42266
11.8407 -9.8013 -3.08252
43.6465 -11.236 -8.98076
-26.4692 19.9743 -6.58222
6.16854 -10.3246 -2.3944
46.6978 -10.9202 -9.36628
-12.5485 17.1216 -4.10247
-26.3334 20.6372 -6.5015
16.2037 12.2568 -3.88423
-6.73677 14.8289 -3.12653
-32.6088 -23.5862 -7.70367
-31.1379 -24.3831 -7.60092
-34.9244 23.2722 -7.90327
-33.1253 -21.8515 -7.49966
18.1537 5.70742 -3.55236
-33.6557 -20.3068 -7.34121
-14.5622 -41.9852 -8.28026
3.78518 -9.85891 -1.98835
-23.486 -58.4721 -11.7211
-16.2471 -43.7711 -8.54152
3.98866 -9.66738 -1.88628
13.1433 -10.2702 -3.008
46.1574 -10.2714 -8.49342
-14.4623 17.937 -4.11715
-26.4767 20.7661 -5.941
15.2008 8.04665 -2.9963
-29.8167 -25.9832 -6.89392
43.5074 -11.1443 -7.71053
-7.77459 14.9767 -2.85838
-9.53534 17.5605 -3.37555
45.4118 -10.6901 -7.88859
-30.1246 21.9428 -6.27477
-29.8343 -22.9528 -6.2919
-20.4235 19.5283 -4.70142
-31.6907 22.3809 -6.4727
16.0376 -11.9661 -3.27886
-10.1344 16.0894 -3.02513
-42.3682 24.9309 -7.79961
-31.1742 -23.4192 -6.24255
-32.982 -22.7499 -6.31104
3.44565 -9.52939 -1.58466
-23.3312 19.9307 -4.73916
