ply
format ascii 1.0 
element vertex 1862
comment /media/mkaihara/Seagate Backup Plus Drive/model_iterations/model_6.ply
property float32 x 
property float32 y 
property float32 z 
end_header 
-26.1743 -15.6278 1.34416
29.3355 58.1681 2.87044
10.3118 -9.60235 0.623198
11.2684 -10.0887 0.715501
13.2791 -11.0885 0.806725
36.4146 33.4254 2.37586
-5.99312 6.45172 0.433004
-6.49155 -7.70766 0.508206
-6.68864 -8.67866 0.543482
-25.9243 -10.2263 1.4675
-6.43782 -7.97487 0.532828
12.4869 12.3255 0.926122
18.6016 27.7776 1.76506
17.8434 27.0227 1.69184
9.52213 -9.25268 0.710633
9.28936 -9.19119 0.717
16.7505 28.7404 1.839
-26.3453 -7.90075 1.53998
-7.12534 -7.59307 0.588913
11.1745 -10.0839 0.862732
-6.38335 -7.74631 0.605015
-6.33353 -7.95648 0.615273
-7.16223 -7.53602 0.648571
-6.51318 -7.76874 0.638369
10.2485 -9.52929 0.873862
11.2571 -10.0707 0.945179
11.0096 12.8721 1.09621
-6.87651 -8.90882 0.746641
13.6412 20.7117 1.66645
14.4007 22.9884 1.81774
10.524 26.1774 1.95683
-6.69983 -7.83679 0.719359
-6.73274 -7.22261 0.70537
10.2061 -9.49528 0.98666
11.9119 12.5239 1.27434
12.6878 18.0374 1.65228
13.1974 12.0742 1.36897
13.4887 12.0151 1.40132
12.8572 12.1243 1.37009
12.6243 12.2595 1.38751
-6.76832 -8.79499 0.884306
12.1757 12.5311 1.40105
-7.04545 -5.87005 0.727922
-6.6732 -7.65617 0.82156
-6.37691 -7.83418 0.817737
-6.95401 -5.97488 0.733488
9.82567 -8.05149 1.04975
-6.96366 -7.66717 0.866521
-6.90826 -9.24773 0.969631
-6.90023 -7.45594 0.858347
9.71667 -7.36118 1.02917
12.2209 12.506 1.48098
-6.137 -4.18295 0.638013
-6.67801 -7.88814 0.894927
-6.44242 -7.92892 0.91194
9.49843 -7.24401 1.0625
8.69933 -7.55368 1.03282
6.25348 -6.22658 0.811764
11.3045 11.597 1.54605
-6.73651 -5.49183 0.832801
11.1864 9.66624 1.43179
-6.86545 -5.47778 0.859644
8.16414 -6.93233 1.05073
11.5165 10.2298 1.51763
11.3349 9.43583 1.47632
10.029 12.0665 1.56619
-6.2058 -6.20125 0.882928
-6.62493 -4.35243 0.805137
-6.62516 -6.9473 0.97662
11.1856 9.43254 1.50868
10.5134 9.81568 1.46959
9.66395 10.5141 1.48727
-6.61245 -4.29653 0.833261
-6.84372 -5.43895 0.937928
-6.81437 -5.47558 0.936577
11.3465 11.0537 1.68579
-6.6651 -4.45964 0.877994
-6.77481 -5.2798 0.936753
9.03639 10.6851 1.55005
-6.67981 -3.32171 0.837991
-6.72395 -4.19466 0.886253
-6.62697 -3.37936 0.837488
-6.66627 -3.45979 0.84406
-6.65299 -4.08515 0.880592
-6.66792 -4.24661 0.894742
-6.66572 -4.32792 0.89711
9.04042 9.11111 1.44903
-6.72028 -3.72441 0.883418
-6.68009 -3.93113 0.880605
-6.67698 -4.0104 0.887757
6.1556 -6.07803 0.996214
-6.71045 -3.308 0.873697
-6.6934 -4.21653 0.920415
-6.66222 -4.2844 0.921765
-6.70113 -2.74639 0.850804
-6.66254 -3.49969 0.883107
-6.72903 -3.99161 0.922962
-6.67548 -4.05691 0.91762
8.77808 8.3031 1.42923
-6.71257 -2.89325 0.88352
-6.66464 -3.83574 0.925727
-6.65745 -3.53706 0.917394
-6.68597 -3.98433 0.955499
-6.66692 -4.1584 0.965732
-6.20986 -5.1437 0.988859
6.32494 -6.27058 1.08459
-6.68214 -3.62863 0.94487
-6.67598 -3.7854 0.955507
-6.7527 -4.56482 1.01959
-6.69004 -4.23218 1.0016
-6.65117 -3.36795 0.946542
-6.88708 -2.11078 0.921914
-6.67846 -2.98927 0.940477
-6.69451 -3.06358 0.949135
-5.89357 -5.26176 1.03279
-6.71304 -3.13094 0.970539
-6.15656 -4.20947 0.985123
-6.57558 -3.66027 0.999577
-6.64705 -4.03992 1.03461
-6.85999 -2.0768 0.95885
-6.80787 -2.27081 0.967103
-6.69535 -3.16555 0.991306
-6.68718 -3.42623 1.00804
-6.69882 -3.28712 1.02135
-6.8417 -2.10218 0.996064
-6.72031 -3.08246 1.02567
-6.68899 -3.16254 1.02496
-6.62842 -3.53195 1.03895
-6.70058 -2.85797 1.02008
-6.65549 -3.30359 1.03918
-6.66035 -3.63133 1.06949
-6.7221 -3.13647 1.05107
-5.78918 -4.33007 1.03143
-6.6692 -3.46964 1.082
7.87723 6.49753 1.47185
5.35046 8.57981 1.45919
-6.67524 -3.38205 1.08566
7.55081 -3.64302 1.21331
-6.6733 -3.17795 1.08058
-6.66704 -3.28486 1.08608
-6.6564 -3.10261 1.08253
-6.97887 -1.70725 1.06027
-6.71239 -2.85467 1.08526
-6.71564 -2.9386 1.08932
7.27953 5.73121 1.43057
-6.20778 -2.22386 1.02455
7.20349 5.27676 1.42115
-6.81944 -2.34342 1.16181
-6.27944 -2.73999 1.1195
3.89327 8.15889 1.48754
-6.1452 -2.20194 1.08531
-6.30741 -2.2286 1.14126
-5.98868 -2.22035 1.11422
2.62978 7.60184 1.5238
8.06744 -8.76513 -10.4573
8.19093 -9.04666 -10.6673
7.91982 -8.99449 -10.4145
8.44808 -8.57244 -10.2964
7.12092 -11.7315 -11.2319
8.40304 -8.52279 -9.80751
7.12932 -12.1633 -11.434
8.2828 -8.66998 -9.51672
8.23433 -9.45488 -9.74838
8.51334 -8.97611 -9.60663
8.11464 -9.26458 -9.38058
8.587 -8.99823 -9.42516
6.4427 -14.1914 -11.6226
7.75307 -9.7371 -9.28902
8.18748 -9.36654 -9.19804
6.34332 -14.572 -11.6951
6.42328 -13.1532 -10.745
9.58821 -9.16635 -9.70034
9.56425 -9.31944 -9.70619
6.11881 -13.0192 -10.4265
6.04939 -13.3865 -10.5071
9.72169 -9.32487 -9.62589
9.5675 -9.36312 -9.49636
7.16265 -11.5717 -9.64039
5.74921 -13.2239 -10.193
8.64713 -10.0736 -9.32756
6.72788 -11.3409 -9.05698
8.81651 -9.20902 -8.6942
12.3096 -10.4368 -10.8207
8.56242 -8.95039 -8.18601
7.72696 -9.62513 -8.12773
8.59488 -9.14323 -8.26551
9.52363 -9.12268 -8.67144
0.186951 17.1829 -11.188
7.90683 -9.68075 -8.15191
12.7122 -10.6094 -10.7628
4.72246 -15.8975 -10.716
9.53694 -9.15351 -8.48952
5.12353 -15.6255 -10.5909
8.06996 -9.6634 -8.04639
8.58245 -8.80287 -7.84971
10.9103 -10.0054 -9.51907
0.326768 15.3498 -9.79254
4.81728 -15.3025 -10.2059
11.3948 -10.0127 -9.63402
8.23522 -9.43076 -7.92342
8.4948 -8.83184 -7.72185
4.80778 -15.9721 -10.4703
-0.398692 13.3002 -8.31981
9.18012 -8.96019 -7.9078
9.19002 -9.14404 -7.99517
4.21539 -18.4962 -11.7126
8.23845 -9.40948 -7.70988
8.60883 -8.91449 -7.64125
4.32064 -15.5272 -9.86456
8.55958 -8.98845 -7.57804
4.27198 -18.1271 -11.3534
0.135056 14.7581 -8.99046
3.7914 -17.8727 -11.0521
4.23322 -15.8789 -9.93009
7.34157 -11.2501 -8.04984
8.40101 -9.59715 -7.64966
4.22887 -16.5919 -10.1994
8.64762 -9.02994 -7.4375
9.83301 -9.39679 -8.09416
11.2205 -9.66827 -8.84378
7.32411 -11.5273 -8.10933
8.0778 -9.67006 -7.46657
9.46815 -9.202 -7.81253
8.13548 -8.60969 -6.90944
8.35106 -9.55747 -7.41558
8.96024 -9.15356 -7.46564
10.1607 -9.58357 -8.12956
7.07046 -13.8824 -8.97986
9.67405 -9.38477 -7.77275
6.0573 -13.9299 -8.75241
7.18595 -11.3199 -7.71539
2.89345 -13.1685 -7.76194
10.0114 -9.5308 -7.85992
12.6076 -10.8066 -9.36254
11.309 -9.93141 -8.45604
7.17717 -11.5553 -7.6235
9.57077 -9.50467 -7.55277
9.69114 -9.43946 -7.55343
13.289 -11.085 -9.65432
4.78572 -14.7052 -8.63459
10.7076 -9.846 -8.12006
8.9107 -9.08854 -7.07416
2.71321 -16.9371 -9.46337
8.49377 -9.78317 -7.18846
15.2994 7.82734 -9.40477
2.63542 -19.0945 -10.4887
2.48847 -8.96016 -5.03679
2.92705 -19.3516 -10.5766
15.2656 7.95373 -9.25283
2.30352 -19.4086 -10.3836
11.5334 -10.1082 -8.14736
10.2595 -9.46795 -7.38291
15.4675 7.76436 -9.16803
2.4219 -8.97493 -4.9066
12.9151 -10.7381 -8.81616
2.95654 -18.6082 -9.91093
1.60247 -18.8003 -9.75281
2.31108 -19.9035 -10.2826
14.8403 -11.8525 -9.7203
-8.97561 -2.5153 -4.74825
11.9536 -10.3451 -8.01829
2.11216 -19.413 -9.84574
10.6834 -9.74832 -7.29631
0.817157 17.1895 -8.56133
11.611 -10.1811 -7.6877
-8.58298 -1.88765 -4.31369
2.13917 -19.2649 -9.52269
4.02428 -9.56781 -5.08755
11.8692 -10.1786 -7.64465
1.94107 -19.0385 -9.35856
-7.86781 15.082 -8.24034
2.53829 -11.2651 -5.52135
1.93437 -20.1268 -9.63294
0.615739 17.1134 -8.11851
15.456 7.90285 -8.2047
18.2841 17.1351 -11.8696
18.7144 17.9419 -12.0644
15.2799 -12.0771 -9.02044
10.1073 -2.68994 -4.84625
18.2402 17.1771 -11.5954
10.0489 -2.54294 -4.79362
-9.54684 15.6636 -8.35314
-9.24628 -2.00311 -4.29323
10.16 -2.68776 -4.76846
10.5028 -2.47277 -4.88585
10.0718 -3.07182 -4.76363
-5.28446 4.357 -3.0887
2.26977 -18.5679 -8.41576
8.48822 -8.72995 -5.48097
18.9158 18.4415 -11.8809
18.7509 18.5967 -11.8909
20.1245 6.12334 -9.44463
-9.14916 -1.87122 -4.18072
7.54074 -11.4923 -6.11184
21.3739 5.61312 -9.82688
9.87552 -3.53327 -4.66063
-9.29405 15.2634 -7.92896
-5.23097 4.79426 -3.14394
20.2416 5.84889 -9.32146
-10.4855 15.9763 -8.40106
19.048 18.9054 -11.7864
-6.15778 14.0992 -6.74709
9.91117 -3.71988 -4.61056
21.0836 5.71498 -9.47889
19.2498 19.5425 -11.8464
19.0346 19.7071 -11.829
15.4225 7.89494 -7.39365
4.06152 -9.80753 -4.48896
-10.4636 15.9071 -8.03785
-12.9258 3.16625 -5.60978
1.23661 -20.4451 -8.58685
3.37558 -10.5268 -4.61689
14.6905 7.91563 -6.98583
19.9227 20.8111 -12.0728
4.06362 -9.61628 -4.33745
15.3613 8.01189 -7.19553
19.5689 20.8746 -11.9026
14.5165 8.02092 -6.82926
4.16248 -8.78806 -3.97836
7.19028 -11.5028 -5.54444
-12.8688 2.42094 -5.35975
15.5334 7.78743 -7.09115
-7.50408 14.5067 -6.63314
1.18575 -10.3864 -4.24768
0.738183 -20.2929 -8.23109
-12.4617 2.25755 -5.09592
-9.02238 -1.39261 -3.64707
-4.95884 5.50327 -2.93743
2.87994 -11.8566 -4.80872
15.1923 -11.9822 -7.55449
4.38921 -10.0966 -4.30226
1.49245 19.0405 -7.42888
10.3023 -9.33866 -5.38474
4.14439 -13.7626 -5.546
19.9065 6.08695 -8.03018
0.803966 -22.8877 -8.76085
5.00097 -9.11669 -3.9375
12.4558 -10.7794 -6.25042
20.3038 5.84784 -8.01661
13.3776 -10.9663 -6.48003
9.38577 -9.4171 -4.97705
19.8778 -14.4379 -9.20293
21.8724 25.9474 -12.6986
20.9525 5.69189 -8.10844
22.1126 25.792 -12.684
-1.81117 -23.2528 -8.70725
3.46997 -11.4803 -4.46312
6.35131 -10.0414 -4.36877
-12.0541 16.2286 -7.45182
12.6559 -10.7369 -6.0936
21.3875 5.46127 -8.09949
18.7745 18.5571 -9.64282
22.8957 27.3905 -12.9944
-7.91429 -2.72858 -3.03534
20.2144 5.99856 -7.59895
2.3153 -13.2931 -4.85142
0.783852 15.5834 -5.5971
-4.03336 13.1231 -4.88941
-7.96614 -2.71216 -3.00495
7.1868 -11.2093 -4.71647
-14.6573 16.9326 -7.90999
17.1973 -12.9831 -7.62449
3.15343 22.3984 -7.956
-10.2816 15.4945 -6.49427
20.5032 -14.8726 -8.88699
20.2718 6.18189 -7.36702
3.95048 -9.18986 -3.44001
-8.18254 14.8725 -5.76969
3.15438 -14.1338 -4.9293
20.6392 -14.7619 -8.67103
38.9515 -24.128 -15.5592
-13.7187 16.8019 -7.31502
21.091 5.73188 -7.33478
42.3846 -23.9299 -16.242
46.8765 -23.067 -17.4009
17.1482 7.69352 -6.26925
3.67867 -10.9039 -3.82626
1.34891 -10.761 -3.58514
-5.8526 13.9498 -4.92814
-11.7137 16.0619 -6.46436
17.0251 -13.0815 -6.97618
6.43894 -10.4773 -3.943
3.53605 -10.6836 -3.59952
3.63689 -8.84634 -3.0615
-0.935331 -20.0825 -6.43858
2.37258 -11.1595 -3.63075
1.87293 18.947 -6.05296
3.45045 -10.6955 -3.55106
2.97737 -9.47756 -3.12486
14.612 -11.552 -5.84663
-16.3489 17.6698 -7.53144
-8.4234 -2.56526 -2.75976
31.9926 -17.5481 -11.4385
1.25268 -19.1786 -5.94508
-2.01644 -21.8978 -6.79198
7.39384 34.1509 -10.6812
21.5345 27.9001 -10.6469
3.452 -10.5253 -3.32944
3.62335 -9.39331 -3.02299
-13.1873 16.4904 -6.31123
0.723627 -20.6036 -6.18739
-19.3727 18.0645 -7.83942
-7.38353 14.3516 -4.74346
5.15201 -12.9072 -4.05959
4.45162 -9.55207 -3.08832
2.03277 20.3359 -6.00792
-4.05051 13.5987 -4.15135
4.33843 -9.5587 -3.0598
21.6462 -15.5153 -7.84166
7.1286 33.1262 -9.8464
-14.0035 16.845 -6.31172
-25.7044 -36.7364 -12.8333
7.72223 -12.015 -4.06395
51.1686 -17.5951 -15.4793
2.66624 -9.86781 -2.89143
-8.14897 -2.13414 -2.37646
4.8334 -11.9704 -3.62752
-1.97307 -20.0651 -5.66866
-8.58689 14.8028 -4.70837
4.72574 -12.1625 -3.5862
9.09838 -8.87243 -3.48556
-12.0342 16.0316 -5.48222
52.6235 -17.446 -15.1087
-8.44703 -2.36229 -2.3765
-22.2786 -30.8986 -10.3532
21.0595 27.117 -9.33988
-22.0148 18.4756 -7.76852
3.51177 -10.7559 -3.04727
3.68808 -10.8001 -3.07153
-3.29713 -23.8097 -6.47365
-24.0638 18.4544 -8.07816
48.786 -16.0947 -13.5737
52.9641 -15.3313 -14.5861
-6.52848 -29.4424 -7.96406
-6.22205 -29.3957 -7.9405
-3.45008 -21.3384 -5.744
-13.2273 16.5743 -5.49843
10.4822 -9.53139 -3.69664
12.0892 -10.732 -4.19284
-9.81438 15.3108 -4.70049
-12.7336 1.96762 -3.36986
-3.33414 -21.9306 -5.78225
3.52551 -10.6215 -2.88317
3.81678 -11.1327 -3.03514
-23.5554 18.6726 -7.70467
-24.9812 -33.3716 -10.5732
4.65687 -12.0055 -3.24708
4.79398 -10.5239 -2.9066
10.0886 -9.75412 -3.53127
7.50254 -12.3169 -3.60961
-24.3935 18.8207 -7.69285
50.3411 -14.6529 -13.0807
-10.6078 15.6265 -4.68323
-21.1157 -30.7825 -9.21454
12.6279 -10.872 -4.11248
3.67305 -11.1367 -2.87482
-22.0758 18.5431 -7.04812
10.604 -9.5745 -3.43166
-7.26543 14.1695 -3.81853
4.54158 -13.386 -3.39183
15.6741 7.87426 -4.20452
3.72563 -12.2022 -3.04699
3.4372 -10.6824 -2.66484
5.39926 -14.0507 -3.60932
-5.01323 -28.7527 -6.96488
47.5342 -12.8537 -11.663
-8.311 -31.9612 -7.84658
4.29653 -9.82572 -2.52755
15.7439 -12.0319 -4.65391
-25.7748 19.2612 -7.59655
15.481 7.92491 -4.08015
-8.69169 15.0113 -4.06982
4.39578 -12.6459 -3.13802
-11.7853 16.066 -4.65276
-23.6897 18.7971 -7.01842
3.7511 -11.0735 -2.6723
40.2415 -9.5444 -9.58717
11.7853 -10.1166 -3.57873
16.9256 -12.7582 -4.8493
-32.4552 22.9622 -9.08513
-9.29373 -32.378 -7.69317
11.6417 -10.1775 -3.53196
-8.73254 -31.4078 -7.41163
-4.74281 -24.0964 -5.60473
46.2695 -14.3041 -10.9729
-24.2524 18.7348 -6.91035
15.8475 -12.2964 -4.5045
-27.3196 19.8437 -7.57212
4.68565 -6.11091 -1.7239
5.72393 -9.91499 -2.55352
-2.19307 -1.69262 -0.689608
-18.8947 -48.7589 -11.5765
-8.89845 14.8941 -3.81812
-9.75979 -33.5494 -7.70094
4.50487 -10.708 -2.54662
14.4767 -11.6769 -4.09494
4.40732 -10.0799 -2.40936
46.7032 -13.811 -10.6648
-21.184 18.465 -6.1245
-16.245 -25.2056 -6.50401
3.70635 -10.9954 -2.48043
4.83293 -10.8651 -2.56311
15.5626 7.82423 -3.74883
-25.7815 19.2908 -6.91747
-17.6974 -28.0606 -7.1313
-6.41322 -27.2002 -5.99065
-21.9851 18.5419 -6.12449
-27.5222 19.9895 -7.23458
3.61184 -11.0138 -2.46242
5.27317 -9.58213 -2.31161
15.3547 8.01947 -3.67321
4.71412 -11.6731 -2.66762
14.6734 -11.948 -3.97189
47.4475 -12.3648 -10.3908
31.1597 45.1028 -11.5628
-9.70489 15.2007 -3.80174
4.73512 -9.9742 -2.30715
3.38011 -9.75158 -2.13149
5.59572 -9.81082 -2.35838
15.3442 7.72302 -3.58569
-33.1457 21.8252 -8.25549
-23.7697 -22.0398 -6.69957
-9.93889 -29.2407 -6.41947
3.26453 -10.1772 -2.21388
-24.5279 -25.865 -7.34398
-16.7229 -26.1136 -6.3883
-22.3823 -55.0909 -12.2615
-21.8722 -55.9598 -12.4102
4.23253 -10.2303 -2.27513
4.08296 -9.53009 -2.11935
-14.2716 16.8754 -4.52079
-14.9939 -24.1417 -5.86048
-17.0004 -45.0745 -9.90008
4.35431 -9.57611 -2.14266
13.5976 -10.975 -3.62686
-31.0718 20.8084 -7.59843
-13.4221 2.93658 -2.80727
-29.2748 -20.6892 -7.30762
-17.8795 -49.4021 -10.7079
-8.80107 -28.3617 -6.04949
50.0724 -10.9352 -10.4125
15.5337 7.93732 -3.50226
-15.585 -20.6464 -5.19988
13.2361 -10.8157 -3.43249
-13.5143 -38.6743 -8.18763
4.65303 -11.9511 -2.54719
-11.0496 15.8432 -3.83434
-23.4774 18.4729 -5.91816
-31.1689 -18.4517 -7.19753
-28.0089 -21.8738 -7.0408
-10.2085 -31.7182 -6.60972
-6.9557 -26.9823 -5.56124
15.7046 -12.3806 -3.95686
4.4528 -10.8398 -2.30046
-23.7739 -25.0298 -6.73401
3.58102 -10.9175 -2.24233
-31.2065 20.6193 -7.26416
-40.5284 25.5276 -9.35562
-16.7881 -40.431 -8.46976
-31.7002 -19.3003 -7.06277
-21.8108 -25.8573 -6.47505
-11.826 -34.1577 -6.90342
3.86796 -9.86177 -2.01928
-16.8711 -27.3258 -6.0996
-27.8555 -21.7388 -6.65983
-25.2501 -22.4208 -6.35455
-15.9561 -39.4375 -8.05652
4.33527 -10.1356 -2.08953
-31.2117 21.0328 -7.00332
-12.4706 -34.0216 -6.78999
-18.6862 -42.4667 -8.53978
3.81871 -10.2131 -2.00393
-28.3253 -21.1411 -6.43127
-27.0579 -23.1995 -6.49325
-29.0354 20.4415 -6.39715
-16.6575 -22.0625 -4.91234
-14.9631 -37.0273 -7.13241
-27.2056 -21.9149 -6.14141
-16.8302 -43.5859 -8.23829
-30.1333 20.053 -6.33406
-12.2212 -34.4715 -6.42093
3.80105 -10.6649 -1.96952
14.6364 8.12461 -2.90984
-30.6254 20.9861 -6.4353
-25.168 -22.0583 -5.81804
3.89532 -10.6522 -1.95729
5.23466 -9.44086 -1.86387
-24.037 18.8712 -5.27822
-27.2266 19.8021 -5.80341
-26.6655 -24.5605 -6.25261
4.35192 -11.184 -2.06115
14.4701 7.80204 -2.83133
-17.2606 -39.6649 -7.36162
-18.6911 17.7838 -4.35128
-27.4413 -21.8106 -5.94075
-23.4555 -19.3272 -5.15849
-14.662 -36.3576 -6.65313
6.25433 -13.0932 -2.44075
48.3513 -13.6558 -8.5183
-13.4627 -35.9401 -6.46777
-10.175 -29.3468 -5.26633
47.1153 -12.2585 -8.19057
5.57218 -11.9478 -2.18576
7.40934 -12.309 -2.41889
-9.5013 15.1054 -2.89351
-26.6065 -20.5957 -5.47973
48.7943 -13.1035 -8.22307
-19.9696 18.1403 -4.37396
8.16178 -9.83363 -2.01975
-32.0921 -22.217 -6.14661
-15.0217 -37.1687 -6.37151
-20.662 18.1669 -4.33764
9.90577 -9.36296 -2.1308
-21.6907 18.4909 -4.43254
-29.0032 20.43 -5.48596
4.31789 -11.4245 -1.86747
-27.9653 -21.6224 -5.39926
-10.3321 -31.1786 -5.05164
-27.5018 20.0143 -5.16806
-14.903 -34.6043 -5.75402
-16.4515 -39.5989 -6.5339
-6.99693 14.1673 -2.38056
-29.1545 -20.4879 -5.36431
-28.4939 -20.9477 -5.35449
-24.1419 -22.6508 -4.97881
-28.9926 -20.8663 -5.35335
-27.3172 -21.8663 -5.2267
-23.9516 -21.2777 -4.7706
-30.3812 -20.2916 -5.41864
-22.2823 18.705 -4.28697
-28.8283 -21.5723 -5.30181
-28.0186 -21.2172 -5.18587
-22.8549 18.8332 -4.33062
-35.1658 -21.5374 -6.02142
-27.369 -22.7064 -5.20264
-9.26592 -30.7166 -4.70927
-11.5383 15.7833 -2.81547
-7.02341 14.0505 -2.23849
-43.7829 24.272 -7.15234
3.95677 -10.7675 -1.62398
43.7381 -14.3846 -6.54903
-29.1337 -21.4602 -5.11404
-26.7427 -21.2533 -4.80336
-24.2857 -22.3981 -4.67624
-19.8827 -42.0251 -6.60022
-26.2361 -22.1284 -4.82905
-17.64 -40.6724 -6.1917
-15.1886 -36.6005 -5.52453
-6.23702 13.8187 -2.05663
-12.7723 16.3185 -2.81027
-8.60192 -30.1213 -4.27136
-6.79246 13.7661 -2.06009
-16.6163 -43.2601 -6.2727
-20.1618 18.3356 -3.62828
-17.8252 -40.4048 -5.86892
-27.3887 -21.1421 -4.5625
52.3402 -12.0606 -7.06653
51.4617 -11.3127 -6.94441
-9.95253 -30.935 -4.27524
7.34187 -12.098 -1.85487
-13.6634 16.7359 -2.81108
-20.5495 18.0994 -3.54879
-29.1454 -15.6423 -4.26409
-28.4729 -21.2556 -4.56942
11.0657 9.07835 -1.85425
-29.5915 20.3466 -4.60875
-26.2903 20.006 -4.16291
-27.0451 -21.1733 -4.32845
-9.87579 -28.1022 -3.7693
-23.2791 -47.4599 -6.61771
10.3355 -9.67269 -1.76362
13.7693 -11.2528 -2.23581
-29.6395 20.7924 -4.52526
-31.556 -19.659 -4.62481
-26.6534 -22.0295 -4.29196
7.42868 -11.2965 -1.68212
-28.8377 -20.3828 -4.3709
-10.0166 -31.2549 -4.04052
14.23 -11.862 -2.27109
47.8089 -12.4255 -6.10175
-14.7185 16.9446 -2.74298
-12.4165 -30.0988 -3.98119
-8.02679 14.3495 -2.00203
-23.4928 -12.8872 -3.26251
50.1279 -11.5471 -6.23196
15.6312 8.16121 -2.1247
10.0548 -9.53999 -1.65201
-29.485 -20.5713 -4.25773
-16.1742 17.5794 -2.79481
-19.4646 8.61388 -2.52182
-27.6919 -21.4379 -4.12517
-18.335 -41.5423 -5.33428
12.0985 -10.4071 -1.86595
48.3051 -12.9312 -5.89045
15.9244 -12.3643 -2.31461
15.5463 7.99242 -1.99405
-26.4727 20.1326 -3.79288
8.00482 -12.1542 -1.64643
-9.39287 14.997 -1.98173
10.1302 -9.98684 -1.58083
13.7535 -11.2959 -1.98206
15.0916 -11.9114 -2.13609
10.116 -9.75536 -1.55724
7.72735 -11.4418 -1.50795
51.4003 -11.2259 -5.73053
-10.0021 15.0253 -1.94655
-29.1647 20.5656 -3.87431
-15.727 -39.9764 -4.60419
12.5767 -10.5667 -1.77142
7.04911 -14.4907 -1.68793
8.3432 -12.7687 -1.58241
10.5137 -9.50745 -1.48925
-11.3003 -32.6572 -3.62387
18.0332 -13.3543 -2.351
-21.8535 -43.9055 -5.08327
15.4851 7.7987 -1.77856
-27.0981 -21.5956 -3.55378
14.9312 -11.8137 -1.94905
-34.3424 19.9446 -3.98851
-27.7552 -21.4688 -3.54466
15.4752 8.08679 -1.76094
-11.613 15.5309 -1.90619
-26.2563 -16.1417 -3.08783
-14.7039 -37.2817 -3.88186
9.88146 -9.30551 -1.28345
-48.028 26.6363 -5.27881
-22.8954 -46.2515 -4.93565
-21.0539 18.4177 -2.6429
-26.9197 -22.0524 -3.30213
-26.8597 -22.3103 -3.32209
-15.1706 -39.698 -4.00527
-12.8398 16.4304 -1.95247
-27.2698 -21.3346 -3.22545
-11.7409 -31.9815 -3.1728
-10.1536 -31.5615 -3.0928
10.5033 -9.73522 -1.3289
-29.4171 -18.5448 -3.17599
-23.5829 -45.9398 -4.75154
9.1483 -9.25203 -1.17951
17.9645 -13.385 -2.0476
-13.6408 16.7337 -1.93752
-31.3279 -19.4847 -3.33213
-29.1307 20.5679 -3.14029
-27.0047 -21.7859 -3.0602
15.1882 -12.08 -1.72089
-28.4705 -17.3488 -2.83888
11.85 -10.3992 -1.34083
-23.7902 19.2979 -2.57313
-8.68583 -27.0371 -2.39947
10.0546 -9.64074 -1.1679
-29.7581 20.46 -3.0001
-34.9155 -64.8713 -6.12361
9.28295 -9.28462 -1.07681
18.2504 -13.3099 -1.84364
-12.514 -32.518 -2.79756
-15.8744 -36.3126 -3.09777
-11.8799 -29.3285 -2.50556
-10.2101 -28.6498 -2.41468
9.84408 -9.56658 -1.07698
12.1096 -10.4975 -1.255
16.1198 -12.6084 -1.61864
-26.4914 20.2023 -2.59263
-26.4707 -12.3555 -2.26461
12.7448 -10.7972 -1.29329
-17.0839 -38.0492 -3.18939
13.7757 -11.4344 -1.3549
-27.657 -52.4718 -4.2826
10.6446 -9.7695 -1.04587
11.7065 -10.4494 -1.09246
-29.3218 -18.2025 -2.38096
12.8477 -10.798 -1.16088
15.9544 -12.5617 -1.41002
-11.9249 -30.1321 -2.20166
-11.512 -30.4552 -2.22841
10.6593 -10.0717 -1.04396
20.3754 -14.7249 -1.66766
-20.9777 18.3677 -1.85147
-17.7908 -41.0431 -2.95126
-12.3552 -36.4375 -2.52916
13.8792 -11.4173 -1.20031
-11.0337 -30.6122 -2.11103
16.5662 -12.5084 -1.34784
-22.733 -46.0275 -3.21459
-10.7017 -33.1705 -2.16195
-28.9295 20.4372 -2.16807
-23.1676 -45.8147 -3.11521
-12.9753 -31.6066 -2.07829
35.687 -23.6604 -2.60461
48.0673 -12.5347 -3.01994
40.8937 -9.85912 -2.55269
-11.4771 -30.8154 -1.98237
-12.5295 -17.183 -1.24669
-24.0565 19.5245 -1.75751
-26.2198 -12.9085 -1.6835
-27.6156 -53.3595 -3.40686
-12.006 -31.2783 -1.86358
18.4494 -13.7664 -1.28865
-24.4936 -14.7392 -1.53336
48.647 -10.8357 -2.56824
-8.65017 -11.5575 -0.730725
-11.6467 -30.995 -1.64362
6.64487 -14.5025 -0.788629
-12.9546 16.4233 -1.02202
-10.7556 -33.8088 -1.73672
15.5083 8.13717 -0.850232
-30.6118 20.7521 -1.77708
-12.4211 -31.841 -1.61808
-10.2624 -33.3763 -1.64192
20.5462 -14.5778 -1.20679
-12.324 -35.7451 -1.75684
41.2768 -10.1374 -1.99588
-26.0834 -13.3371 -1.30511
-17.5276 -40.1625 -1.93392
-12.6604 -31.15 -1.49025
10.3476 -9.76472 -0.633737
13.5774 -11.1442 -0.787877
50.8183 -11.6273 -2.32369
-10.359 -31.5139 -1.40581
-28.8828 20.4182 -1.47384
-44.9414 24.4079 -2.0391
-29.754 20.4769 -1.32612
-13.7011 -35.83 -1.43127
-30.4006 -19.1435 -1.2761
10.4359 -9.71224 -0.523822
7.35023 -12.0533 -0.488179
-9.79324 -29.1933 -1.01253
8.50245 -14.9247 -0.58415
20.4229 -14.4651 -0.845171
-19.1355 -41.9118 -1.50544
-10.2003 -28.94 -0.987351
23.5631 27.1792 -1.16996
-20.8227 18.4865 -0.878839
-16.5832 -41.5457 -1.42043
-31.9966 -61.0258 -2.11924
-15.0634 -38.5779 -1.274
23.2701 -15.8688 -0.856198
-86.8311 33.0356 -2.81737
-25.0844 -12.9088 -0.849358
-9.48178 -30.3434 -0.937831
-21.6826 18.4243 -0.819082
-17.0995 -39.3516 -1.20926
-12.7421 -34.4837 -1.05133
24.5228 -11.0353 -0.81332
-30.3795 -18.5103 -0.975763
-9.01354 -11.8257 -0.421722
-16.5799 -39.1015 -1.18772
19.8013 -14.7515 -0.628499
39.7498 66.3535 -2.03635
-26.641 20.3273 -0.86311
-27.6416 20.2182 -0.848417
-24.8012 -11.9164 -0.668664
10.2404 -9.63679 -0.340395
-17.2772 -27.8286 -0.754965
-26.5777 -44.6312 -1.19232
-35.7962 12.4172 -0.827048
-86.2513 37.8564 -1.96616
23.4809 -15.7113 -0.600234
-45.6607 16.4687 -0.893978
20.2491 -14.5986 -0.468629
13.8247 -11.3575 -0.298382
-6.56613 14.2141 -0.277043
-30.1362 9.5308 -0.521409
-84.6664 38.0031 -1.36915
-25.7214 -12.2485 -0.444968
-32.569 -18.5479 -0.560416
-13.6495 -33.4617 -0.548459
-7.11708 14.9687 -0.228346
-28.4365 -21.2426 -0.482986
-11.8039 -33.5867 -0.477355
-29.7174 -20.2586 -0.451216
-23.8589 -48.2057 -0.649542
18.9423 -14.1327 -0.287171
19.9974 -14.3981 -0.312958
32.9266 -20.3035 -0.517027
-15.1769 -38.871 -0.493243
-26.7957 20.4298 -0.361492
-32.9199 -18.4011 -0.407323
-20.0077 -42.6962 -0.487141
-14.2761 -32.7445 -0.371368
-44.7317 24.5149 -0.424828
-24.7634 -43.6844 -0.446726
-14.4073 -37.789 -0.371317
42.1954 -10.1935 -0.404217
-13.0531 16.5686 -0.151464
-23.0257 -51.2749 -0.365936
-13.605 -33 -0.231613
-20.3665 -39.2497 -0.208381
20.4549 -14.5073 -0.124963
-26.8951 -8.36356 -0.157789
10.253 -9.64796 -0.0444823
13.8182 15.8152 -0.0515615
15.4092 8.11271 -0.0358906
-26.7338 -11.9264 -0.0465578
-86.4505 37.4347 0.0658886
-25.3242 -18.5273 0.0144811
-10.5326 -15.3362 0.027964
-26.5901 -8.04532 0.0776396
-11.4545 -17.2414 0.0455562
-14.3072 -32.8424 0.160507
10.1104 -9.62603 0.0627582
-28.9444 20.4845 0.18192
-15.44 -38.9777 0.218339
-81.0879 36.8499 0.514648
-83.8539 33.5307 0.564009
-27.3215 -12.68 0.187792
18.3617 -13.3975 0.12592
-11.6146 -17.8083 0.145337
15.9537 -12.4275 0.158004
-45.6509 16.3563 0.430484
8.00515 -13.7556 0.133273
17.3884 -12.8849 0.182517
-31.9747 -19.3486 0.402015
42.9659 -8.83051 0.450555
-30.9981 -19.4255 0.426575
-9.82483 -27.1382 0.347737
-45.3914 24.8962 0.686369
-10.2545 -27.58 0.367586
-8.83031 -25.4297 0.337791
-7.61665 -23.5678 0.309257
35.4568 71.8062 1.0149
10.2673 -9.65744 0.181106
-11.3488 -17.5863 0.291794
-8.46169 -25.6874 0.381064
9.15705 -9.09695 0.19449
-26.2777 -11.9408 0.381906
7.29514 -14.9256 0.24116
7.92663 -12.2151 0.221472
10.0144 -9.70846 0.200312
8.64565 -9.81022 0.208049
10.4087 -9.63788 0.232414
42.3203 -9.06639 0.703997
-21.5903 18.5153 0.506184
-29.2216 -19.6599 0.615918
-30.0096 -22.0172 0.662715
13.93 -11.4435 0.294058
14.2725 -11.5119 0.342181
-9.15425 -11.6069 0.283456
7.61728 -12.4846 0.284124
8.62445 -10.1363 0.260525
35.6212 73.3234 1.60629
-23.9827 -15.3984 0.60923
7.74253 -12.1705 0.288933
9.80682 -9.27911 0.285447
12.3878 -10.6477 0.356488
18.3754 -8.20699 0.40251
7.97957 -12.1074 0.327003
-8.71854 -11.2543 0.364549
-11.3673 -17.4504 0.50476
8.26189 -10.0589 0.295265
8.45902 -10.1163 0.304864
-23.0563 19.3789 0.778776
-26.5502 -8.51402 0.705446
10.2915 -9.57577 0.360103
19.1222 -13.9692 0.595204
20.0866 -14.4635 0.613745
-20.8284 18.2362 0.717692
-24.8435 19.6347 0.82329
-26.5806 -7.97744 0.732157
-29.5994 -15.782 0.919865
-11.8571 -17.9056 0.578355
15.9961 -12.4288 0.53878
24.2559 -3.52881 0.685057
-24.7653 -17.6143 0.872351
-10.871 -16.9518 0.589794
26.8628 -5.08837 0.790973
18.3075 28.4146 1.00141
-24.9759 -18.399 0.927168
8.03365 -12.5846 0.446753
7.69866 -11.823 0.42813
16.4069 26.7297 0.952034
-7.17348 -8.28897 0.33833
14.0542 -11.4999 0.552766
-6.85299 -8.90708 0.347581
-26.2925 -7.42095 0.914652
-10.6896 -15.6256 0.640802
8.49849 -10.0948 0.434997
16.9604 11.5883 0.728502
11.6327 -10.1291 0.558482
12.7829 -10.8003 0.607871
29.9042 60.2204 2.50484
-55.1142 20.1231 2.18444
-7.03616 -7.68146 0.392373
10.3197 -9.57968 0.523842
24.3299 -3.4155 0.938314
36.9802 76.4606 3.26355
-47.329 18.9143 1.9816
-6.95164 -9.2267 0.455656
11.1843 -10.2006 0.591913
13.7151 -11.3274 0.716634
22.8953 -2.80546 0.935622
14.8863 20.2185 1.06038
-26.2184 -15.9061 1.26269
-11.1972 -17.782 0.896848
9.34365 -9.30169 0.542977
-6.5158 -7.96665 0.445666
10.0917 -9.54646 0.578811
13.4015 15.3848 0.893783
-26.5734 -7.79864 1.22285
15.9438 20.7675 1.16782
16.9521 29.1898 1.49332
27.2841 53.6601 2.64464
7.30815 -16.2835 0.792442
11.6225 -10.1965 0.697137
19.4373 -1.72461 0.888235
23.6231 44.9835 2.36806
16.9114 29.7998 1.5958
-10.8547 2.69279 0.538247
-6.77217 -8.92614 0.544235
9.81345 -9.61848 0.648716
12.1404 -9.31409 0.714332
21.2579 -2.43563 1.02605
12.1436 12.3767 0.854715
20.3006 48.8256 2.58501
8.30786 -9.84241 0.619791
8.38936 -10.2249 0.648839
10.906 -9.93286 0.728295
16.2975 27.6385 1.59659
24.6625 47.8326 2.71627
22.2679 -2.77359 1.13623
-6.98114 -8.02026 0.555152
10.039 -9.55826 0.719546
18.6059 27.2859 1.72457
19.1175 34.6603 2.05422
14.0312 -11.5653 0.963684
11.0281 12.8927 0.901179
15.3821 20.8812 1.38467
11.8731 -10.2951 0.847382
16.2604 21.187 1.46417
-23.7627 18.216 1.63243
-6.57597 -7.71476 0.564231
10.7099 12.949 0.934934
-6.804 -8.78346 0.626293
10.4428 13.0093 0.961452
-25.0865 17.6622 1.73874
7.07507 -14.9408 0.942635
11.6756 12.6225 0.98203
-6.55295 -6.46696 0.536782
11.7739 12.5556 1.00729
-6.41227 -7.92333 0.613696
7.17723 -14.4264 0.937818
15.8609 21.1041 1.57895
15.6431 25.5777 1.77939
15.8644 36.6681 2.38713
-5.99888 6.38952 0.535703
-7.74948 -7.34281 0.649129
-6.7213 -7.71038 0.631754
6.62701 -14.4108 0.95499
-7.12564 -6.5602 0.605538
7.77715 -12.3909 0.901526
7.69378 -11.6274 0.867266
12.1683 -10.5035 0.990163
13.0404 -10.9087 1.05092
16.9192 7.49374 1.17295
16.1017 20.86 1.65879
-6.91311 -6.02441 0.597506
10.9981 -10.0446 0.958627
-7.05229 -5.98259 0.609392
12.0012 12.664 1.18263
10.6117 23.8895 1.77272
-6.80428 -9.03215 0.75996
12.1831 13.2145 1.22669
-6.70719 -4.29777 0.549872
-6.37122 -7.73803 0.6873
-6.46275 -4.2765 0.536431
9.91559 -9.47978 0.952277
10.6018 -8.3177 0.946469
13.5195 17.0404 1.56565
-6.36429 -6.35759 0.627954
10.4374 -8.81374 0.996107
12.2726 18.3515 1.65276
12.2654 19.5559 1.71729
10.3816 19.7602 1.67667
9.8634 21.3171 1.76004
8.31464 24.7826 1.95908
11.64 20.0925 1.76207
10.6029 -8.04433 1.01472
-6.67881 -6.8316 0.735482
-16.2684 -5.90032 1.35719
10.0384 -8.13792 1.0101
10.1302 20.2341 1.77953
-6.16017 -4.1128 0.589154
-6.44671 -7.75896 0.803707
5.10975 -6.05923 0.62732
9.87269 21.7228 1.88607
8.50682 20.8006 1.80107
5.31116 -6.12111 0.650072
13.357 12.0534 1.45164
12.3097 12.3655 1.42267
7.31907 -10.21 1.01768
12.7845 12.2288 1.44812
7.42012 21.7842 1.87842
-6.13429 -4.23428 0.60948
-6.70795 -8.87809 0.91807
12.0693 12.6453 1.44028
10.8319 9.47633 1.22019
-4.57918 -10.4492 0.970197
5.66948 -6.086 0.736491
6.45503 -6.37067 0.788681
9.73669 -7.58492 1.05847
-6.48129 -6.3839 0.776146
10.9043 12.9233 1.47031
9.30457 -7.75271 1.04974
11.3107 12.7512 1.48586
-6.9309 -7.36231 0.890368
8.66919 -7.71742 1.02742
10.6775 13.0515 1.51024
-6.70368 -7.33927 0.885255
-6.54676 -7.87011 0.923059
11.0818 12.8824 1.5373
11.0405 14.2422 1.62675
-6.71881 -7.86242 0.946427
11.6741 11.277 1.48729
-6.09796 -4.08566 0.677027
-6.46156 -8.093 0.95202
-6.10681 -4.24013 0.687466
11.4548 8.84063 1.35254
11.0107 9.6531 1.35999
6.94804 16.5055 1.67968
11.5053 11.4396 1.50866
10.9431 11.7733 1.51542
-10.901 2.79381 1.06303
6.48153 -6.27892 0.857206
8.43596 -6.99318 1.04928
11.1145 9.51817 1.41526
9.96767 13.1159 1.58967
10.1536 13.0311 1.62211
8.00652 12.8053 1.49532
8.3075 13.8884 1.60588
11.5965 8.32796 1.44986
7.47988 13.3108 1.53622
9.42577 11.8129 1.53258
7.37392 14.2763 1.6398
6.22453 14.7911 1.64326
9.53662 10.8727 1.4897
9.44375 12.8659 1.65307
11.7631 7.91048 1.47364
9.57351 10.354 1.4632
5.25792 -6.15242 0.865262
-6.59934 -4.48805 0.844391
5.91725 14.7431 1.68223
-6.8091 -4.34671 0.863991
9.26373 11.1003 1.54738
-6.44992 -6.45924 0.980162
6.21708 -6.13603 0.940184
9.99085 8.79693 1.42994
9.24607 9.658 1.43319
9.59305 10.6945 1.55264
5.09963 14.7804 1.68402
4.6496 -8.84035 1.07685
6.70898 11.2243 1.4347
-6.57849 -3.79583 0.838218
6.62927 12.4302 1.55883
-6.67112 -3.73712 0.849308
9.98187 7.40693 1.38526
6.94097 11.8462 1.52481
10.0786 7.22664 1.3885
5.67635 12.1008 1.50748
5.70201 12.679 1.56642
4.95297 12.8893 1.55898
10.1031 6.86732 1.38756
-6.64649 -4.40077 0.915565
7.78368 -6.54636 1.15584
-7.16091 -0.766737 0.826599
-6.02538 -5.17604 0.91792
5.52365 -5.85869 0.925575
9.12519 8.11286 1.41791
4.77036 -7.75419 1.05002
10.6922 5.29379 1.39262
9.21098 8.01342 1.43054
5.47686 -5.90935 0.948242
8.84053 8.13799 1.42122
9.17873 9.33858 1.52723
-6.76198 -5.4217 1.02884
10.4009 4.8707 1.36388
-6.69457 -3.72662 0.92552
9.36795 6.29793 1.36461
5.43919 11.9229 1.58502
-6.69146 -2.97538 0.891732
-6.67152 -3.1537 0.894407
5.16781 -6.30168 0.990774
6.3001 -6.46306 1.09518
9.6055 5.76191 1.38021
8.67896 7.40999 1.40652
-6.71191 -4.16227 0.975522
-6.63833 -4.37417 0.982571
8.49921 8.83581 1.51652
5.25107 11.8097 1.60137
-6.28435 -5.38958 1.03371
4.06874 -8.30558 1.1467
8.73331 7.95277 1.47349
6.37747 -5.89363 1.0851
9.39449 6.21207 1.4228
-5.89059 -5.19772 0.994582
8.75866 6.77615 1.40783
8.29539 7.70235 1.4356
-6.92145 -1.73734 0.914143
-6.82597 -2.24386 0.919299
-6.194 -5.11108 1.02785
9.03561 5.79323 1.37164
8.37907 8.2669 1.51267
-7.08831 -1.22251 0.923517
-6.66706 -3.98072 1.00651
7.58718 6.35168 1.27742
8.27643 7.21393 1.41933
8.18653 8.34758 1.51071
-6.714 -2.74543 0.946277
-6.71212 -2.88004 0.946268
4.71936 10.4509 1.50375
9.19658 4.2022 1.32668
-7.06644 -1.56551 0.952533
7.09926 -4.42043 1.10799
5.21062 -6.28299 1.0781
-7.15726 -1.08984 0.970249
-6.82888 -2.14073 0.958979
-6.86312 -2.20756 0.964862
-5.7867 -4.24515 0.961925
5.51239 -6.97327 1.18034
7.16903 -4.33192 1.12417
8.27364 7.34833 1.49479
-6.97108 -1.67442 0.965285
-6.9 -1.90479 0.964299
8.9894 4.9633 1.39041
8.5189 6.00532 1.41285
-6.70428 -3.50531 1.03332
9.0608 4.25288 1.36869
3.4971 10.9911 1.57662
-7.13611 -1.17044 0.991141
-5.80052 -4.28629 0.994818
-5.77855 -4.37929 0.995533
7.40514 -4.07524 1.15823
8.25788 6.63569 1.46085
5.51037 9.31371 1.49491
-6.16504 -4.17418 1.02348
5.19375 -5.81702 1.07925
7.44023 -3.96516 1.16983
7.82323 -3.8144 1.20075
3.7615 10.4352 1.5419
3.58187 10.7776 1.58093
-7.19252 -1.05567 1.0161
-6.89019 -1.95132 0.999577
5.22159 -5.55183 1.06148
7.50033 -3.86795 1.18203
7.6186 -3.79924 1.20391
8.13703 -3.46884 1.25391
-6.97086 -1.82603 1.02643
-6.80416 -2.85959 1.07177
-5.80034 -4.22201 1.03475
8.15235 -2.86881 1.26086
8.40332 4.7169 1.40777
5.12577 8.78091 1.48675
8.54541 4.60217 1.43033
8.05944 -2.40872 1.23638
7.28733 5.80134 1.39086
3.0749 9.81464 1.53562
-6.9094 -1.96651 1.07841
7.72554 -3.20967 1.25753
8.39833 4.64182 1.45041
5.91436 7.60645 1.45939
5.41006 7.80501 1.44355
5.24897 8.13241 1.46674
5.20333 8.24693 1.47236
7.57164 -3.27213 1.25618
7.91718 -2.84102 1.27726
-6.59215 -1.64157 1.0248
8.05989 -2.32213 1.28259
7.37612 5.53235 1.41182
-6.92005 -1.9015 1.11543
-6.72471 -2.70688 1.1289
6.94324 5.63203 1.39843
-7.17912 -1.06898 1.13507
-6.96184 -1.77706 1.12702
-6.86269 -2.01308 1.12243
-6.93859 -1.82404 1.1276
-6.69708 -2.84959 1.14487
4.91448 7.62019 1.43868
3.6926 -6.4594 1.18235
-7.09901 -1.26735 1.15671
3.7607 -6.08122 1.14642
3.79332 -5.97001 1.13326
7.20856 4.85937 1.41271
4.76326 7.53884 1.44803
-6.88767 -1.97053 1.16943
-6.91058 -1.89636 1.17776
7.10132 4.9211 1.42498
3.91412 8.13123 1.49119
6.24914 -3.42616 1.18346
6.75653 4.96385 1.39406
4.76058 7.31695 1.45282
4.05411 -5.59931 1.15684
7.24261 4.51037 1.43275
7.6197 2.91398 1.3748
6.43822 5.38236 1.41851
-7.10356 -1.22495 1.2291
6.87483 4.1568 1.3759
-6.27266 -2.69499 1.16721
5.69914 -3.75399 1.16845
5.88164 -3.63595 1.18339
2.83032 8.06567 1.47558
-7.19754 -1.01436 1.26165
5.52342 -3.9172 1.17645
-6.14971 -2.20152 1.13468
-6.10749 -2.35313 1.14817
4.47831 -4.87817 1.15348
4.68832 -4.66961 1.15638
4.78727 -4.63741 1.16498
-6.6342 -1.68959 1.20778
4.413 6.62063 1.41614
-6.99416 -0.906295 1.26211
-5.98769 -2.19977 1.13831
6.75526 3.75665 1.38182
6.20181 4.43486 1.37924
3.81906 -5.63521 1.2325
5.23597 5.78284 1.4234
2.57553 7.36948 1.46431
6.59337 3.10346 1.37409
-1.58682 -5.3865 1.06958
6.57523 -1.41741 1.27251
6.37384 2.82279 1.33839
6.3173 2.41971 1.34596
-4.4051 3.89812 1.3815
4.37187 3.5726 1.34696
4.25383 3.32563 1.33325
4.7656 -1.71322 1.26755
4.91551 -1.40803 1.27516
-2.13681 4.78618 1.30724
3.84046 -3.0416 1.25467
3.77134 -2.61645 1.22082
3.51162 -3.05132 1.25834
4.03893 2.59166 1.3375
-2.5015 -3.40892 1.21097
-2.23926 -3.43957 1.17616
3.78468 2.07413 1.30843
3.7611 1.99583 1.30783
-2.83088 3.47132 1.38066
-2.23234 -2.35268 1.15847
2.01956 -2.86652 1.24484
-2.12054 2.76403 1.32292
-2.02648 2.75332 1.32972
2.30138 -1.90911 1.24659
2.93971 -2.09323 1.51298
2.42569 -1.52501 1.23996
-2.00924 1.87204 1.29284
-2.02128 -1.41313 1.20672
1.48552 -2.11387 1.26724
-1.95546 -1.06759 1.19569
-1.8941 -0.696036 1.20403
-1.89602 -0.691987 1.22943
-1.92914 -0.339056 1.21536
-1.86439 -0.555787 1.21492
-1.86441 -0.522581 1.22018
8.55184 -9.04041 -7.75021
12.768 -10.8253 -9.25132
-8.18802 14.6073 -6.49072
16.5184 -12.8048 -7.86421
22.1714 27.019 -12.58
-8.5247 -2.44091 -2.50015
-19.4004 -49.2134 -11.5739
-30.1954 -20.17 -6.70441
-29.9476 -19.5844 -5.27507
-29.6589 -20.1552 -5.32065
-27.7621 -17.8049 -2.47397
-26.7464 -51.6453 -3.75987
9.94076 -9.46848 -0.419329
-6.96691 15.0175 -0.41115
-26.8947 -10.4068 0.670903
-6.52809 -7.80199 0.437747
18.5552 26.6476 1.75378
12.1433 17.0794 1.72668
-6.39077 -6.36558 0.846835
4.4715 12.9747 1.57841
9.01376 9.38957 1.51772
8.21383 -9.01537 -10.6709
8.40493 -8.30329 -10.2202
9.11091 -8.79745 -10.8083
7.14591 -12.2291 -11.7894
7.06481 -11.6384 -11.1661
8.41187 -8.51602 -9.8162
7.20142 -12.3031 -11.5791
7.27511 -11.2713 -10.734
8.26592 -8.64192 -9.48737
8.37796 -8.37965 -9.35634
6.92688 -11.5897 -10.5603
6.6319 -12.0026 -10.4733
8.01857 -9.13474 -9.25328
6.3589 -14.6171 -12.0502
8.5922 -8.9969 -9.40373
6.4803 -12.2147 -10.43
6.31283 -12.375 -10.3469
7.76155 -9.7703 -9.30281
8.1777 -9.34874 -9.2087
10.9132 -9.84302 -10.9159
6.2497 -14.3588 -11.5639
6.21322 -13.8669 -11.1621
6.29626 -12.8738 -10.5283
9.55322 -9.1582 -9.6949
9.6438 -9.41303 -9.81559
6.02515 -12.8041 -10.2675
9.72416 -9.32829 -9.60381
7.11051 -11.5037 -9.58374
5.76115 -13.2575 -10.2194
10.0977 -9.45219 -9.78871
7.68552 -8.14472 -7.88823
7.88631 -9.66939 -8.75987
10.4196 -9.56569 -9.92368
11.3767 -9.88329 -10.5614
9.81189 -9.42027 -9.41632
11.9674 -10.1365 -10.5193
8.70582 -8.92695 -8.24353
7.72469 -9.65206 -8.15542
8.49714 -9.05981 -8.19752
12.713 -10.8866 -10.9397
7.93226 -9.71077 -8.1905
-8.69152 -1.93618 -5.8078
8.14994 -9.7636 -8.13867
8.65439 -8.86791 -7.90929
0.333652 15.5409 -9.91846
7.83692 -9.6933 -7.91966
11.4174 -10.0449 -9.65606
7.53761 -11.1435 -8.50064
8.48572 -8.83195 -7.71235
4.67966 -15.5418 -10.2004
9.04435 -9.01988 -7.89212
9.22636 -9.0024 -7.95469
10.8145 -9.94051 -9.1295
8.24397 -9.38809 -7.69468
4.07174 -17.9899 -11.3565
8.53119 -8.96816 -7.55557
4.0863 -17.1844 -10.7746
0.125637 14.5636 -8.86186
6.93514 -11.7117 -8.27314
8.0567 -9.63046 -7.60656
10.6275 -9.7672 -8.74534
13.2482 -10.6628 -10.3561
7.10561 -11.6962 -8.20244
8.40342 -9.58407 -7.63915
11.8323 -10.1743 -9.31735
5.56305 -14.2162 -9.04283
8.06259 -9.64573 -7.44341
9.76392 -9.42337 -8.02903
7.20236 -11.575 -8.05518
8.32434 -9.50603 -7.40242
10.2103 -9.61044 -8.15971
15.372 7.68377 -9.98931
9.06283 -9.22554 -7.46092
7.23427 -11.4184 -7.75555
2.70817 -11.4183 -6.74107
8.20408 -9.45749 -7.15882
7.71727 -9.17601 -6.79624
10.0665 -9.57159 -7.87865
11.3133 -9.94533 -8.48594
0.110734 14.9961 -8.45904
3.21165 -19.9618 -11.3721
7.08695 -11.4198 -7.52229
10.598 -9.73593 -8.04757
13.0415 -10.9369 -9.5318
9.66771 -9.4157 -7.52956
4.75492 -14.6519 -8.5773
8.92459 -9.06991 -7.05053
8.37985 -9.63881 -7.08138
6.30662 -12.7832 -7.83475
15.2953 7.82233 -9.44007
10.1662 -9.53987 -7.64516
0.799409 17.1232 -9.36294
2.67143 -19.1149 -10.5278
11.695 -10.1273 -8.38824
4.39012 -14.8776 -8.38474
15.1993 7.95138 -9.24806
15.6541 10.8128 -10.2264
14.497 8.0004 -8.85585
11.5183 -10.1097 -8.13827
14.0562 -11.4406 -9.62809
2.97025 -18.6619 -9.93694
11.964 -10.3446 -8.03636
2.11176 -19.5442 -9.92583
10.8176 -9.8433 -7.34318
15.1336 -11.963 -9.67364
14.6878 -11.8747 -9.44278
11.6207 -10.1872 -7.68778
7.88701 -9.79762 -6.21709
3.6989 -8.75946 -4.67657
8.86359 -8.42344 -5.96647
-8.43406 -1.85142 -4.24821
2.14246 -19.1379 -9.45122
4.68846 -9.59041 -5.21192
0.381654 13.4197 -6.57347
7.98812 -9.72297 -6.12913
-7.98101 15.2133 -8.31191
-8.8995 -2.35238 -4.4382
8.71993 -8.57753 -5.94419
10.7049 -9.78606 -7.01021
15.9997 -12.3505 -9.70073
20.2838 5.80503 -10.0967
-9.94957 -2.46312 -4.85064
1.85653 -19.6393 -9.38444
18.0971 17.0169 -11.7823
1.95161 -16.2883 -7.74076
3.74392 -9.07079 -4.61067
8.00368 -11.8152 -6.72074
21.0067 5.67136 -10.2538
14.8911 -11.7832 -8.81933
2.9721 -17.4154 -8.20924
20.2745 5.99998 -9.77505
19.1799 -13.9721 -10.9483
10.1556 -2.5647 -4.83749
21.2883 5.39699 -10.1394
18.243 17.1655 -11.5597
1.7449 -19.1448 -8.80406
10.165 -9.49866 -6.36072
10.5717 -9.65207 -6.59229
-8.92394 -1.6194 -4.13869
9.75005 -3.57687 -4.72681
7.11018 -11.966 -6.31752
10.2091 -2.69608 -4.78722
21.1134 20.4288 -13.2602
20.1636 6.14966 -9.4977
18.7346 18.5941 -11.8844
2.3091 -18.9234 -8.56852
9.65274 -3.17914 -4.57169
16.5367 -12.7209 -9.35057
7.45848 -12.2344 -6.3955
7.54851 -11.5056 -6.12134
9.86101 -3.51153 -4.66163
-9.39593 15.386 -8.01878
19.0001 -13.8617 -10.4388
20.4736 5.89913 -9.45075
16.7498 7.59924 -8.15286
18.8595 19.0612 -11.8775
12.9556 -10.9267 -7.44278
17.6045 -13.0878 -9.6566
-10.4509 15.8822 -8.34756
-6.18179 14.1087 -6.74598
-5.13045 4.81265 -3.06531
21.1338 5.73937 -9.52765
9.86111 -3.51224 -4.51472
19.3223 19.5963 -11.8473
16.9545 -13.0423 -9.19285
15.4071 7.70566 -7.3598
4.02819 -9.7299 -4.46371
-10.4074 15.8181 -8.00782
7.3522 -11.5298 -5.75382
-13.0457 3.19748 -5.65875
0.716993 -20.6487 -8.71624
16.8773 -12.7726 -8.84096
-5.05061 5.56178 -3.14311
0.951507 -20.4947 -8.61011
1.19826 -19.6856 -8.26706
14.665 7.86773 -6.96857
19.7325 20.5767 -11.9315
3.96547 -9.35757 -4.22823
15.3124 8.01536 -7.20224
19.0127 20.3195 -11.5675
-9.22053 -1.05779 -3.83306
4.17493 -8.83188 -3.99395
14.5272 8.02398 -6.82071
7.25858 -11.6351 -5.59435
-13.0896 2.44549 -5.44733
-7.46735 14.4537 -6.60344
20.6109 22.4101 -12.3564
15.6447 7.51917 -7.00131
10.1556 -9.0655 -5.50026
-4.99065 13.606 -5.80396
19.2543 21.5545 -11.3432
14.9134 -11.787 -7.43524
4.20922 -9.69305 -4.13561
1.5041 19.1768 -7.47819
-8.17885 14.7606 -6.55024
19.8874 6.06637 -8.06306
-1.68657 12.6862 -4.95265
5.59967 -9.91601 -4.38097
-2.28623 12.8777 -5.01906
21.0784 24.4 -12.3865
14.0194 -11.2622 -6.83608
3.39974 24.0266 -9.24404
4.90272 -8.94038 -3.86287
20.3637 5.84312 -8.06844
0.795659 -23.0643 -8.78697
13.1014 -10.9773 -6.45924
15.9837 -12.3137 -7.58324
20.9736 5.68348 -8.13972
9.74912 -3.55137 -3.87688
0.494657 -19.8164 -7.4035
3.4489 -11.4073 -4.44056
21.7795 25.3561 -12.4364
0.895718 -8.42131 -3.14469
14.991 -11.8681 -7.04084
21.4289 5.45141 -8.13658
6.75586 -10.7215 -4.62822
19.0094 18.7927 -9.78587
-12.5507 2.19919 -4.63266
22.5909 26.9965 -12.7919
2.35609 -13.5245 -4.93951
13.9001 -11.2373 -6.42288
0.767199 15.2138 -5.45425
-7.94215 -2.70994 -3.0039
0.390255 -19.3047 -6.91628
-3.97934 13.0337 -4.84092
0.601522 -19.6566 -7.00037
17.0666 -12.8867 -7.56996
-14.4724 16.7271 -7.78786
6.27122 -11.9679 -4.74031
4.98546 -12.0695 -4.62855
-10.2393 15.4454 -6.46545
0.107709 -16.5377 -5.82639
15.2577 -12.0877 -6.79735
21.378 5.63151 -7.72321
0.612426 -20.4087 -7.06419
-9.15083 -1.17378 -3.15391
-4.70308 13.6317 -4.93398
3.85303 -8.92057 -3.33527
5.16209 -9.54471 -3.70887
-13.3622 16.585 -7.28301
2.34152 -11.11 -3.88567
7.98 -8.36344 -3.90058
-8.27092 14.9949 -5.8305
3.21949 -14.467 -5.04133
-13.7916 16.9224 -7.39372
6.36454 -10.0787 -3.98373
21.1892 5.76225 -7.38752
24.2901 30.0665 -12.9458
41.2162 -23.2625 -15.8027
-4.97786 13.1876 -4.67506
1.88691 20.7117 -6.90898
1.26597 -10.0777 -3.35882
20.8953 -15.1867 -8.56831
36.9313 -23.213 -14.3313
-4.92924 13.5542 -4.67823
-11.6438 15.9357 -6.39606
15.3852 -11.83 -6.32001
20.2052 -14.3962 -8.04681
3.73881 -9.07876 -3.14017
6.62859 -10.7636 -4.04111
13.1431 -10.7094 -5.43857
2.36335 -11.1485 -3.62264
-3.63618 -27.4875 -8.83346
-0.939166 -20.1715 -6.44501
15.6854 10.8051 -6.02093
1.93929 19.5407 -6.23978
-12.2031 16.2337 -6.41304
-16.4224 17.71 -7.58555
3.26913 -10.5068 -3.45816
14.1941 -11.1909 -5.67958
7.48453 -11.9152 -4.33913
1.26753 -19.5453 -6.06928
-2.09754 -22.5717 -6.97696
7.42257 34.4602 -10.7766
0.739267 14.7355 -4.48442
-10.3059 15.5451 -5.61552
-2.1881 -21.6741 -6.5796
-13.2084 16.5111 -6.30307
-4.24374 -27.9747 -8.44301
0.739172 -21.1795 -6.35229
-5.02579 13.8065 -4.36419
2.04603 20.5981 -6.10616
-19.335 18.026 -7.79278
19.0584 6.06602 -5.89376
-4.02269 13.4858 -4.13205
-7.38365 14.3171 -4.72051
3.58369 -10.4972 -3.2366
4.56102 -9.78032 -3.16182
4.98981 -12.4686 -3.91559
21.4538 -15.3325 -7.76394
-12.1656 2.14362 -3.55056
-26.2769 -37.2263 -13.1191
5.58414 -14.8643 -4.55792
-13.9708 16.8035 -6.27642
7.53378 -11.9893 -4.06529
2.70245 -10.004 -2.93682
13.817 -11.1808 -5.05113
-8.18901 -2.38281 -2.41993
23.0715 29.7765 -10.697
-8.31494 -2.19107 -2.43135
-2.02649 -20.8528 -5.89944
-12.5464 1.923 -3.53494
54.7693 -17.6155 -16.0034
4.76634 -12.2752 -3.6429
4.05456 -13.682 -3.91645
-8.63613 14.8469 -4.71025
-12.0452 16.0613 -5.5091
-5.02577 13.4 -3.90607
-6.49066 -31.6054 -8.84722
10.3634 -9.44436 -3.8092
-19.4727 18.1699 -7.15432
-9.02256 14.9568 -4.67613
34.4727 -17.8804 -10.4511
-24.0241 18.4536 -8.05338
48.9166 -16.0869 -13.6494
11.8845 11.9655 -4.45981
4.72073 -12.293 -3.47652
54.5372 -15.8534 -15.0428
-6.19494 -29.2933 -7.88967
2.59567 -9.47552 -2.5557
4.43311 -9.37271 -2.71989
11.9274 -10.6063 -4.16872
-13.2706 16.6136 -5.52401
7.0192 -11.1822 -3.40826
-24.1108 -32.9439 -10.5587
3.425 -10.3583 -2.81073
-24.1505 -35.3741 -11.0662
-3.38869 -22.304 -5.85643
3.84639 -11.2309 -3.05018
4.40863 -10.1539 -2.83508
16.8711 -12.6845 -5.37858
-6.62408 14.1058 -3.9392
-25.6066 -34.1518 -10.8286
4.70791 -12.1389 -3.28378
4.59114 -8.30765 -2.40686
-32.8121 -89.7149 -23.952
41.5372 -13.4755 -10.9158
7.09299 -11.5613 -3.37275
51.5658 -15.5899 -13.4286
-25.2823 19.0735 -7.82428
-10.6429 15.6333 -4.65787
-22.5254 -32.8632 -9.80097
-7.55125 -29.7614 -7.59044
-22.0666 18.5331 -7.07651
4.72461 -11.1987 -2.97605
-7.00488 -30.2926 -7.64013
-11.1257 15.9331 -4.70753
-7.286 14.1905 -3.84048
-26.3511 -75.8725 -19.4523
10.9362 -9.86217 -3.52034
45.8132 -15.2173 -11.5489
15.7217 7.86436 -4.19215
-4.76447 -27.3639 -6.63453
4.2877 -9.80723 -2.52724
54.2942 -14.5308 -13.3385
-23.2469 -34.7263 -9.90819
-9.02404 -33.2622 -8.18084
4.62438 -9.88682 -2.59285
-21.6558 -31.4206 -8.95085
4.33828 -12.4176 -3.08592
5.30648 -9.39145 -2.52905
41.9998 -16.0735 -10.5493
-11.7675 16.0339 -4.62458
3.4907 -10.2737 -2.48679
45.5968 -10.8217 -10.8717
-5.79252 -27.3642 -6.48901
11.7484 -10.2936 -3.56441
-4.84187 -24.6103 -5.73791
15.0714 -11.7101 -4.36736
-24.3711 18.8218 -6.97556
-8.70241 -31.3482 -7.36871
46.9562 -10.2686 -10.9085
-27.1256 19.6934 -7.51038
-30.9642 -20.2911 -8.29253
-4.40927 -21.0439 -4.80616
46.3073 -14.3146 -10.8808
5.90735 -10.2527 -2.63341
-11.9746 2.73278 -2.69525
46.0982 -13.5088 -10.6122
48.604 -13.8677 -11.1189
32.5462 45.8545 -12.3533
-4.98141 13.0616 -3.05209
14.4156 -11.5991 -4.06683
42.9489 -13.8018 -9.91551
-21.1131 18.4004 -6.07077
-19.9441 -49.1836 -11.529
4.7335 -10.6403 -2.51544
13.6995 -11.2947 -3.88493
4.96405 -10.031 -2.40819
-13.3631 16.6476 -4.55539
-27.44 19.9312 -7.23696
-28.1512 19.9776 -7.3741
-18.6057 -49.3778 -11.3246
-17.9642 -49.2152 -11.2087
-9.85095 15.3907 -3.87114
-6.44558 -27.3976 -5.99896
3.53656 -10.7084 -2.3939
4.39838 -10.8848 -2.49224
52.5543 -12.1844 -11.5168
15.5464 7.78862 -3.6934
-13.8617 17.0621 -4.65077
5.60317 -9.81869 -2.36707
31.7491 -11.1252 -7.12987
30.9689 44.8357 -11.4214
46.0432 -15.2598 -10.1135
-34.8276 22.8779 -8.72976
-23.9966 -23.4831 -6.97088
15.6042 8.16796 -3.66394
-26.5262 -20.4863 -6.95092
-20.9889 -53.8292 -11.9747
45.8626 -12.3418 -9.8221
-10.5411 15.5297 -3.81093
-14.2922 16.897 -4.5022
-30.8469 20.7067 -7.54437
50.7191 -11.0625 -10.5875
-9.89052 -31.8389 -6.78821
4.57032 -10.7431 -2.36534
4.74748 -10.803 -2.39456
12.4199 -10.3237 -3.281
-25.9939 -23.5469 -7.04443
-11.0331 15.8316 -3.84896
-14.0739 -40.4065 -8.56293
-6.60519 -25.5795 -5.29754
-6.06973 -24.8197 -5.13379
-9.91309 -30.811 -6.41829
4.50521 -10.9671 -2.33753
-29.8556 -20.4144 -7.12682
40.373 -12.9505 -8.36671
-23.9734 18.8147 -5.99421
5.4338 -11.3822 -2.42112
-41.9118 26.2883 -9.67958
-29.0052 -20.7473 -6.94869
-6.35071 14.0283 -2.98542
-18.822 -44.2341 -9.34576
-29.4801 -19.6253 -6.82153
3.8312 -10.4223 -2.13394
52.7144 -12.2134 -10.3919
-11.7045 15.9794 -3.78372
4.42258 -10.3494 -2.1383
-31.8922 -19.3714 -7.05971
-17.6274 -28.6368 -6.39771
-11.6325 -33.5742 -6.73277
42.8336 -14.1294 -8.52527
-31.433 21.1113 -7.08161
-29.5105 -20.3801 -6.73404
-28.5751 -20.9063 -6.6433
-15.6265 -38.7209 -7.86465
-12.6518 -34.375 -6.80289
4.19956 -10.106 -2.01297
48.5884 -13.0952 -9.34505
6.28145 -10.5916 -2.24932
-25.1673 -32.134 -7.39614
-17.931 -40.6644 -8.1429
-15.1499 -37.6115 -7.34078
-13.3138 16.5956 -3.77015
-27.1378 -21.8867 -6.19423
-17.5382 -23.3707 -5.22558
-18.0445 -47.159 -8.96883
-34.1828 21.5696 -7.12686
-23.9712 18.8219 -5.30169
-22.0621 -19.1881 -5.10054
-29.9818 20.5162 -6.3039
4.3729 -11.2255 -2.07936
5.20491 -9.39032 -1.8589
14.5448 7.8123 -2.85431
14.6399 8.40236 -2.89807
-27.3423 19.8825 -5.79226
14.8202 -11.8951 -3.22786
48.262 -13.6542 -8.53945
47.8904 -12.403 -8.42253
50.5681 -11.7359 -8.89289
-27.2976 -21.6788 -5.91009
-15.7228 -25.7314 -5.1336
-19.0523 18.1447 -4.41571
-24.847 -20.4638 -5.48348
-15.0586 -37.4359 -6.82376
15.4613 7.75068 -2.90743
-28.0903 19.8857 -5.74569
7.29986 -12.1533 -2.37581
17.5415 -13.0614 -3.60094
-17.0624 -40.6859 -7.2951
44.1584 -13.924 -7.54634
-26.5572 -14.1025 -4.94924
64.4871 -22.5158 -11.049
49.9404 -13.4533 -8.40767
-9.52066 15.1138 -2.88058
-24.5451 -18.3976 -4.92016
-15.1981 -37.7093 -6.48917
-30.4342 -21.0083 -5.82294
-20.5779 18.0793 -4.28717
-22.7628 -14.2705 -4.24008
