ply
format ascii 1.0 
element vertex 1878
comment /media/mkaihara/Seagate Backup Plus Drive/model_iterations/model_13.ply
property float32 x 
property float32 y 
property float32 z 
end_header 
11.0645 9.47484 1.41274
9.91982 13.0524 1.58624
10.1074 12.9711 1.61894
7.98892 12.7767 1.49598
8.27873 13.8397 1.60443
11.5374 8.28498 1.44621
7.46394 13.282 1.5369
9.39495 11.7738 1.53155
7.35071 14.231 1.6387
6.20592 14.7467 1.64234
9.50766 10.8392 1.48905
9.40082 12.8072 1.64969
11.6985 7.8666 1.46926
9.54845 10.3263 1.46318
5.08492 -5.95008 0.838778
-6.73243 -4.5789 0.85904
5.90535 14.713 1.6828
-6.94235 -4.43213 0.878537
9.23662 11.0674 1.54674
-6.62083 -6.63043 1.00304
6.03793 -5.95944 0.914975
9.96102 8.7701 1.42932
9.22933 9.63978 1.43428
9.56486 10.6626 1.55195
5.0888 14.7491 1.68433
4.39972 -8.36635 1.02171
6.71022 11.2262 1.43863
-6.69812 -3.86527 0.851265
6.62419 12.4206 1.56145
-6.79052 -3.80438 0.862319
9.95019 7.38293 1.38434
6.93767 11.8404 1.52785
10.0446 7.20184 1.38728
5.67939 12.1075 1.51199
5.70149 12.678 1.57004
4.95061 12.8843 1.56199
10.0679 6.84289 1.38614
-6.77879 -4.48874 0.93134
7.57753 -6.3734 1.12719
-7.23583 -0.775233 0.833835
-6.1645 -5.29577 0.936406
5.35902 -5.68433 0.900006
9.10605 8.09544 1.41844
4.55634 -7.4071 1.00546
10.6401 5.26753 1.38912
9.19022 7.99497 1.43082
5.31088 -5.73051 0.921583
8.82572 8.12395 1.42232
9.16329 9.32215 1.52834
-6.9156 -5.5451 1.04936
10.3517 4.84718 1.36062
-6.81391 -3.79343 0.939738
9.34222 6.2802 1.36416
5.44792 11.942 1.59126
-6.79693 -3.0227 0.903742
-6.77998 -3.20538 0.906852
4.99379 -6.08984 0.959655
6.11175 -6.27019 1.06456
9.57333 5.74221 1.37885
8.66614 7.39861 1.40784
-6.83965 -4.24182 0.99163
-6.76973 -4.46112 0.999491
8.48986 8.82562 1.51843
5.26142 11.833 1.60821
-6.43076 -5.51534 1.05489
3.84645 -7.85378 1.08738
8.72044 7.94061 1.4748
6.20517 -5.73476 1.05788
9.36827 6.19428 1.42215
-6.02774 -5.31889 1.0149
8.74282 6.76349 1.40861
8.28792 7.695 1.43772
-7.00818 -1.75956 0.923852
-6.92009 -2.27524 0.930089
-6.33317 -5.2261 1.04811
9.01252 5.77801 1.37136
8.36988 8.25747 1.51452
-7.1687 -1.23681 0.932368
-6.79077 -4.05495 1.02274
7.58547 6.34988 1.28029
8.26748 7.20578 1.42116
8.18036 8.34091 1.51307
-6.81558 -2.7874 0.958543
-6.81574 -2.9249 0.958793
4.73514 10.4865 1.51233
9.16181 4.18589 1.3247
-7.15173 -1.58482 0.962293
6.95711 -4.33221 1.08792
5.03967 -6.07747 1.04511
-7.23658 -1.10237 0.979364
-6.92114 -2.1701 0.970032
-6.95691 -2.23816 0.976122
-5.90444 -4.33183 0.978949
5.31937 -6.72983 1.14148
7.02824 -4.24715 1.10422
8.26467 7.34003 1.49658
-7.05721 -1.69555 0.975428
-6.98908 -1.92981 0.974904
8.96235 4.94796 1.38938
8.50388 5.99433 1.4136
-6.81891 -3.5656 1.04864
9.02791 4.23705 1.36679
3.51423 11.0464 1.58801
-7.21637 -1.18405 1.00061
-5.9189 -4.37405 1.01252
-5.8985 -4.47046 1.01356
7.26789 -4.00003 1.13893
8.24836 6.62764 1.46248
5.52792 9.34338 1.50315
-6.28473 -4.25545 1.04079
5.03544 -5.64023 1.04876
7.305 -3.89341 1.15075
7.68692 -3.74828 1.18203
3.78083 10.49 1.55344
3.6001 10.8338 1.59263
-7.27162 -1.06773 1.0256
-6.97991 -1.97717 1.0107
5.07023 -5.39137 1.03307
7.3668 -3.79941 1.16319
7.48526 -3.73308 1.18506
8.00433 -3.41263 1.23573
-7.05954 -1.84971 1.0376
-6.90953 -2.90436 1.08614
-5.91757 -4.30765 1.05302
8.03256 -2.82701 1.24466
8.3829 4.70506 1.40745
5.14578 8.81537 1.49599
8.52255 4.58946 1.42961
7.95098 -2.37668 1.22207
7.28526 5.79945 1.39364
3.09493 9.88083 1.54933
-6.99928 -1.99251 1.09045
7.60395 -3.15949 1.24006
8.37816 4.63026 1.45005
5.93012 7.62662 1.46662
5.42949 7.83305 1.45208
5.26917 8.16381 1.47577
5.2243 8.28021 1.48169
7.45059 -3.22015 1.23843
7.8011 -2.79971 1.26089
-6.67138 -1.66164 1.03527
7.9526 -2.29158 1.26791
7.37293 5.52963 1.41437
-7.00894 -1.92635 1.12775
-6.82459 -2.74746 1.14342
6.94427 5.63265 1.40179
-7.25787 -1.08115 1.14572
-7.04934 -1.79984 1.13919
-6.95276 -2.03994 1.13511
-7.02637 -1.84755 1.13987
-6.79917 -2.89339 1.16001
4.93679 7.65493 1.44856
3.53321 -6.18256 1.13492
-7.17977 -1.28221 1.168
3.60956 -5.83835 1.10375
3.64479 -5.73769 1.09222
7.20352 4.85567 1.41483
4.78583 7.5748 1.45825
-6.97713 -1.99654 1.18253
-6.99904 -1.92106 1.19076
7.09734 4.91809 1.4273
3.93992 8.18549 1.50452
6.14068 -3.36705 1.1653
6.75744 4.96422 1.39734
4.78357 7.35246 1.46319
3.91343 -5.40614 1.11986
7.23512 4.5054 1.43435
7.5949 2.90417 1.37324
6.44384 5.38683 1.42289
-7.18346 -1.23916 1.24098
6.86897 4.15298 1.37774
-6.36654 -2.73569 1.18234
5.58895 -3.6818 1.14832
5.77259 -3.56893 1.16389
2.85555 8.1396 1.49248
-7.27529 -1.02575 1.27336
5.41147 -3.83823 1.15511
-6.23344 -2.23187 1.14795
-6.19368 -2.38674 1.16213
4.35273 -4.74212 1.124
4.56609 -4.54851 1.129
4.66504 -4.51963 1.13797
-6.71542 -1.71069 1.22049
4.43598 6.65546 1.42685
-7.06812 -0.916366 1.27356
-6.07028 -2.23055 1.15181
6.74776 3.7522 1.38328
6.2042 4.43638 1.38283
3.68166 -5.43406 1.19171
5.25295 5.80155 1.43124
2.59946 7.44062 1.48181
6.58205 3.09786 1.37467
-1.66562 -5.64685 1.1161
6.50555 -1.40285 1.26156
6.3623 2.81741 1.33887
6.30243 2.41374 1.34567
-4.39312 3.88685 1.3767
4.38217 3.5811 1.35332
4.26292 3.33284 1.33929
4.7071 -1.6926 1.25491
4.86173 -1.39305 1.26408
-2.10711 4.71699 1.28691
3.76393 -2.98177 1.23306
3.70471 -2.57102 1.20257
3.4385 -2.98886 1.23579
4.04318 2.59447 1.34216
-2.56631 -3.49601 1.23787
-2.30057 -3.53179 1.2036
3.78546 2.07466 1.31201
3.76122 1.996 1.31119
-2.81459 3.44981 1.3707
-2.27939 -2.40135 1.17859
1.96802 -2.79752 1.21889
-2.11027 2.74805 1.31347
-2.01651 2.7369 1.31993
2.26073 -1.87728 1.22952
2.3897 -1.50372 1.22619
-2.00753 1.86805 1.28822
-2.0541 -1.4356 1.22182
1.45382 -2.07468 1.24771
-1.98383 -1.08289 1.20858
-1.91782 -0.704894 1.21463
-1.91956 -0.700696 1.24013
-1.94921 -0.343114 1.22371
-1.88632 -0.562583 1.22467
-1.886 -0.528936 1.22977
8.41293 -8.89966 -7.63387
12.5109 -10.6113 -9.07304
-8.31997 14.8414 -6.59414
21.9186 26.7019 -12.4252
-8.65501 -2.47866 -2.53737
-22.2397 -56.4105 -13.266
-31.7548 -21.2123 -7.05506
-31.4471 -20.5655 -5.54408
-31.1654 -21.1794 -5.59579
-29.014 -18.6078 -2.59095
-30.4204 -58.7388 -4.28718
9.61021 -9.15363 -0.405718
-7.01121 15.1134 -0.41147
-27.8225 -10.7662 0.688796
-6.73651 -8.05138 0.449058
18.1421 26.0518 1.72179
12.0305 16.9196 1.71557
-6.55516 -6.52907 0.865751
4.47062 12.9736 1.58184
8.99602 9.37065 1.5184
8.12967 -8.93119 -10.5746
8.29936 -8.2049 -10.1037
9.01431 -8.71109 -10.7054
7.08967 -12.1498 -11.7159
7.00395 -11.5538 -11.088
8.31715 -8.4271 -9.71718
7.14937 -12.2316 -11.5143
7.20585 -11.1782 -10.6485
8.16779 -8.54645 -9.38623
8.2646 -8.27214 -9.24081
6.86115 -11.4956 -10.4777
6.5716 -11.9112 -10.3967
7.92018 -9.03078 -9.1517
6.32261 -14.5602 -12.0058
8.48146 -8.88795 -9.29373
6.423 -12.1255 -10.3569
6.26189 -12.2953 -10.283
7.65875 -9.65005 -9.19251
8.07659 -9.24146 -9.10665
10.7508 -9.70195 -10.7639
6.22148 -14.3209 -11.5353
6.19029 -13.842 -11.1435
6.24707 -12.7948 -10.4664
9.41849 -9.03493 -9.56855
9.50905 -9.28774 -9.68896
5.97673 -12.7236 -10.2059
9.58677 -9.20254 -9.4783
7.01988 -11.3712 -9.47742
5.71983 -13.1877 -10.1682
9.94336 -9.3131 -9.64911
7.7785 -9.54601 -8.65211
10.26 -9.42455 -9.78159
11.2084 -9.74249 -10.4148
11.7723 -9.97611 -10.357
8.57781 -8.80201 -8.13212
7.60601 -9.51219 -8.04165
8.36401 -8.92416 -8.07919
12.5216 -10.7286 -10.7843
7.80975 -9.569 -8.07529
8.02391 -9.62066 -8.02376
8.51865 -8.73472 -7.79472
0.340783 15.7797 -10.0717
7.71037 -9.54484 -7.80287
11.2238 -9.87938 -9.50129
7.41478 -10.9731 -8.37542
8.34985 -8.69645 -7.59832
4.67658 -15.5746 -10.2229
8.91185 -8.89406 -7.78557
9.09744 -8.88306 -7.85245
8.11142 -9.24424 -7.58102
4.09218 -18.1431 -11.4532
8.39358 -8.8296 -7.443
4.1137 -17.3591 -10.8834
0.12886 14.7817 -8.99529
6.82556 -11.5408 -8.15693
7.92715 -9.4834 -7.4946
10.4267 -9.58681 -8.58884
6.99402 -11.5263 -8.08766
8.26164 -9.4293 -7.52019
11.6133 -9.9903 -9.15339
5.51495 -14.1225 -8.98613
7.92621 -9.49007 -7.32768
9.59684 -9.26739 -7.90036
7.08292 -11.396 -7.93517
8.18208 -9.35044 -7.28562
10.0253 -9.4411 -8.02042
15.2845 7.63903 -9.93046
8.89762 -9.06249 -7.33369
7.11238 -11.2385 -7.63784
2.6872 -11.3757 -6.71824
8.05844 -9.29629 -7.04128
7.59791 -9.042 -6.70064
9.8773 -9.39623 -7.73895
11.1069 -9.76834 -8.33911
0.113985 15.231 -8.59219
3.26905 -20.4152 -11.6276
6.97102 -11.2461 -7.41212
10.3983 -9.5569 -7.90408
12.7687 -10.7117 -9.34051
9.49071 -9.24824 -7.40003
4.71666 -14.5706 -8.53255
8.21946 -9.46053 -6.9552
6.20567 -12.5975 -7.72533
15.2084 7.77683 -9.38433
9.97279 -9.36276 -7.50775
0.816435 17.4241 -9.52816
2.724 -19.5993 -10.7913
11.4698 -9.93644 -8.23446
4.34369 -14.7601 -8.32208
15.1167 7.90697 -9.1956
15.5752 10.7565 -10.1714
14.4239 7.95896 -8.80906
11.289 -9.91238 -7.98393
13.7495 -11.1944 -9.42569
3.02567 -19.1054 -10.1702
11.718 -10.1357 -7.8785
2.15717 -20.1044 -10.207
10.5842 -9.6343 -7.19213
14.8022 -11.7048 -9.4691
14.3439 -11.5997 -9.22903
11.3678 -9.96875 -7.52771
7.7179 -9.59392 -6.09278
3.63407 -8.62489 -4.60866
-8.55543 -1.87842 -4.30691
2.19692 -19.7598 -9.75418
4.61608 -9.45946 -5.1442
0.388226 13.6255 -6.67485
7.818 -9.52209 -6.00731
-8.1195 15.4768 -8.45568
-9.0368 -2.38896 -4.50435
15.6112 -12.0534 -9.47213
20.0662 5.74188 -9.98622
-10.11 -2.50311 -4.92679
1.89963 -20.255 -9.67516
17.9785 16.9011 -11.6983
1.98918 -16.7187 -7.94214
7.82056 -11.5544 -6.57759
20.7657 5.60547 -10.134
14.5528 -11.5189 -8.62565
2.98249 -17.559 -8.27761
20.0519 5.93334 -9.6655
18.6785 -13.6097 -10.6689
10.0422 -2.53659 -4.78592
21.0368 5.33241 -10.0175
18.1202 17.0457 -11.4751
1.79118 -19.8168 -9.10894
9.95013 -9.30167 -6.23307
-9.05038 -1.6427 -4.19523
9.62572 -3.53199 -4.66954
6.93502 -11.6824 -6.17334
10.0924 -2.66582 -4.73497
20.8511 20.1713 -13.0868
19.9422 6.08139 -9.39112
18.5905 18.4464 -11.7855
9.53531 -3.1411 -4.51885
16.1039 -12.3903 -9.11248
7.27382 -11.9424 -6.24834
7.37154 -11.2455 -5.98804
9.73526 -3.46744 -4.60505
-9.5567 15.6491 -8.15539
18.4884 -13.491 -10.1643
20.2438 5.8321 -9.34238
16.6216 7.54014 -8.08805
18.7173 18.9125 -11.7802
12.6775 -10.696 -7.28943
17.1501 -12.7527 -9.41377
-10.6548 16.1917 -8.51009
-6.27752 14.3254 -6.8492
-5.14414 4.82366 -3.07019
20.8836 5.67064 -9.41257
9.73439 -3.46779 -4.45946
19.1647 19.4314 -11.7428
16.5128 -12.7053 -8.95977
15.3106 7.65635 -7.31142
3.93702 -9.52824 -4.37582
-10.6027 16.1146 -8.15756
7.16711 -11.2491 -5.61894
-13.2197 3.23972 -5.73295
0.737277 -21.6547 -9.13537
16.4595 -12.4596 -8.62818
-5.06272 5.57302 -3.14732
0.983388 -21.5014 -9.02734
1.22869 -20.4287 -8.57537
14.585 7.82362 -6.92826
19.5607 20.392 -11.8192
3.87539 -9.16261 -4.14465
15.2213 7.96645 -7.15697
18.8664 20.1574 -11.4702
-9.34444 -1.07242 -3.88279
4.08966 -8.66698 -3.92325
14.4497 7.98001 -6.78201
7.06894 -11.3408 -5.4581
-13.2681 2.47846 -5.52037
-7.58574 14.6814 -6.70693
20.4022 22.177 -12.222
15.5389 7.46732 -6.95163
-5.0631 13.8008 -5.88653
14.5207 -11.4787 -7.24519
4.06922 -9.38374 -4.01003
1.53845 19.5612 -7.62786
-8.31211 15 -6.65584
19.6716 5.99964 -7.97315
-1.71659 12.9054 -5.03864
5.45004 -9.66109 -4.27336
-2.32396 13.0846 -5.09978
20.8475 24.1256 -12.2406
4.77825 -8.72388 -3.77391
20.1291 5.77499 -7.97308
0.839926 -24.7993 -9.43918
15.5468 -11.9792 -7.38151
20.7235 5.61481 -8.0402
9.61816 -3.50425 -3.82712
0.516057 -21.2318 -7.92385
3.3605 -11.1448 -4.3433
21.5326 25.0609 -12.2849
0.906093 -8.61993 -3.2161
14.5956 -11.5574 -6.86057
21.1612 5.38246 -8.03249
6.59476 -10.4758 -4.52639
18.8313 18.6126 -9.687
-12.7132 2.22729 -4.69155
22.3143 26.6574 -12.6239
2.34281 -13.5191 -4.93927
13.5364 -10.9453 -6.26008
0.784926 15.527 -5.56696
-8.06706 -2.75293 -3.04949
0.403337 -20.6262 -7.38219
-4.03667 13.2173 -4.90854
0.625593 -20.906 -7.43866
16.5797 -12.5209 -7.35924
-14.7933 17.0977 -7.96018
6.1112 -11.6764 -4.62941
-10.421 15.7187 -6.57921
0.102418 -17.5893 -6.18982
14.8488 -11.7661 -6.62038
21.114 5.56101 -7.62526
0.640699 -21.8319 -7.54956
-9.27331 -1.1899 -3.19479
-4.77343 13.8323 -5.00594
3.74069 -8.67488 -3.24821
5.01593 -9.28456 -3.6125
-13.6445 16.935 -7.43634
2.31965 -11.059 -3.86971
-8.40618 15.2389 -5.9246
3.154 -14.2245 -4.96105
-14.0898 17.2882 -7.55318
20.9262 5.68988 -7.29322
23.8689 29.5367 -12.7088
39.3584 -22.216 -15.0954
-5.04486 13.3618 -4.73592
1.93807 21.2145 -7.07643
1.27445 -10.2364 -3.41068
20.1927 -14.6771 -8.28537
35.2929 -22.1851 -13.7011
-4.99899 13.7428 -4.74248
-11.8639 16.2364 -6.5161
19.5586 -13.9367 -7.7941
3.64363 -8.86506 -3.07017
6.42759 -10.445 -3.92635
12.8006 -10.4322 -5.30142
2.34931 -11.1362 -3.61996
-4.0375 -30.4508 -9.77651
-1.03332 -21.9559 -7.00649
15.5739 10.7271 -5.97454
-12.4407 16.5493 -6.53707
-16.8212 18.14 -7.76958
3.13183 -10.0872 -3.32662
13.7896 -10.873 -5.52224
7.23448 -11.5242 -4.20198
1.34067 -20.9091 -6.48632
-2.3158 -24.8175 -7.66218
7.62481 35.3336 -11.0467
0.759305 15.0973 -4.59523
-10.4852 15.8148 -5.71208
-2.41661 -23.8509 -7.23139
-13.4763 16.8456 -6.43016
-4.71329 -31.0132 -9.35188
0.793698 -23.1681 -6.93987
-5.09874 14.0037 -4.42562
2.10935 21.178 -6.27806
-19.8463 18.5028 -7.99891
18.853 5.99979 -5.82765
-4.08337 13.6851 -4.19231
-7.48859 14.5189 -4.78594
4.40132 -9.4489 -3.05977
4.82262 -12.0693 -3.79537
20.7035 -14.7971 -7.49699
-12.314 2.16938 -3.59307
-28.6365 -40.569 -14.298
5.3415 -14.2375 -4.37254
-14.2632 17.155 -6.4071
7.25598 -11.5528 -3.92277
2.63548 -9.78969 -2.87747
13.4374 -10.8754 -4.91648
-8.31227 -2.4191 -2.45528
22.7552 29.3582 -10.5387
-8.437 -2.22365 -2.466
-2.25563 -23.1285 -6.53388
-12.7049 1.94695 -3.57889
52.0868 -16.7536 -15.2199
4.58373 -11.8223 -3.51407
-8.76698 15.0706 -4.78011
-12.2695 16.3599 -5.61067
-5.09073 13.57 -3.95443
-7.29851 -35.5091 -9.93239
10.0662 -9.1743 -3.704
-19.9878 18.6505 -7.34346
-9.16045 15.1843 -4.74611
-24.7529 19.0136 -8.29814
11.8488 11.9278 -4.44289
4.52897 -11.8105 -3.34573
51.8912 -15.0848 -14.3126
-6.96199 -32.8976 -8.85289
2.57147 -9.42534 -2.54355
4.24738 -8.98761 -2.6136
11.5875 -10.3056 -4.05392
-13.5363 16.9458 -5.63369
6.77851 -10.805 -3.29784
-26.0718 -35.6239 -11.419
3.29839 -9.99681 -2.71747
-26.235 -38.4267 -12.0224
-3.78554 -24.8804 -6.52445
3.69388 -10.8057 -2.93997
4.22891 -9.75101 -2.72784
16.3455 -12.2903 -5.21472
-6.71194 14.2909 -3.98957
-27.6842 -36.9223 -11.7091
4.51252 -11.6512 -3.15736
4.40316 -7.97121 -2.31451
6.8142 -11.1117 -3.24668
49.171 -14.8667 -12.8047
-26.0869 19.6807 -8.07381
-10.8216 15.895 -4.73475
-24.3944 -35.5903 -10.6155
-8.449 -33.2856 -8.48344
-22.6972 19.0627 -7.27881
4.53208 -10.7552 -2.86335
-7.89851 -34.1407 -8.604
-11.319 16.2093 -4.78807
-7.38027 14.3725 -3.88833
10.6301 -9.58757 -3.42537
43.8145 -14.5539 -11.0453
15.6071 7.80595 -4.15873
-5.38403 -30.8918 -7.48245
4.11321 -9.41873 -2.43194
51.6994 -13.837 -12.6999
-25.2359 -37.6969 -10.7575
-10.1752 -37.4937 -9.21638
4.39549 -9.40268 -2.47182
-23.401 -33.9535 -9.67369
4.09767 -11.7435 -2.92517
5.09127 -9.01489 -2.43243
-11.9766 16.3183 -4.70553
3.38509 -9.98606 -2.42078
-6.52431 -30.8041 -7.29815
11.4099 -9.99832 -3.46513
-5.40612 -27.4566 -6.39539
-25.1082 19.3913 -7.1868
-9.77928 -35.2184 -8.2737
45.0668 -9.8562 -10.468
-28.0317 20.3516 -7.76187
-32.5873 -21.3553 -8.73117
-4.84332 -23.0955 -5.2698
44.2921 -13.6921 -10.407
5.66856 -9.84299 -2.53277
-12.1077 2.76282 -2.72464
44.1366 -12.9346 -10.16
46.4333 -13.2488 -10.6215
31.1918 43.9378 -11.8221
-5.03446 13.1976 -3.08228
13.9691 -11.2406 -3.94411
41.1745 -13.232 -9.50572
-21.6875 18.9011 -6.23575
-22.8861 -56.4355 -13.2284
4.50729 -10.1399 -2.40242
13.2714 -10.9423 -3.76681
4.73382 -9.57109 -2.30286
-13.6213 16.9689 -4.64231
-28.3743 20.6101 -7.48392
-29.1335 20.6748 -7.63204
-21.465 -56.9615 -13.0628
-20.7132 -56.7399 -12.9213
-10.003 15.6275 -3.92936
-7.22828 -30.7116 -6.71964
3.3535 -10.1705 -2.27921
4.16847 -10.3251 -2.36978
50.1611 -11.6303 -10.9906
15.4326 7.73053 -3.66345
-14.1424 17.4073 -4.7439
5.36664 -9.40805 -2.27258
30.0458 43.4846 -11.0643
-36.2942 23.8422 -9.09874
-25.4032 -24.8606 -7.38253
15.487 8.1056 -3.63339
-27.8644 -21.5199 -7.30497
-24.4046 -62.5849 -13.9226
43.9524 -11.8284 -9.41194
-10.7074 15.774 -3.86956
-14.5799 17.2367 -4.59176
-32.0149 21.4909 -7.83093
48.5016 -10.5797 -10.1226
-11.0806 -35.6645 -7.60094
4.33701 -10.2028 -2.25169
4.48162 -10.2032 -2.26746
12.0493 -10.0162 -3.18599
-11.2152 16.0924 -3.91107
-15.9904 -45.9044 -9.72659
-7.36118 -28.4994 -5.89816
-6.77125 -27.6795 -5.72088
-11.0504 -34.3407 -7.1512
4.27213 -10.4088 -2.2238
-31.4082 -21.4766 -7.50161
-24.6829 19.3717 -6.17165
-30.5245 -21.8347 -7.31675
-6.42476 14.19 -3.01817
-21.3244 -50.1137 -10.5888
-30.9723 -20.6192 -7.17094
3.61527 -9.84524 -2.02127
50.255 -11.644 -9.90496
-11.903 16.25 -3.84652
4.18525 -9.80067 -2.03011
-33.5451 -20.3763 -7.43016
-18.9848 -30.8417 -6.89202
-13.0179 -37.5695 -7.53254
41.0286 -13.5345 -8.16559
-32.6424 21.9237 -7.35492
-31.0357 -21.4339 -7.08634
-30.0636 -21.9957 -6.99347
-17.5456 -43.4745 -8.83028
-14.1455 -38.4309 -7.60476
3.98968 -9.60965 -1.91878
46.4225 -12.512 -8.92706
6.00436 -10.1273 -2.15492
-20.0811 -45.5385 -9.12033
-16.9916 -42.1828 -8.23327
-13.5617 16.9043 -3.83909
-28.6038 -23.0697 -6.53295
-18.6235 -24.8173 -5.55107
-20.7399 -54.2006 -10.3092
-35.5793 22.4511 -7.41912
-24.6747 19.3743 -5.45719
-23.1387 -20.125 -5.35253
-31.065 21.2576 -6.53225
4.12283 -10.5926 -1.96724
4.96436 -8.95888 -1.77756
14.4465 7.7586 -2.8321
14.5395 8.3438 -2.87511
-28.2459 20.5398 -5.98395
14.3391 -11.5095 -3.12557
46.0814 -13.0377 -8.15218
45.7774 -11.8562 -8.0492
48.3304 -11.2175 -8.49718
-28.7616 -22.8422 -6.23134
-16.8247 -27.5336 -5.49507
-19.5209 18.5909 -4.52365
-16.8589 -41.9097 -7.64023
15.3451 7.69141 -2.88255
-29.0314 20.5522 -5.93853
6.92865 -11.5364 -2.25981
16.9659 -12.6338 -3.48508
-19.2321 -45.859 -8.22437
42.2447 -13.3209 -7.21831
47.6387 -12.8339 -8.01839
-9.65134 15.3205 -2.91838
-17.047 -42.2957 -7.27984
-32.046 -22.1215 -6.13626
-21.1013 18.5392 -4.39567
-23.6323 -14.8155 -4.40512
-22.3398 19.0706 -4.54968
-36.2556 21.9515 -6.56471
-10.4602 15.6544 -2.90325
3.67708 -10.0872 -1.65696
4.10722 -10.8566 -1.79354
-7.05672 14.3105 -2.43299
-28.4272 20.6901 -5.37185
-29.2291 -22.5757 -5.61638
-25.6867 -24.0271 -5.32918
-18.1365 -42.1586 -6.99613
46.0175 -11.9635 -7.22674
49.0833 -10.6939 -7.65317
-6.06525 13.5059 -2.21115
10.0615 -5.27391 -1.68614
-30.7972 -22.2125 -5.65489
-20.7986 -52.5993 -8.39583
10.5661 -9.50009 -2.11627
49.2865 -11.4022 -7.51253
-33.5876 -22.3588 -5.93821
-28.91 -23.8461 -5.48239
-10.5858 -35.0848 -5.39871
17.7874 -12.8691 -3.21417
-23.4216 19.2838 -4.40658
-36.6546 22.6064 -6.28027
-20.2751 -45.4329 -7.17444
-7.06749 14.1532 -2.25844
-11.8417 16.145 -2.85192
6.38543 -12.1975 -1.96417
-12.4686 16.6649 -2.92087
-31.5783 21.3321 -5.3552
-26.5344 -24.5709 -5.09562
7.10543 -11.6055 -1.89938
40.7384 -13.4448 -6.03286
-28.6543 -22.9606 -5.12473
-30.0556 21.5996 -5.12485
-26.9576 -22.816 -4.91662
-17.1087 -41.2388 -6.17147
49.457 -11.0645 -6.98834
-14.8687 2.78317 -2.08213
-6.34218 14.0231 -2.09939
-18.0652 -47.1526 -6.86546
8.04498 -9.73543 -1.69346
9.52055 -9.37251 -1.84162
-13.031 16.6383 -2.84653
13.7932 -11.0014 -2.38596
-20.5626 18.7043 -3.73571
45.9389 -11.878 -6.29921
49.117 -10.759 -6.65547
-7.3706 14.3571 -2.07989
-20.9451 18.4319 -3.64643
-30.0607 -22.4938 -4.90385
-13.8506 16.9605 -2.82909
-31.048 20.7231 -4.8442
-35.5027 -14.9905 -4.97513
7.34337 -10.9207 -1.68653
9.1299 -9.38583 -1.71324
11.0998 9.08861 -1.84596
-31.1301 -21.4527 -4.8378
-28.7223 20.9681 -4.49643
-32.7703 -20.4488 -4.84109
-26.775 -54.725 -7.61227
45.7691 -11.8369 -5.91609
7.117 -10.8571 -1.62019
-7.08706 14.1739 -1.95912
-23.0658 19.3681 -3.68629
-30.4216 21.4404 -4.58898
6.67994 -12.8093 -1.75709
49.0519 -10.4655 -6.14369
15.5123 8.12735 -2.10907
-15.2223 -36.8709 -4.81336
7.42039 -11.0279 -1.59857
-19.6019 8.68755 -2.53736
-11.9338 -36.1047 -4.47541
-35.6024 -14.2164 -4.52027
-29.3065 -22.5947 -4.32665
-28.8114 -23.0417 -4.31679
45.8956 -12.2944 -5.5843
11.67 -10.05 -1.78338
-27.3445 20.7341 -3.94649
6.97802 -11.369 -1.52519
7.77013 -9.56607 -1.40862
-19.9997 -48.0718 -5.866
12.0422 -10.1093 -1.78495
9.65783 -4.71161 -1.21727
15.4853 7.95779 -1.96561
-9.6142 15.3054 -2.03769
-29.3462 21.4436 -4.07014
-14.4877 2.06899 -1.60284
42.2884 -13.9212 -4.99223
9.69492 -9.3492 -1.48927
-10.2925 15.4366 -2.01503
7.23755 -13.6243 -1.66842
49.2391 -10.7018 -5.46308
11.1065 9.12747 -1.55305
17.656 -13.1154 -2.35936
46.1199 -11.9619 -5.10554
9.96612 -9.30275 -1.44368
8.66179 -8.74978 -1.28916
-28.4448 -22.7623 -3.79294
-24.4694 -49.0821 -5.72314
15.4802 7.76378 -1.77269
-29.2572 -22.5591 -3.78993
-11.9473 16.2867 -2.04945
-11.8936 15.9349 -1.97507
10.5813 -9.42085 -1.38732
-16.9882 -43.1462 -4.54842
6.73321 -12.8941 -1.40555
9.82573 -9.27658 -1.2776
-48.4652 26.9958 -5.35638
17.5041 -12.8064 -2.08383
46.0158 -12.3654 -4.56759
-24.761 -50.0527 -5.30962
-16.8003 -44.0915 -4.48336
-21.544 18.8446 -2.67491
50.1056 -11.1469 -4.79507
10.0682 -9.31245 -1.26905
43.2739 -14.2752 -4.24602
-13.9397 17.0881 -1.99606
-27.9317 -12.7348 -2.79753
-26.0694 -50.8217 -5.26556
16.6529 -12.4646 -1.8914
8.93957 -9.03383 -1.15036
-33.4818 -18.9893 -3.37081
13.4565 -11.1078 -1.51877
49.6365 -11.5053 -4.36551
9.74418 -9.35676 -1.13514
11.3796 -10.0212 -1.27404
-31.0811 21.3454 -3.13694
17.7218 -12.9234 -1.81593
-14.1884 -36.9222 -3.16918
15.3872 -12.0319 -1.55696
-33.1008 -64.6858 -5.7707
-10.212 -28.5908 -2.39743
-27.28 20.743 -2.64981
-30.1554 21.3153 -2.8503
-18.7328 -42.7922 -3.60659
7.89987 -9.66696 -0.995836
-45.3087 24.6596 -3.90541
-19.7822 18.6186 -1.97585
-30.332 21.4553 -2.69224
17.2335 -12.8771 -1.57314
46.0608 -12.3263 -3.47444
-30.7045 -58.0971 -4.74092
14.6217 -11.569 -1.33389
-26.1288 -16.2122 -2.11745
-13.1463 -34.8748 -2.57271
11.1878 -9.9916 -1.0274
-21.5577 18.8763 -1.93512
13.4359 -11.0869 -1.16572
18.9553 -13.7482 -1.56051
-19.1379 -44.0947 -3.17652
16.87 -12.7605 -1.39646
-12.3739 -34.3091 -2.35943
48.1575 -12.5251 -3.11113
-25.4601 -51.5872 -3.50882
38.5908 -9.36246 -2.43805
47.0863 -10.7777 -2.96654
6.5404 -14.1379 -0.929383
33.8292 -22.3851 -2.42606
-9.10721 15.2036 -1.04147
-13.2139 -34.4712 -2.10156
17.4902 -13.0714 -1.22563
-9.29031 -12.0434 -0.833432
15.4806 7.94224 -0.943704
14.5419 -11.5116 -0.992967
-11.8778 16.0969 -1.04502
-14.0091 -34.7234 -1.98762
15.3722 8.08336 -0.854185
-13.7947 -35.2623 -1.85671
-13.139 16.6543 -1.01476
9.9149 -9.35249 -0.625179
-19.5314 -44.8034 -2.20932
12.9792 -10.6702 -0.778922
-13.2779 -37.0143 -1.74443
-14.5565 -35.8648 -1.65542
7.33913 -13.5526 -0.682852
-11.5661 -35.2596 -1.57937
-46.4212 25.2462 -2.14092
19.3883 -13.9294 -0.968719
17.7033 -13.1591 -0.858986
-31.6355 -61.4016 -2.60109
-15.0266 -39.4054 -1.55092
-30.646 21.0573 -1.36061
46.6186 -12.0122 -1.73471
-27.1968 -54.0991 -2.02145
-21.0285 -46.0845 -1.70212
21.8704 25.2952 -1.11632
-19.8253 18.5788 -0.886104
8.74731 -15.4392 -0.595205
9.76679 -9.32409 -0.437904
11.7616 -10.3546 -0.509513
19.6606 -13.9018 -0.79136
37.6865 -14.2144 -1.33731
24.1277 29.2072 -1.22151
-25.8326 -12.9573 -0.904662
-21.151 18.8357 -0.864038
-28.9742 20.5216 -1.10888
-20.1496 -46.325 -1.56101
-11.7225 -33.1653 -1.0814
-17.3949 -44.3753 -1.43983
-13.7926 -37.3816 -1.13884
-31.4827 -19.0885 -0.978586
11.9069 -10.1013 -0.41855
17.1899 -12.7858 -0.564913
-36.9488 22.8584 -1.14663
-27.6584 21.0461 -0.860848
-28.5503 20.2877 -0.896827
-28.1644 20.6417 -0.826526
9.91881 -9.33757 -0.315894
-37.9878 13.13 -0.888708
-18.6363 -29.9667 -0.82603
-26.4542 -44.2995 -1.15778
22.6229 -15.1306 -0.598412
33.1925 -20.1274 -0.876116
14.6273 4.04244 -0.311648
-44.7966 16.1506 -0.930503
33.1279 57.8954 -1.23762
24.9076 -11.5961 -0.484565
52.0373 -11.9829 -0.994936
-28.3924 -20.404 -0.635374
-26.9488 -26.4689 -0.596141
-15.8449 -38.8812 -0.695392
13.274 -10.9159 -0.283119
19.6016 -14.1643 -0.369862
-27.5738 -12.2557 -0.394747
-30.1858 -22.5902 -0.52201
-26.3844 -53.1886 -0.795623
-22.4301 -47.7392 -0.717573
-31.2582 -21.3476 -0.491703
-27.6754 21.0558 -0.410756
17.9268 -13.3876 -0.266019
31.8275 -19.7349 -0.440931
-28.1358 20.6562 -0.389972
-34.94 -19.523 -0.448113
-16.1636 -37.0712 -0.428713
-10.276 -30.9329 -0.325093
-27.4707 -48.4039 -0.507073
-13.2848 16.8522 -0.166153
-25.2437 -12.7272 -0.226854
-13.9285 16.9795 -0.15166
-20.868 18.6375 -0.14555
-19.4498 18.2439 -0.122887
-28.264 -13.3901 -0.102313
-10.0978 -12.9816 -0.0567666
15.2355 8.00367 -0.0232807
11.5544 -10.1603 -0.00866046
-32.0263 -17.5417 0.058044
-9.77196 -29.0432 0.103543
17.863 -12.9783 0.0952133
-15.9554 -36.6311 0.182519
19.8669 -13.9979 0.128461
7.63922 -13.1321 0.110279
27.5997 -11.3236 0.182432
-49.4872 17.6709 0.500242
17.0918 -12.6671 0.202433
40.4396 -8.25653 0.387642
-27.5459 -7.76714 0.335844
-33.43 -20.1776 0.433532
-9.84405 -28.2054 0.324494
-47.894 26.2493 0.666093
-10.9627 -30.3799 0.38899
-8.92815 -27.4448 0.350339
6.82336 -13.9476 0.197378
7.59898 -11.707 0.182805
-25.8592 20.2993 0.50131
11.7745 -10.2834 0.234268
-22.2671 19.043 0.481521
11.3362 -10.122 0.237766
13.5505 -11.1554 0.275767
39.2234 -8.39451 0.665527
-31.8228 -21.3206 0.699872
-28.5863 20.44 0.687942
6.62512 -13.8425 0.296705
7.39922 -11.6445 0.264945
8.3448 -9.79223 0.250434
35.3135 72.6177 1.74686
8.03948 -9.82324 0.286137
10.5094 -9.51889 0.341212
-27.2899 -8.75069 0.691571
-21.5524 18.8125 0.77166
-25.3441 19.9845 0.863889
-27.4185 -8.23271 0.755577
9.52251 -9.21769 0.357111
9.9757 -9.2718 0.370324
-23.5451 19.8447 0.83425
26.6957 -5.40072 0.756683
13.5596 -11.1238 0.5215
16.2281 26.4375 0.953281
-31.5724 22.3874 1.16155
6.66619 -13.7524 0.479445
7.87793 -12.2807 0.456733
-27.0048 -7.61606 0.921732
-11.8215 -18.1003 0.714834
-26.7003 -8.345 0.968419
16.8063 11.503 0.733541
-27.868 -17.2688 1.14858
17.5129 30.4231 1.24884
-28.5012 -15.5463 1.2055
24.6521 -4.45166 0.903403
-25.9933 -18.487 1.18477
-7.11104 -7.7535 0.397589
9.3755 -9.14255 0.485752
13.0274 14.2507 0.741958
32.9315 67.9394 2.8524
31.6577 67.4039 2.79738
-11.2044 -8.86873 0.564288
9.02991 -8.97373 0.502546
-23.6614 19.4919 1.24179
22.7709 -3.0861 0.929281
-26.9883 -16.3927 1.29614
9.75534 -9.25002 0.550125
13.0927 15.079 0.856696
7.02972 -13.3128 0.637647
15.9085 20.6707 1.1438
23.0519 31.8414 1.71768
-9.07385 -13.1939 0.705592
-9.47123 -14.813 0.782619
7.97554 -11.4948 0.615111
8.92996 -9.02266 0.572536
25.3536 -3.88409 1.15632
-28.2647 -8.23669 1.34513
7.1119 -11.6919 0.628168
-8.05859 -7.93059 0.532783
25.5908 51.6347 2.75247
-26.7643 -16.5414 1.48992
-9.34243 -13.105 0.767802
10.0114 -9.28887 0.64208
19.2516 53.5027 2.74861
-28.4872 -12.6179 1.48914
-6.58594 -8.02932 0.511714
16.9487 39.4154 2.1861
-28.0803 -10.9963 1.51517
-7.42276 -6.82552 0.510185
-6.53961 -7.41345 0.500678
18.0946 32.7786 1.94092
22.237 31.5644 2.05199
10.9934 12.8548 0.912046
15.2232 20.7163 1.37772
9.68277 -9.24815 0.716173
15.8408 20.611 1.43274
16.6561 25.7254 1.68473
-25.4938 17.9508 1.70625
-6.79247 -7.98268 0.582011
-24.4536 18.7637 1.7107
6.55992 -13.8502 0.855166
-6.90008 -8.89255 0.642859
10.3824 12.9683 0.975073
16.383 27.6036 1.87264
6.93869 -13.9352 0.893671
15.0399 24.5373 1.69745
-8.04638 -7.90926 0.680586
11.9859 12.0687 1.01232
15.6966 20.8767 1.56683
-7.16073 -9.69368 0.750761
7.38227 -11.764 0.84463
11.7048 -10.0961 0.935739
6.1967 -11.3594 0.800998
-7.04287 -6.50986 0.599772
15.5488 22.0575 1.70516
16.694 7.41024 1.18393
-6.89723 -6.02616 0.601375
6.95924 -14.4769 1.06788
10.2796 23.2201 1.71154
10.856 13.0851 1.16051
14.4219 19.3927 1.68355
13.3579 22.1477 1.78772
11.8021 12.4672 1.20315
6.89294 -10.2797 0.8747
11.9503 12.2263 1.23546
10.0784 -7.11422 0.876483
12.8589 12.4485 1.31261
10.2564 -8.66147 0.982023
-6.00402 6.50727 0.658959
10.7511 9.46667 1.07442
12.682 18.9619 1.71463
12.2424 19.5047 1.73348
-6.77728 -7.51221 0.785379
11.6214 20.0586 1.77714
9.85101 -9.27471 1.04411
10.9756 14.7333 1.43872
-6.31888 -4.23406 0.599934
9.86459 19.7638 1.76397
10.3635 -7.09159 1.00411
12.9385 12.0045 1.42502
10.4759 20.3403 1.84108
-7.0443 -9.34387 0.954504
6.98692 -9.75567 0.97464
12.7221 12.1705 1.4409
12.6292 12.4205 1.46923
11.875 12.4121 1.42047
-4.83584 -11.0383 1.01597
10.7597 13.4619 1.46487
-6.82462 -5.96363 0.78112
-6.67522 -6.5568 0.790964
-4.99788 -10.9628 1.02676
-7.12504 -7.56071 0.895545
9.5491 -7.46265 1.04564
-6.9429 -7.85679 0.918558
-6.85005 -7.50767 0.894695
9.78541 13.0617 1.44561
-6.77161 -8.15494 0.948091
11.1439 9.35041 1.32427
10.9408 14.0912 1.61045
10.8449 9.5247 1.31979
8.12649 14.7516 1.54822
-6.33342 -7.92972 0.930925
-6.70844 -8.76452 1.02003
11.5978 11.1857 1.48524
11.5983 9.46301 1.39926
11.2557 11.1879 1.48623
6.90169 15.9494 1.63262
-11.1855 2.86567 1.08169
-6.26692 -4.10899 0.702122
-6.67234 -6.17078 0.843352
9.86314 13.91 1.64382
-5.88325 6.3927 0.853225
8.16286 -6.77713 1.03253
8.31136 13.8585 1.60435
-6.90156 -7.43762 1.02316
9.66782 12.0885 1.56014
7.32848 13.0123 1.51493
7.41072 13.6529 1.58305
9.81684 9.363 1.4027
6.21665 14.8204 1.66567
9.52804 12.9589 1.67597
-6.01427 -4.38891 0.780564
6.30678 14.4923 1.6647
6.571 14.3938 1.66324
-6.8586 -4.35669 0.869257
9.02278 9.28074 1.37878
9.44043 10.5169 1.53591
7.60878 11.4249 1.49101
6.08415 11.9839 1.46082
-6.15456 -7.24045 1.03968
10.5091 6.60465 1.37201
9.22996 8.3539 1.37112
7.61516 12.1727 1.5848
7.13622 12.1289 1.55529
5.62013 12.4805 1.52276
5.12695 12.7449 1.53705
5.01816 14.5948 1.69839
10.1072 7.22669 1.38611
9.02311 9.59147 1.47044
5.63287 12.053 1.49805
-6.69747 -6.58211 1.04598
7.12528 11.1216 1.48726
4.59974 14.0336 1.66977
9.94209 -3.25781 1.16517
-5.9971 -5.31906 0.928539
7.45763 -6.26105 1.10382
10.6464 5.84145 1.39147
-7.2841 -0.972752 0.841543
-6.14876 -5.26321 0.932071
5.35449 -5.66906 0.896899
5.31509 12.1917 1.54504
-6.77133 -4.48521 0.941428
4.59272 -7.48793 1.01381
10.6294 5.25832 1.39032
9.11259 8.08786 1.42921
-5.91249 -4.30305 0.852411
-6.37365 -5.18233 0.970867
4.24833 -8.16525 1.09212
5.07556 -5.97819 0.939224
10.3734 4.8505 1.37148
8.74548 8.49216 1.4755
5.52254 12.0317 1.6161
9.24082 6.40162 1.37524
8.22581 8.56074 1.48631
-6.37085 -5.64157 1.05993
3.84208 -7.84805 1.09188
8.86914 6.83849 1.40723
-6.35481 -5.25107 1.04382
9.28309 6.14028 1.41986
8.37284 7.30585 1.41676
8.31012 7.68884 1.4446
5.89053 -5.45034 1.02879
-6.86026 -4.37196 1.04448
8.3101 8.20488 1.51383
-7.26107 -1.02867 0.947016
-6.82901 -2.78793 0.963165
9.13457 4.1737 1.31404
8.58735 6.77474 1.43488
5.11079 -6.16303 1.05068
5.0319 -6.33736 1.06975
6.98764 -4.35574 1.09463
-7.0409 -1.69593 0.970524
-6.91765 -2.19082 0.969869
-5.93524 -4.35621 0.984531
8.31363 6.80458 1.45549
8.76289 4.51849 1.34309
8.796 5.26557 1.39917
8.21431 7.30344 1.4952
-6.70867 -3.67879 1.039
9.01825 4.23315 1.36252
8.43084 5.95049 1.41212
7.83214 5.96163 1.34068
-6.30081 -4.26333 1.04127
-5.8674 -4.4567 1.00657
5.53094 9.32058 1.4968
3.80649 10.5317 1.55593
-7.271 -1.07855 1.01744
-6.79976 -3.86763 1.0858
5.04925 -5.65552 1.04611
5.33017 -5.50307 1.06169
7.58577 -3.59481 1.17257
3.548 10.6419 1.57282
8.55212 4.68059 1.37804
7.49678 -3.73872 1.18702
7.7094 -3.38855 1.19924
7.88859 -3.35951 1.21526
9.08394 2.86031 1.36961
4.93377 -5.75147 1.08747
7.46396 -2.89572 1.16425
-6.85919 -3.25302 1.10656
8.04314 -2.82338 1.24149
8.80282 -1.84901 1.31901
5.1625 8.83906 1.51092
3.08624 9.86681 1.53917
7.84308 -1.9149 1.18858
7.36855 5.86823 1.40264
3.60462 9.97298 1.56842
3.33481 10.2537 1.59914
-7.27341 -1.0296 1.0887
-6.98155 -1.99643 1.0819
7.09011 6.41826 1.44315
-6.18776 -2.2443 0.987565
-7.14572 -1.3573 1.09755
8.08124 4.90382 1.43912
5.84859 7.53631 1.447
5.42993 7.82933 1.44983
5.19859 8.23852 1.47266
6.85808 -3.27251 1.14784
7.35725 -3.17244 1.22561
7.75301 -2.79756 1.25467
-7.22171 -0.723378 1.10781
-7.00405 -1.92875 1.12099
6.88756 -3.13756 1.16911
3.83466 -5.91627 1.08823
-6.96026 -2.04862 1.13724
-7.24973 -1.0785 1.15042
7.48756 4.85661 1.40866
-7.10494 -1.42467 1.15252
-7.17648 -1.28402 1.16933
-7.00391 -1.99234 1.18391
7.1888 4.84339 1.41413
-7.0079 -1.91983 1.19334
7.12878 4.94777 1.44055
6.72483 4.93255 1.39097
5.31181 6.36977 1.38128
4.78839 7.34911 1.46486
3.93898 8.17601 1.50896
-7.15456 -1.35551 1.2152
2.864 -5.92283 1.10663
7.25794 4.50053 1.43782
6.62735 5.32982 1.43404
3.95214 -5.47308 1.13627
4.0087 -5.11207 1.09794
-7.17749 -1.23603 1.23507
-6.51266 -2.5911 1.18911
7.52098 2.88794 1.36543
7.13609 3.94991 1.38904
-6.33199 -2.71764 1.17228
6.87707 4.16065 1.37899
5.76193 -3.56861 1.16514
-7.29873 -1.02586 1.27414
-6.27919 -2.25251 1.1467
5.61347 -3.69918 1.15737
5.39445 -3.8273 1.15791
3.69249 7.35313 1.44779
-6.71456 -1.71344 1.21669
4.55129 -4.53803 1.12946
-7.00283 -0.903052 1.2573
4.80038 -4.5282 1.16621
4.4235 6.63538 1.42298
6.67663 3.52166 1.36232
6.71943 3.73466 1.38018
-6.36574 -1.48288 1.17521
3.68149 -5.43239 1.19172
5.16904 5.71389 1.41044
-6.08252 -2.15746 1.18261
3.47858 -5.25617 1.17019
3.47224 6.94077 1.45244
-1.65669 -5.64487 1.11918
6.52471 2.76585 1.34772
-2.09713 -5.60616 1.15213
6.38659 2.83038 1.34401
-2.73647 -5.2788 1.16628
-3.45718 5.24813 1.35835
4.5264 3.94199 1.36951
4.19405 -2.90812 1.18777
4.67325 -2.20711 1.24752
4.24437 3.32695 1.33547
3.74437 -2.95899 1.23453
4.05405 2.59752 1.34469
-1.42298 -4.06214 1.20618
-2.29596 -3.54127 1.19992
3.89196 2.384 1.32186
-2.8319 3.48843 1.34437
-2.45918 -2.89128 1.17923
-2.35801 -2.91296 1.18439
1.85473 -2.82802 1.18764
1.87757 -2.80565 1.21765
2.00306 -2.53917 1.2033
-2.03002 2.78621 1.30836
2.81483 -0.557646 1.26324
2.79373 -0.337926 1.2448
-2.07893 -1.61096 1.20637
-2.06747 -1.44439 1.23165
-1.85267 -1.7865 1.27639
-1.98678 -1.12674 1.19887
-1.97852 -1.06604 1.22569
-1.93915 -0.87707 1.2262
-1.92404 -0.705913 1.21673
-1.92292 -0.699033 1.24384
-1.89992 -0.468165 1.21697
-1.86575 -0.344649 1.21432
-1.85062 -0.399933 1.22103
2.36447 -19.4389 -9.88265
-7.38018 -8.71322 0.452282
8.17692 -8.96841 -10.665
8.41667 -8.78332 -10.6884
8.3692 -8.44034 -10.0626
7.09303 -12.1746 -11.6139
8.69877 -9.16067 -9.94132
8.00851 -9.11141 -9.31058
5.95499 -13.0064 -10.9006
9.64548 -9.03448 -9.96262
6.25571 -14.3169 -11.7556
8.46527 -8.86069 -9.20814
8.19143 -9.36183 -9.2967
7.44577 -9.43426 -8.94855
6.02188 -14.3936 -11.3775
7.88926 -9.50609 -8.90826
8.02612 -9.309 -8.84851
7.2781 -10.7922 -9.26189
6.96776 -11.3011 -9.40566
10.3184 -9.43177 -9.81238
6.68339 -11.409 -9.04583
8.21026 -8.8136 -8.01614
7.52957 -9.48808 -8.04395
8.70991 -8.87468 -8.26049
7.90702 -9.69636 -8.21398
6.63753 -13.0531 -9.55571
8.11965 -9.39136 -8.09178
5.06428 -16.1938 -10.909
-0.484102 13.8259 -8.84657
7.90741 -9.45402 -7.89817
7.51932 -11.1273 -8.54462
8.57583 -8.76483 -7.80748
11.1863 -9.89234 -9.46618
9.20322 -9.0245 -8.07918
12.1383 -10.348 -9.9903
8.26945 -8.74041 -7.39774
4.0699 -16.9014 -10.6525
4.30415 -15.5305 -9.89161
0.0939897 14.1532 -8.59888
8.0406 -9.58784 -7.4937
3.98593 -15.708 -9.66134
11.8389 -10.1326 -9.32735
7.04 -11.3506 -7.92484
7.94338 -9.00878 -7.1106
5.60374 -14.267 -9.0507
6.6464 -12.9989 -8.53798
8.56178 -8.79601 -7.14896
9.95233 -9.32599 -7.9479
2.84324 -11.9791 -7.0528
5.63853 -14.2794 -8.68524
9.86426 -9.35827 -7.68146
6.78542 -11.34 -7.43521
3.32237 -20.4281 -11.6008
9.10829 -9.16662 -7.23946
12.595 -10.5643 -9.20392
6.99661 -11.2749 -7.38673
4.78645 -14.8992 -8.64307
6.38671 -12.9399 -7.93203
0.880794 18.6366 -10.1605
15.0421 7.95009 -9.24995
4.29672 -14.5205 -8.17313
15.3047 -12.1082 -10.5134
15.4153 7.66166 -9.17496
14.4082 7.94013 -8.74688
4.85745 -15.0982 -8.4226
12.4736 -10.4753 -8.56685
1.80218 -20.1626 -10.4166
11.779 -10.1628 -7.96544
2.07053 -19.9433 -10.1761
14.5033 -11.51 -9.35959
-0.00991463 14.1925 -7.12488
-6.97879 14.489 -8.05183
10.9206 -9.89377 -7.39973
7.72747 -9.68843 -6.1694
18.2394 5.67655 -9.32244
-8.11113 15.3609 -8.3876
12.036 -10.1066 -7.60225
10.818 -9.87789 -7.02995
15.3737 -11.7843 -9.33766
17.4193 16.5072 -11.4111
7.72774 -11.4153 -6.56188
15.465 7.64235 -8.09902
14.441 -11.4325 -8.60351
-11.2971 16.1685 -9.02908
16.5023 -12.5016 -9.45275
9.9553 -2.49615 -4.71462
-8.95022 -1.6271 -4.13719
19.7086 19.0236 -12.371
4.01294 -9.31974 -4.60095
-9.68077 15.8031 -8.31492
-5.25511 4.36926 -3.07165
7.08902 -11.6631 -6.13847
9.69982 -9.34616 -5.93706
16.5272 7.54034 -8.01924
-6.32017 14.3365 -6.83607
1.5071 -18.6309 -8.0844
-10.5584 16.0557 -8.26619
9.76459 -3.43464 -4.4332
-9.20313 -1.71828 -4.01989
7.25388 -11.4109 -5.71052
16.4797 -12.4549 -8.6421
15.0885 7.97736 -7.16391
19.7789 20.5852 -11.9421
1.00397 -21.8582 -9.11427
-4.36662 13.3277 -5.77355
-9.74638 -1.09008 -4.06467
14.5032 8.00952 -6.7697
21.7925 23.7121 -13.1403
-12.7306 2.38576 -5.27538
15.579 7.40274 -6.98044
-4.99053 13.6533 -5.84042
3.74137 -9.04781 -3.89269
12.8172 -10.6196 -6.51691
14.5014 -11.4488 -7.21617
20.4435 22.8892 -11.9166
19.4738 6.00552 -7.90611
1.54327 19.5204 -7.59781
-8.26002 14.8732 -6.55214
11.786 -10.3896 -6.03963
20.4426 23.7093 -12.0712
0.67003 15.429 -5.91736
-1.62673 12.3968 -4.80712
2.74911 -12.3598 -4.85606
-8.62382 -1.23167 -3.31153
0.687047 -22.5129 -8.50551
15.8451 -12.1416 -7.52396
9.67329 -3.52968 -3.88406
-13.7151 16.9017 -8.10635
-7.76008 -3.44726 -3.11527
1.09198 -10.3394 -3.82539
7.27813 -11.6295 -5.01212
14.6267 8.16809 -6.05297
-8.15547 -2.8001 -3.10139
0.778495 15.3607 -5.48751
-3.76556 12.7082 -4.68331
5.94029 -11.3668 -4.50861
16.5463 -12.5034 -7.34125
19.7731 6.10734 -7.28454
2.18288 21.4759 -7.58019
23.3585 28.2462 -12.7522
-9.18032 -1.33 -3.16968
-13.9197 17.1781 -7.58324
3.06019 -13.6929 -4.82484
-8.36368 15.1002 -5.89289
19.4344 -13.7642 -8.15778
-4.78527 13.7267 -4.93759
14.476 -11.6639 -6.23455
1.31475 -21.2148 -7.04912
1.77509 19.9873 -6.63464
1.45623 -10.3159 -3.44303
42.8957 -21.9266 -15.8032
-3.11923 -23.0772 -7.51801
6.36975 -10.3686 -3.89142
18.4298 -13.0125 -7.22198
2.14175 21.0866 -6.75143
-12.4982 16.6811 -6.5666
1.3846 -21.4061 -6.69034
-4.0776 13.9287 -4.50482
-10.2621 15.5445 -5.63996
-2.44512 -25.0108 -7.64694
3.16391 -9.76193 -3.11486
0.756999 -22.5983 -6.8076
18.9579 10.9579 -6.48109
20.1757 -14.3204 -7.33739
18.1945 5.75633 -5.60305
-7.4125 14.3419 -4.69487
4.38686 -10.8743 -3.40357
3.76831 -10.9845 -3.30053
4.42199 -11.3996 -3.42756
-12.4172 16.5943 -5.76056
-8.69018 14.8511 -4.67627
-12.9047 1.93449 -3.57761
-15.7192 18.0575 -6.49617
28.1954 -18.5604 -9.14183
-3.398 -24.2817 -6.58919
3.91773 -9.46307 -2.73672
-9.17211 15.2422 -4.73054
32.7894 -15.5825 -9.68565
52.0205 -15.1887 -14.3679
10.9024 -9.72316 -3.8645
-6.02461 13.94 -3.962
-13.4441 16.8531 -5.65304
-6.84585 -32.434 -8.64753
5.14862 -9.93465 -2.89263
6.80905 -10.8932 -3.31063
-6.72087 14.2576 -4.00161
-9.87071 15.3703 -4.66314
-8.37862 -33.2281 -8.53489
49.5308 -12.5514 -12.6734
-7.57139 -32.7103 -8.21246
11.345 -10.0007 -3.71652
-7.446 14.4456 -3.93647
-10.9392 15.8973 -4.66735
15.0804 7.96633 -4.05215
-25.6601 -38.5804 -11.0684
4.19905 -9.5942 -2.47535
15.7 7.7762 -4.13297
3.893 -9.25021 -2.35579
-5.67113 -28.2952 -6.69276
5.84377 -10.2627 -2.73403
48.9213 -11.839 -11.6978
-11.9381 16.2592 -4.63939
15.3456 7.85952 -3.90469
47.732 -10.326 -11.0625
-9.12933 15.2036 -3.96548
-27.6697 -67.9982 -15.9621
3.88874 -9.68191 -2.26611
46.8314 -12.0143 -10.5514
15.617 7.74805 -3.73712
-9.91168 15.4696 -3.93168
-19.5778 -30.78 -7.84181
-15.518 -48.5074 -10.984
5.03054 -10.1713 -2.44461
9.76029 -9.22706 -2.83053
49.2726 -11.5373 -10.8267
-13.7415 17.0239 -4.5996
-29.6609 -21.8925 -7.81526
45.4782 -15.2166 -10.1437
15.3377 8.10518 -3.62186
-32.1786 21.7606 -7.93955
-7.10791 -29.087 -6.0738
4.17322 -12.138 -2.57564
48.678 -10.503 -10.1284
12.2339 -10.1267 -3.18321
46.8692 -12.0659 -9.64366
-24.8764 18.772 -6.18287
-31.8882 -20.176 -7.46135
6.41708 -10.739 -2.4876
50.351 -11.7747 -10.0991
-11.8961 16.2302 -3.88572
-24.7127 19.3666 -6.09803
16.7347 12.6593 -4.01604
-6.38022 14.0399 -2.95645
-30.4497 -22.0245 -7.19395
-29.0642 -22.7593 -7.09532
-32.3961 21.5872 -7.32747
-31.0077 -20.4546 -7.02037
18.6578 5.86604 -3.65374
-31.5636 -19.0444 -6.88481
-12.613 -36.3709 -7.18005
3.9712 -10.3381 -2.08146
-19.6045 -48.8146 -9.79296
-14.0734 -37.9206 -7.4064
4.16853 -10.0986 -1.9674
13.5957 -10.6234 -3.11011
49.7095 -11.0621 -9.1474
-13.6826 16.9694 -3.89214
-24.8309 19.475 -5.56873
15.5911 8.25366 -3.07638
-27.7707 -24.2004 -6.42143
-16.6554 17.9655 -4.21491
46.7182 -11.967 -8.2797
-7.37359 14.2018 -2.7075
-8.97201 16.5205 -3.17219
48.8754 -11.5057 -8.49061
-28.1337 20.4921 -5.8571
-27.9489 -21.5024 -5.89443
-19.2459 18.4022 -4.42767
-29.524 20.8504 -6.02712
16.6875 -12.4507 -3.41023
-9.61063 15.2566 -2.86597
-38.9416 22.9144 -7.16545
-29.1503 -21.8988 -5.83723
-30.8331 -21.2676 -5.89959
3.62562 -10.0222 -1.66355
-21.9559 18.7556 -4.4574
-13.1871 -14.7971 -3.06413
17.7686 -12.5615 -3.36917
-10.3915 15.5514 -2.83918
50.549 -11.8472 -7.88038
-18.8131 -43.6008 -7.18112
-27.0147 20.2605 -5.04685
-34.765 21.6769 -6.0786
-29.118 -22.6025 -5.49954
48.835 -10.4654 -7.43698
-30.9994 -22.419 -5.58992
-44.3209 24.7463 -7.29594
-32.6427 -21.773 -5.64786
7.16918 -13.7559 -2.24894
-33.4032 -19.4141 -5.46752
-6.38568 14.0769 -2.14359
-12.1759 16.4362 -2.84391
-29.3435 21.1261 -5.05179
-25.225 -21.6323 -4.58239
-20.1927 -44.9724 -6.80248
-13.2797 -38.8258 -5.64909
39.6875 -13.1987 -5.73568
-21.4067 18.8114 -3.79012
-29.7085 -22.2483 -4.8455
-28.1767 -23.1153 -4.81851
-31.2141 -21.4971 -4.85448
7.73404 -9.79576 -1.61256
46.8033 -11.981 -6.19947
-30.5614 20.7966 -4.69799
-27.915 -14.8956 -4.03287
6.23663 -8.07684 -1.30254
49.0749 -11.5349 -6.39174
-28.4038 20.8753 -4.39686
18.5659 -13.4678 -2.86378
15.1808 -11.8272 -2.36324
-14.8605 17.0002 -2.69882
-27.4478 20.6733 -4.15516
-29.7403 21.0239 -4.38342
-9.6064 15.2786 -2.08341
-29.1245 -20.9466 -4.22029
-18.7975 -45.2558 -5.70424
13.5469 -10.9567 -2.03873
38.6533 -12.773 -4.71043
6.65168 -10.8469 -1.46081
11.6306 -10.0787 -1.73323
17.2897 -12.8731 -2.42801
-10.2837 15.42 -2.05071
7.19118 -13.3975 -1.66383
12.0591 -10.0708 -1.73924
46.6198 -11.9551 -5.2844
-35.3066 22.0144 -4.46405
49.156 -11.4867 -5.43593
15.6252 -11.9984 -2.09507
-12.0299 16.2527 -2.07565
15.2647 8.07974 -1.72922
-16.5291 -41.9172 -4.56661
14.6453 -11.5535 -1.86268
-13.0068 16.6353 -2.04706
6.82221 -13.0735 -1.41741
9.73955 -9.23842 -1.29702
17.9102 -13.0962 -2.1646
-27.1979 -12.9965 -2.83901
-13.8992 17.0207 -2.04752
-29.1125 -56.718 -5.93522
-31.4108 -19.655 -3.2799
16.958 -12.7073 -1.90624
41.8293 -13.9183 -3.94574
11.557 -10.2733 -1.27745
47.1176 -12.043 -4.05692
-13.7048 -35.6656 -3.07008
-30.83 -60.285 -5.27398
18.5828 -13.5415 -1.81534
-27.61 20.8965 -2.64797
7.738 -9.53226 -0.94982
-29.9686 21.2144 -2.72702
-14.13 -34.9562 -2.81845
-20.0306 -45.8208 -3.61428
-29.2447 -55.0324 -4.43096
-27.9953 -56.0709 -4.29214
13.1126 -10.9127 -1.14804
17.969 -13.0877 -1.50239
-35.6813 22.2132 -2.74771
47.4352 -12.1449 -3.21514
-27.0309 -12.7105 -1.78787
-31.2022 -60.283 -4.10868
15.1931 -11.8446 -1.1606
34.0671 -22.4421 -2.22845
33.9383 -21.3902 -2.19206
15.8682 7.83716 -0.921117
15.2831 8.10421 -0.892315
-11.9441 16.3 -1.02552
-20.2722 -44.7358 -2.5218
-11.585 -31.5337 -1.66458
-25.5531 -14.758 -1.39933
-32.561 -61.3672 -3.38923
10.0119 -9.42949 -0.687939
14.0479 -11.1718 -0.881571
16.6039 10.5629 -0.933008
16.9719 11.8958 -0.968539
7.29717 -13.3844 -0.724055
-19.297 -5.69381 -0.86354
-25.0741 -44.6859 -2.25819
10.8747 -14.682 -0.746185
19.0644 -13.7485 -0.960576
46.5143 -11.8819 -1.91177
-9.01633 -11.9252 -0.576437
48.2827 -11.3065 -1.95139
24.3124 29.2298 -1.30349
-29.9582 20.4798 -1.25826
-33.7342 -18.9167 -1.25707
-15.3034 -38.1414 -1.31815
17.3402 -12.9369 -0.706026
18.8145 -13.2411 -0.721592
14.791 4.00641 -0.45406
-20.8345 -47.876 -1.56217
-21.1087 18.8041 -0.808395
-10.4778 -31.7726 -0.897681
46.9137 -9.96618 -1.34281
-37.8463 23.5412 -1.20557
-48.9295 17.5946 -1.24567
-20.7444 -34.595 -0.877203
47.7791 -11.0951 -1.05668
-28.3488 21.4251 -0.711192
-28.6843 9.12389 -0.6297
39.0263 68.3331 -1.45932
-27.7782 20.5018 -0.662197
13.542 -11.0962 -0.303739
-32.0456 -19.9426 -0.582779
-24.7564 -49.788 -0.822572
18.4341 -13.2944 -0.330615
-14.9397 1.88394 -0.195319
-10.6887 -32.3161 -0.436326
-13.2496 16.8203 -0.219546
-16.9109 -38.8654 -0.456703
32.9125 -20.6146 -0.350608
-21.1048 18.8307 -0.193266
-9.52205 -12.2212 -0.0459794
7.43249 -12.3986 -0.0254117
15.0983 7.89572 -0.00187745
-32.9295 -20.3338 0.20897
-20.8477 -35.6317 0.308822
-47.4109 25.9726 0.551331
7.10645 -12.6093 0.149226
8.30776 -9.44604 0.125039
-37.8267 -20.1107 0.473926
-10.0119 -28.3545 0.339223
11.5374 -10.0575 0.199919
-21.5013 18.3724 0.370588
-11.6407 -18.0618 0.314423
-28.6945 20.4194 0.62573
-32.5289 -21.808 0.704053
-31.9645 -23.6137 0.696826
11.0432 -9.92414 0.241509
8.10574 -9.99171 0.275654
8.19795 -9.56864 0.271055
-62.2121 21.5432 1.53846
19.1181 -13.8782 0.574307
-27.2965 -8.20051 0.764123
-25.8126 20.2428 0.942982
-54.8891 20.7845 1.59852
12.0508 -10.3248 0.431929
17.9512 -7.78147 0.55594
-23.1423 19.6281 0.901517
-7.6818 -9.00814 0.377555
13.2956 14.4554 0.695979
-26.0508 -18.5334 1.10677
6.59893 -13.5968 0.53024
9.22102 -9.07376 0.441111
25.7076 -4.55556 0.871537
19.6482 18.7639 0.97799
15.1229 26.1797 1.13377
-82.2857 29.3665 3.20792
-51.1763 16.8219 1.93875
25.5099 -4.95565 0.982853
-23.6095 19.2868 1.15033
9.7129 -9.24019 0.517284
23.3215 -3.2131 0.887744
12.792 14.8159 0.798969
15.7441 20.343 1.05064
-29.1264 -16.0272 1.33619
6.95248 -13.1819 0.610206
21.3232 49.2896 2.23784
8.02622 -11.566 0.592253
-7.38326 -7.26799 0.458302
-7.98915 -11.0534 0.610739
-28.0163 -11.0907 1.43699
17.0335 11.0576 1.0099
-7.55981 -7.0341 0.495083
16.6042 25.7964 1.58251
-6.78448 -7.98681 0.57688
15.5433 21.2846 1.44192
-24.2549 18.6775 1.69034
15.6553 25.4963 1.73018
-6.93283 -8.93736 0.647375
7.33224 -14.5301 0.93204
10.3052 12.9624 0.978408
15.686 20.8408 1.63324
16.5445 29.4457 2.07746
11.8165 33.1405 2.23652
-7.08372 -9.6685 0.768059
10.362 23.6146 1.7297
11.7953 10.3755 1.11811
11.8988 12.5826 1.22085
14.4114 16.6525 1.57422
8.66048 -13.3497 1.12137
11.0744 9.24434 1.05987
13.4892 15.1296 1.51503
-13.9017 8.19826 1.21881
-10.9207 2.05739 0.839929
13.0929 17.0433 1.66639
12.3181 19.6316 1.79847
10.3711 -7.09743 0.979966
-7.48878 -7.92212 0.873099
13.2186 11.9657 1.45279
12.2854 12.0188 1.42521
-6.87948 -6.05302 0.745137
-6.91705 -6.76392 0.803187
-12.9398 1.83211 1.07924
-6.85448 -8.68007 0.954056
11.8943 12.4158 1.48126
9.32031 -7.32397 1.03068
10.947 9.64326 1.32489
-11.1741 2.86138 1.05908
-7.46422 -6.95251 0.91722
11.9758 9.24061 1.44707
9.59485 13.5683 1.5948
7.51676 13.8313 1.54236
8.77383 13.6417 1.62584
-6.61315 -6.59014 0.928785
8.05368 -6.6942 1.02365
10.0409 12.5766 1.61191
10.2377 10.4579 1.5104
-6.76876 -5.31348 0.895962
9.87706 9.40524 1.45292
8.47241 11.5188 1.49806
7.06838 13.7059 1.64275
9.82699 8.57527 1.37942
9.46077 10.5373 1.54173
5.94951 13.1057 1.55801
-6.24777 -7.35824 1.04421
6.93286 11.7997 1.50532
5.51473 13.8184 1.64173
-6.73161 -3.92604 0.860715
-6.57682 -5.96907 0.979221
4.06853 -8.06187 0.997386
5.56464 -6.23419 0.937343
9.56806 7.70253 1.37945
9.31975 9.91821 1.53381
8.19239 11.6686 1.5931
7.00012 11.0475 1.49092
-6.7766 -4.50116 0.92296
4.86304 -7.93364 1.07311
-10.362 6.9464 1.44595
-7.00428 -2.1073 0.850987
9.18277 6.20325 1.31735
6.13497 12.5216 1.64789
5.18637 11.9944 1.54142
-6.58807 -5.06586 1.00311
4.87481 -5.98707 0.907206
9.10192 9.22976 1.54156
4.26531 -8.17663 1.11895
8.4582 3.91765 1.16731
11.1831 5.57794 1.53476
4.79191 13.334 1.76448
-6.05908 -5.3012 0.98801
-9.00369 1.28349 1.13277
8.43252 7.71244 1.44541
-6.33366 -5.23457 1.03986
7.96902 8.36995 1.48504
-6.79532 -3.52543 0.991375
5.07639 -6.09602 1.02252
5.1193 -5.53038 0.981104
8.56714 7.04862 1.46869
8.11569 8.02498 1.51776
-7.1182 -1.7035 0.985927
-6.94734 -2.18307 0.97568
-6.39467 -4.3116 1.0249
4.93966 -6.22606 1.05588
8.54003 6.47242 1.45658
-6.75237 -4.15799 1.06883
-5.96518 -4.38314 0.995923
5.04752 -5.64652 1.03839
7.52549 -3.57426 1.15826
8.48543 4.30804 1.35067
8.452 4.64441 1.36745
-6.85332 -2.87081 1.06245
7.59798 -3.79204 1.21122
7.11531 -3.09785 1.09347
5.04435 -5.9094 1.11983
8.30473 -1.75711 1.22812
-6.86915 -3.21558 1.12504
7.50334 5.65395 1.41028
5.86666 7.57442 1.44672
8.09378 3.96604 1.37625
8.01621 4.25121 1.37861
5.54792 7.96659 1.47576
5.2059 8.89278 1.55696
3.62067 9.90467 1.59192
-6.92089 -2.79144 1.13774
7.7916 -2.8344 1.26873
7.95444 -2.26675 1.27518
7.90084 -2.0439 1.25979
