ply
format ascii 1.0 
element vertex 1880
comment /media/mkaihara/Seagate Backup Plus Drive/model_iterations/model_66.ply
property float32 x 
property float32 y 
property float32 z 
end_header 
-6.97446 -8.18253 0.59482
10.1748 12.3012 0.894259
-7.27066 -9.38596 0.66496
9.91309 12.349 0.918653
-27.9972 19.7109 1.94483
6.06939 -12.8181 0.812113
11.1012 12.0005 0.939847
-6.88768 -6.79762 0.561291
11.1907 11.9331 0.963519
-6.81528 -8.42158 0.648417
6.21487 -12.4928 0.815418
14.4786 19.264 1.44935
13.9283 22.7725 1.59273
13.1316 30.348 1.98487
-6.16326 6.56439 0.553176
-8.17805 -7.74904 0.681503
-7.12461 -8.17325 0.665921
5.68903 -12.3724 0.823584
-7.48877 -6.89481 0.633322
6.97209 -11.1085 0.811077
6.95693 -10.5141 0.786983
11.2878 -9.74374 0.921048
12.0702 -10.0972 0.975319
16.1252 7.14153 1.12388
14.7252 19.0755 1.52491
-7.24389 -6.31311 0.623287
10.222 -9.33596 0.893539
-7.38561 -6.26568 0.635395
11.3918 12.0207 1.12863
9.39564 21.1515 1.57613
-7.28288 -9.6673 0.808661
11.5479 12.5247 1.16888
-6.96071 -4.46076 0.56876
-6.7602 -8.21054 0.725336
-6.70447 -4.43689 0.554638
9.23923 -8.83332 0.889985
9.96464 -7.81795 0.892293
12.591 15.8691 1.4649
-6.67572 -6.66819 0.655669
9.77738 -8.25656 0.935882
11.3435 16.9612 1.53418
11.2672 17.9631 1.58417
9.47525 18.0343 1.53639
8.8883 19.2088 1.59201
7.20309 21.4681 1.70238
10.6417 18.3681 1.61739
9.98278 -7.57405 0.958229
-7.0358 -7.19707 0.771283
-17.2507 -6.25702 1.43496
9.44376 -7.6561 0.953133
9.21254 18.4001 1.62423
-6.38489 -4.26332 0.608774
-6.8384 -8.23037 0.848336
4.83069 -5.72847 0.595857
8.88841 19.5549 1.70382
7.64942 18.7028 1.62478
5.02361 -5.78989 0.617684
12.693 11.4536 1.38553
11.6974 11.7499 1.35779
6.7088 -9.35915 0.93615
12.1522 11.6233 1.38245
6.56596 19.2748 1.66679
-6.36105 -4.39118 0.630049
-7.1732 -9.49374 0.976657
11.4659 12.0123 1.37414
10.4151 9.11133 1.17847
-5.05004 -11.5217 1.06264
6.11845 -6.03864 0.750474
9.19189 -7.1608 1.00226
-6.80208 -6.69967 0.811212
10.3554 12.272 1.40189
8.77367 -7.31073 0.992848
10.752 12.1204 1.41813
-7.31885 -7.77424 0.936118
8.17021 -7.27357 0.971327
10.1321 12.3843 1.43862
-7.08021 -7.75127 0.930884
-6.94737 -8.35162 0.975009
10.5226 12.2318 1.4653
10.418 13.4386 1.54069
-7.12665 -8.33965 0.999327
11.1496 10.7697 1.426
-6.31904 -4.23426 0.69956
-6.87084 -8.60551 1.00756
-6.33299 -4.39759 0.710821
11.0287 8.51111 1.30744
10.584 9.27846 1.31253
6.41422 15.2368 1.55495
10.4413 11.2328 1.45134
-11.2615 2.88576 1.09872
6.15009 -5.95811 0.816439
7.98811 -6.62221 0.996724
10.6843 9.14924 1.36569
9.45792 12.4447 1.51363
9.64264 12.3745 1.54575
7.60776 12.1669 1.42555
7.84603 13.1162 1.52146
11.1718 8.02248 1.40188
7.0805 12.5995 1.4587
9.00137 11.2805 1.46858
6.93378 13.4236 1.54633
5.80722 13.7988 1.53698
9.14286 10.4233 1.43315
8.96746 12.2168 1.57471
11.3367 7.62338 1.42532
9.19991 9.94934 1.41103
4.96971 -5.81542 0.821325
-6.85239 -4.66051 0.874296
5.51793 13.7472 1.57236
-7.06601 -4.51112 0.894169
8.87333 10.6321 1.48704
-6.77401 -6.78371 1.02557
5.90358 -5.82705 0.896104
9.64509 8.49193 1.38531
8.91456 9.31093 1.38659
9.20421 10.2605 1.49461
4.72749 13.701 1.56427
4.2302 -8.04519 0.98473
6.42155 10.7432 1.37742
-6.8077 -3.92855 0.86532
6.29794 11.8087 1.485
-6.90177 -3.86676 0.876589
9.67158 7.17619 1.3469
6.62203 11.3016 1.45895
9.76683 7.00267 1.35025
5.39097 11.4923 1.4354
5.39368 11.9931 1.48536
4.65979 12.1264 1.46994
9.79774 6.65928 1.35028
-6.8988 -4.56825 0.947774
7.39578 -6.22089 1.10169
-7.33999 -0.786464 0.846691
-6.2809 -5.39575 0.953794
5.24632 -5.56505 0.882607
8.83865 7.85773 1.37798
4.41511 -7.17836 0.976381
10.3806 5.13903 1.35661
8.92258 7.76215 1.39035
5.19779 -5.60873 0.903522
8.56705 7.88585 1.38178
8.86043 9.01396 1.47894
-7.05599 -5.65765 1.07028
10.1109 4.73442 1.33033
-6.9256 -3.85566 0.955267
9.11077 6.1246 1.33161
5.17161 11.3359 1.51051
-6.90003 -3.06861 0.917779
-6.88437 -3.25479 0.921096
4.87891 -5.9501 0.939274
5.96891 -6.12395 1.04132
9.34465 5.60504 1.34718
8.43155 7.19831 1.37086
-6.95765 -4.31505 1.00873
-6.88903 -4.53977 1.01703
8.2229 8.54807 1.47168
4.99394 11.2309 1.52629
-6.55756 -5.62405 1.07529
3.70656 -7.56997 1.05049
8.47021 7.71274 1.43356
6.0734 -5.61328 1.03698
9.13777 6.04186 1.38837
-6.14086 -5.41866 1.03359
8.52065 6.59161 1.37396
8.05787 7.48139 1.39885
-7.10835 -1.78478 0.937695
-7.02065 -2.30837 0.944117
-6.45239 -5.32446 1.06752
8.80261 5.64342 1.34062
8.12217 8.01308 1.47068
-7.27155 -1.25463 0.946506
-6.90502 -4.12322 1.03998
7.40827 6.20151 1.25144
8.04992 7.01615 1.3848
7.93652 8.09226 1.46892
-6.91709 -2.82898 0.973199
-6.91837 -2.96901 0.973577
4.52246 10.015 1.44419
8.97463 4.10035 1.29888
-7.25523 -1.60783 0.976897
6.83364 -4.25548 1.07002
4.9267 -5.94183 1.02345
-7.34104 -1.11836 0.994298
-7.02101 -2.20148 0.984568
-7.0582 -2.27082 0.990853
-5.99981 -4.40182 0.994707
5.18498 -6.56052 1.11455
6.90425 -4.17238 1.08615
8.04382 7.14388 1.45757
-7.15842 -1.71994 0.99007
-7.08948 -1.95761 0.989506
8.76948 4.84147 1.36066
8.30611 5.85491 1.38183
-6.92792 -3.62265 1.06556
8.84431 4.15087 1.3402
3.31822 10.4286 1.49819
-7.32039 -1.2012 1.01581
-6.01508 -4.44515 1.02889
-5.99557 -4.54405 1.03013
7.14143 -3.93059 1.12051
8.04493 6.46417 1.42743
5.32807 9.0054 1.44902
-6.38795 -4.32534 1.05784
4.93194 -5.52476 1.0289
7.17899 -3.82639 1.1323
7.55218 -3.68272 1.1627
3.59311 9.96785 1.4754
3.40689 10.251 1.506
-7.37698 -1.08327 1.04127
-7.08027 -2.00567 1.02581
4.9714 -5.28671 1.01458
7.24056 -3.73445 1.14465
7.35664 -3.66908 1.16609
7.86451 -3.35314 1.21553
-7.16146 -1.87649 1.05319
-7.01451 -2.94856 1.10297
-6.01289 -4.37706 1.0699
7.89906 -2.78014 1.22533
8.21281 4.60957 1.37999
4.96938 8.51295 1.4448
8.35 4.49651 1.40178
7.82476 -2.33908 1.204
7.12707 5.67353 1.36429
2.94071 9.38629 1.47065
-7.10017 -2.02131 1.10675
7.47937 -3.10786 1.22112
8.20961 4.53707 1.42196
5.76579 7.4152 1.42644
5.27159 7.60511 1.41016
5.10673 7.91195 1.43048
5.05982 8.01935 1.43521
7.33001 -3.16819 1.21976
7.67484 -2.75452 1.24184
-6.76147 -1.68413 1.04992
7.82672 -2.25542 1.24917
7.2178 5.41327 1.38553
-7.10972 -1.95413 1.14457
-6.92574 -2.78825 1.16074
6.7985 5.5144 1.37321
-7.3627 -1.09684 1.16309
-7.15064 -1.82579 1.1562
-7.05258 -2.0693 1.15198
-7.12723 -1.87414 1.15685
-6.90084 -2.93673 1.17768
4.79373 7.43291 1.40672
3.44605 -6.03156 1.10931
-7.28278 -1.30068 1.18552
3.5279 -5.70743 1.08099
3.56485 -5.61293 1.0704
7.06513 4.76236 1.38855
4.64792 7.35632 1.41629
-7.07733 -2.0253 1.20009
-7.09944 -1.94869 1.20844
6.96062 4.82333 1.40068
3.80491 7.90446 1.45246
6.05279 -3.31906 1.15001
6.62894 4.86978 1.37161
4.65073 7.14809 1.42263
3.83624 -5.30035 1.09977
7.10167 4.42227 1.40881
7.47281 2.85746 1.35222
6.31544 5.27946 1.39527
-7.28637 -1.25699 1.25955
6.75058 4.08137 1.3549
-6.45545 -2.77395 1.19922
5.50953 -3.62973 1.13344
5.6908 -3.5186 1.14882
2.74474 7.82203 1.43318
-7.38037 -1.04065 1.29261
5.33382 -3.78345 1.14001
-6.31534 -2.26126 1.16356
-6.27568 -2.41841 1.178
4.28107 -4.66461 1.10723
4.49399 -4.47718 1.11283
4.59165 -4.449 1.12172
-6.80697 -1.73409 1.2378
4.32526 6.48912 1.39126
-7.16695 -0.929252 1.29226
-6.14822 -2.25926 1.16713
6.63813 3.69121 1.3617
6.09781 4.36026 1.35987
3.60876 -5.32756 1.17027
5.14322 5.68029 1.40173
2.5082 7.1774 1.42822
6.48471 3.05201 1.35525
-1.70662 -5.78333 1.14151
6.42697 -1.3861 1.24755
6.2734 2.778 1.32107
6.21892 2.38171 1.32876
-4.46371 3.95003 1.40196
4.32428 3.53371 1.33583
4.21004 3.29142 1.32307
4.66516 -1.67774 1.24494
4.81868 -1.38094 1.25406
-2.15265 4.824 1.32041
3.72743 -2.95331 1.2226
3.67356 -2.54986 1.19384
3.40713 -2.96216 1.22605
4.00177 2.56781 1.32883
-2.59408 -3.53373 1.25099
-2.32546 -3.56975 1.21627
3.75249 2.05649 1.30102
3.72921 1.97892 1.30047
-2.84989 3.49498 1.3918
-2.29558 -2.41852 1.18729
1.95661 -2.78278 1.21361
-2.12779 2.77339 1.32844
-2.03252 2.76141 1.33461
2.25182 -1.87054 1.22593
2.38111 -1.49881 1.22288
-2.01818 1.87953 1.29849
-2.06359 -1.44247 1.22839
1.4507 -2.0716 1.24651
-1.99161 -1.08737 1.21449
-1.92422 -0.707432 1.22014
-1.92597 -0.703228 1.24574
-1.9553 -0.344264 1.22925
-1.89225 -0.56451 1.2301
-1.89187 -0.530731 1.2352
8.21285 -8.69191 -7.45898
12.0969 -10.2629 -8.77941
-8.82981 15.7632 -7.01156
20.3871 24.8256 -11.5391
-8.81636 -2.52487 -2.58415
-34.7538 -23.2157 -7.72056
-34.344 -22.4601 -6.05478
-34.0744 -23.1564 -6.11802
-31.4085 -20.1434 -2.80598
9.26847 -8.82798 -0.3911
-7.77687 16.7631 -0.455891
-29.6231 -11.4632 0.731838
-6.92883 -8.28114 0.46127
16.5308 23.7373 1.57178
11.3104 15.9066 1.61448
-6.70214 -6.67515 0.884611
4.19146 12.1621 1.48245
8.69621 9.05834 1.46889
7.97192 -8.76351 -10.379
8.83126 -8.53894 -10.4965
6.95633 -11.9363 -11.5132
6.87196 -11.3494 -10.895
8.15194 -8.26424 -9.53215
7.02161 -12.0286 -11.3259
7.06567 -10.9724 -10.4557
8.00169 -8.37723 -9.20336
6.72727 -11.2844 -10.2886
6.44498 -11.6969 -10.2129
7.75712 -8.85038 -8.97194
6.20522 -14.3161 -11.8078
8.29797 -8.70032 -9.10071
6.2997 -11.909 -10.1753
6.14734 -12.088 -10.1127
7.49083 -9.44486 -9.00078
7.90921 -9.05582 -8.92661
10.4627 -9.44561 -10.4836
6.12049 -14.1151 -11.3719
6.10208 -13.6703 -11.0069
6.13116 -12.5768 -10.2913
9.19358 -8.82303 -9.34767
9.28138 -9.06965 -9.4649
5.86489 -12.5055 -10.0342
9.35724 -8.98637 -9.25894
6.86072 -11.1246 -9.27605
5.61572 -12.9706 -10.004
9.68727 -9.07676 -9.40816
7.60855 -9.34365 -8.47204
9.9921 -9.18201 -9.5337
10.9116 -9.48853 -10.1466
11.4332 -9.69224 -10.0662
8.38402 -8.60734 -7.95524
7.43051 -9.29844 -7.8646
8.16683 -8.71777 -7.89587
7.62754 -9.35139 -7.89526
7.8364 -9.4015 -7.84439
8.31992 -8.53473 -7.61943
0.360305 15.8799 -10.1342
7.52719 -9.32356 -7.62567
10.9038 -9.60115 -9.23751
7.22485 -10.7005 -8.17178
8.15475 -8.49696 -7.42725
4.61345 -15.4082 -10.1156
8.71302 -8.70018 -7.61822
7.92098 -9.03203 -7.41025
4.04887 -18.0219 -11.3781
8.19729 -8.6271 -7.27537
4.08672 -17.3111 -10.8535
0.146136 14.8854 -9.05715
6.65379 -11.2615 -7.96389
7.74221 -9.26764 -7.3273
10.1195 -9.30687 -8.34251
6.81997 -11.2505 -7.89821
8.05979 -9.20368 -7.34367
11.2601 -9.68926 -8.88166
5.40079 -13.8575 -8.82096
7.73448 -9.26564 -7.15782
9.3482 -9.03086 -7.70202
6.9015 -11.1143 -7.74323
7.98272 -9.12729 -7.11508
9.7487 -9.18371 -7.80545
14.8264 7.40857 -9.62547
8.66552 -8.82926 -7.14858
6.93203 -10.9634 -7.45483
2.63995 -11.2125 -6.625
7.85914 -9.07083 -6.87394
9.60084 -9.13611 -7.5285
10.7864 -9.48967 -8.10463
3.27993 -20.6019 -11.7318
6.80038 -10.9813 -7.24122
10.1006 -9.28619 -7.68388
12.327 -10.3434 -9.02421
9.2372 -9.00443 -7.20835
4.61519 -14.2917 -8.37299
8.00258 -9.21492 -6.77843
14.7486 7.54021 -9.09341
9.69289 -9.1028 -7.3029
0.83728 17.4694 -9.55028
2.74184 -19.8589 -10.9314
11.1222 -9.63814 -7.99088
4.23212 -14.4183 -8.13425
14.6621 7.66755 -8.91188
15.0466 10.3885 -9.81665
13.9987 7.72276 -8.54214
10.9422 -9.61053 -7.74458
13.2475 -10.788 -9.08822
3.04411 -19.3348 -10.2896
11.3459 -9.81651 -7.6341
2.16877 -20.3847 -10.3469
10.2532 -9.33493 -6.97273
14.2489 -11.2703 -9.12173
13.7855 -11.1502 -8.87635
10.9978 -9.6463 -7.28832
7.50569 -9.33426 -5.93167
3.56267 -8.46722 -4.52722
-8.71377 -1.91324 -4.38629
2.22379 -20.1671 -9.95135
4.53124 -9.29787 -5.05855
0.404084 13.658 -6.68843
7.60463 -9.26624 -5.84954
-8.53752 16.2934 -8.90921
-9.21563 -2.43627 -4.593
14.9685 -11.5592 -9.08866
19.3319 5.53122 -9.61569
-10.3326 -2.55822 -5.03484
1.90961 -20.5592 -9.81815
17.1521 16.1182 -11.1469
7.57747 -11.2026 -6.38182
19.9812 5.39325 -9.74615
14.0072 -11.0898 -8.30822
2.92782 -17.3256 -8.17053
19.3094 5.7132 -9.30248
17.803 -12.9743 -10.1759
9.85289 -2.4887 -4.69539
20.2352 5.12881 -9.63101
17.2767 16.2461 -10.9274
1.81031 -20.2302 -9.29556
9.66413 -9.03687 -6.05869
-9.22559 -1.67455 -4.27621
9.44128 -3.46431 -4.58033
6.70758 -11.3076 -5.98025
9.90007 -2.61495 -4.64446
19.2024 5.85539 -9.03763
17.6579 17.5147 -11.1799
9.35759 -3.08249 -4.43464
15.399 -11.8494 -8.71984
7.03084 -11.5518 -6.04888
7.14531 -10.9077 -5.81238
9.5473 -3.40048 -4.51633
-10.0639 16.4956 -8.603
17.6123 -12.8537 -9.68929
19.4882 5.614 -8.98875
16.0701 7.28909 -7.81368
17.7642 17.9426 -11.1658
16.3916 -12.1908 -9.00365
-11.3289 17.2275 -9.06305
-6.60044 15.0845 -7.21951
-5.24836 4.92273 -3.13534
20.084 5.45313 -9.04737
9.54624 -3.40075 -4.37342
18.1551 18.4009 -11.1096
15.7897 -12.151 -8.57354
14.8331 7.4164 -7.07735
3.83665 -9.29751 -4.27342
-11.2511 17.1122 -8.67024
6.93787 -10.8964 -5.44706
-13.6253 3.33921 -5.91057
0.743366 -22.4035 -9.44624
15.7762 -11.9452 -8.27576
-5.1787 5.70266 -3.22302
0.998946 -22.2669 -9.34347
1.23186 -20.7886 -8.72434
14.1436 7.58552 -6.71247
18.4825 19.261 -11.1527
3.78099 -8.95071 -4.05204
14.745 7.71587 -6.9269
17.8549 19.069 -10.8403
-9.52926 -1.0937 -3.95951
4.00594 -8.49963 -3.84981
14.0105 7.73613 -6.56972
6.83732 -10.9764 -5.28708
-13.6635 2.55241 -5.68626
-8.02502 15.547 -7.11013
19.1783 20.8391 -11.4728
15.0466 7.22983 -6.7257
-5.31041 14.5031 -6.19262
13.928 -11.0114 -6.95441
1.53047 19.2204 -7.48813
-8.81806 15.9262 -7.07457
18.9499 5.77906 -7.67597
-1.75933 13.3313 -5.20847
5.29227 -9.38798 -4.15616
-2.39394 13.5544 -5.28674
19.5018 22.5597 -11.4337
4.65841 -8.51164 -3.68496
19.375 5.55829 -7.66985
0.877546 -26.5773 -10.1055
14.8764 -11.4638 -7.06816
19.9323 5.40002 -7.72879
9.43206 -3.43644 -3.75309
0.533781 -22.7265 -8.47139
3.2459 -10.786 -4.20826
20.0972 23.3811 -11.4489
0.909902 -8.7245 -3.25296
14.0028 -11.0895 -6.58659
20.339 5.17298 -7.7161
17.8199 17.608 -9.15433
-13.0755 2.2907 -4.82621
20.7414 24.7685 -11.7163
2.28537 -13.2498 -4.84405
13.0133 -10.5236 -6.02243
0.796012 15.4284 -5.52747
-8.21115 -2.8021 -3.10331
0.410118 -21.8891 -7.82584
-4.24915 13.9462 -5.18605
0.638557 -21.9592 -7.80681
15.8233 -11.9508 -7.02836
-15.8901 18.3702 -8.56036
5.92393 -11.3299 -4.49548
-11.1304 16.7968 -7.03812
0.0934213 -18.5436 -6.51836
14.2389 -11.2846 -6.353
20.2939 5.3446 -7.32482
0.657985 -23.0837 -7.97513
-5.05852 14.6854 -5.32217
3.6379 -8.44508 -3.16529
4.87399 -9.02842 -3.51592
-14.6526 18.1915 -7.9958
2.2744 -10.8837 -3.81043
-8.97404 16.2795 -6.33698
3.02444 -13.6843 -4.77829
-15.1326 18.5735 -8.12217
20.1123 5.46825 -7.0053
21.9222 27.119 -11.6539
35.8919 -20.2612 -13.774
-5.35537 14.2049 -5.04233
1.91138 20.7076 -6.89982
1.26735 -10.2485 -3.41442
-5.30193 14.5995 -5.04526
-12.7158 17.4081 -6.99367
18.5165 -13.1946 -7.3838
3.55901 -8.67076 -3.00509
6.21508 -10.1053 -3.80208
2.31318 -11.0069 -3.57925
-4.59615 -34.5221 -11.0688
-1.14373 -23.9573 -7.63431
14.984 10.3196 -5.74154
-13.3462 17.7596 -7.02226
-18.184 19.6132 -8.40794
6.95478 -11.0837 -4.04552
1.3866 -21.9282 -6.79693
-2.59112 -27.5947 -8.50714
7.14578 32.9984 -10.3023
0.771088 15.0187 -4.56762
-11.2494 16.9735 -6.13782
-2.72013 -26.7059 -8.08369
-14.4945 18.1227 -6.92453
-5.34064 -35.0175 -10.5466
0.839895 -25.1286 -7.51751
-5.44721 14.9828 -4.74263
2.07702 20.6585 -6.1169
-21.504 20.0508 -8.67473
18.1739 5.78332 -5.6136
-4.33684 14.5675 -4.46944
-8.0077 15.5356 -5.12819
4.2537 -9.13881 -2.96279
4.63327 -11.6095 -3.65507
-12.6527 2.22893 -3.69245
-33.4187 -47.3379 -16.6732
-15.3549 18.472 -6.90551
6.95138 -11.0715 -3.7637
2.5629 -9.54287 -2.80756
12.9159 -10.4546 -4.72893
-8.46153 -2.46257 -2.49883
20.9595 27.0308 -9.69042
-8.58933 -2.26383 -2.51002
-2.57363 -26.2593 -7.40401
-13.0606 2.00137 -3.67959
4.3846 -11.3211 -3.36974
-9.4061 16.1763 -5.13763
-13.1931 17.5954 -6.04085
-5.44866 14.5425 -4.24505
-8.61127 -41.8172 -11.6808
-21.6976 20.2479 -7.97861
-9.83068 16.3015 -5.10193
-26.9995 20.7405 -9.05775
11.4083 11.482 -4.27061
4.32363 -11.287 -3.20207
46.8337 -13.6146 -12.9207
-8.30966 -39.2132 -10.535
4.08723 -8.65256 -2.51974
11.1583 -9.92477 -3.90665
-14.601 18.2818 -6.0841
6.53159 -10.4161 -3.18227
3.17664 -9.6419 -2.62446
-30.5057 -44.6788 -13.9693
-4.40628 -28.9001 -7.56314
3.53885 -10.3658 -2.82438
4.06602 -9.38217 -2.62824
15.5786 -11.714 -4.97334
-7.23122 15.4058 -4.30804
-31.9396 -42.5955 -13.5004
4.30855 -11.1359 -3.02213
4.25342 -7.70136 -2.23911
6.53071 -10.6527 -3.11628
44.5414 -13.4667 -11.6019
-28.572 21.5564 -8.84901
-11.6476 17.1125 -5.10343
-27.9213 -40.7311 -12.1416
-10.0256 -39.4602 -10.0421
-24.734 20.7746 -7.93804
4.34669 -10.3241 -2.75228
-12.1861 17.4553 -5.16193
-7.92521 15.4418 -4.18383
10.2644 -9.25859 -3.30987
40.0676 -13.3095 -10.1033
15.0878 7.54553 -4.01586
-6.39247 -36.6073 -8.85164
3.96344 -9.08248 -2.34813
46.706 -12.5004 -11.4755
-12.3431 -45.4463 -11.1552
4.19832 -8.98294 -2.36553
3.8544 -11.0551 -2.7594
4.90545 -8.68803 -2.34718
-12.9079 17.5904 -5.07794
10.995 -9.63544 -3.34144
-6.25652 -31.7262 -7.37802
-27.4313 21.1866 -7.85709
41.2951 -9.03094 -9.59285
-30.8181 22.3755 -8.53888
-35.7217 -23.4094 -9.56944
40.4958 -12.5185 -9.51713
5.45019 -9.46663 -2.4389
-12.4413 2.83882 -2.8
40.3694 -11.8302 -9.29466
42.3292 -12.0777 -9.68458
-5.43608 14.2633 -3.33787
13.3701 -10.7587 -3.77751
37.8599 -12.1669 -8.74251
-23.6207 20.5868 -6.79673
-30.2637 -74.6122 -17.4701
4.30568 -9.69106 -2.29969
4.5354 -9.17272 -2.21028
-14.7229 18.3432 -5.02335
-31.2607 22.7072 -8.25046
-32.1503 22.8159 -8.42758
-28.9027 -76.6826 -17.5645
-10.7964 16.8703 -4.24731
-8.54963 -36.292 -7.92813
3.18744 -9.67661 -2.17258
3.96234 -9.81971 -2.25783
45.4932 -10.5476 -9.96898
14.9204 7.47342 -3.53763
-15.3042 18.8395 -5.13924
5.15992 -9.04771 -2.18831
26.3809 38.1691 -9.6953
14.9597 7.82914 -3.50534
-30.3757 -23.4593 -7.96164
-33.9763 -87.1165 -19.3576
-11.5596 17.0318 -4.18323
-15.7698 18.6452 -4.97166
-35.5539 23.8664 -8.70164
44.1462 -9.62917 -9.21435
-13.4646 -43.325 -9.22022
4.13175 -9.72464 -2.14978
11.5884 -9.63312 -3.06609
-12.1114 17.3808 -4.22913
-20.3274 -58.3392 -12.346
-13.1532 -40.8589 -8.49767
4.0657 -9.91139 -2.12114
-34.382 -23.5101 -8.21076
-26.9849 21.1788 -6.75161
-33.4055 -23.8955 -8.00612
-6.95871 15.3772 -3.27651
-27.1287 -63.7435 -13.4554
-33.8133 -22.5106 -7.82777
3.43256 -9.35337 -1.92397
45.5728 -10.5589 -8.98303
-12.864 17.5635 -4.16208
3.98547 -9.3363 -1.93731
-36.7273 -22.3092 -8.13437
-21.4908 -34.9113 -7.79637
-15.8372 -45.6963 -9.15035
37.6938 -12.4343 -7.50356
-36.3242 24.3964 -8.18912
-33.9526 -23.4484 -7.75139
-32.8973 -24.069 -7.65155
-21.6995 -53.7582 -10.9076
-17.1551 -46.5978 -9.2102
3.81768 -9.2008 -1.83998
42.3164 -11.405 -8.13861
5.75235 -9.70391 -2.06749
-24.988 -56.6608 -11.337
-20.7957 -51.6162 -10.0644
-14.6892 18.3105 -4.16261
-31.3391 -25.2757 -7.15653
-20.453 -27.2543 -6.09336
-39.7852 25.1049 -8.30048
-26.9948 21.1961 -5.97396
-34.4175 23.5516 -7.24116
3.90543 -10.0395 -1.86799
4.76857 -8.60663 -1.70996
13.9784 7.50678 -2.7364
14.0512 8.0632 -2.77445
-31.1117 22.624 -6.59483
41.9976 -11.882 -7.43082
41.7974 -10.8252 -7.35018
-31.4962 -25.014 -6.82288
-21.2435 20.2317 -4.92643
-20.7476 -51.5702 -9.39184
14.8327 7.43413 -2.78242
-31.9914 22.648 -6.54758
-24.0044 -57.2305 -10.2544
43.308 -11.6668 -7.29037
-10.4402 16.5746 -3.1613
-21.0424 -52.2028 -8.97628
-35.162 -24.2726 -6.73263
-22.9638 20.1757 -4.78669
-24.3792 20.8116 -4.9681
-40.495 24.5183 -7.33577
-11.3156 16.936 -3.1446
3.46878 -9.51988 -1.56706
3.86488 -10.2203 -1.69193
-7.68825 15.594 -2.65592
-31.3448 22.8136 -5.92634
-31.9997 -24.7157 -6.14832
-28.1542 -26.335 -5.84019
41.9845 -10.9147 -6.59397
44.6071 -9.7183 -6.95543
-6.60018 14.7013 -2.41152
9.82451 -5.14977 -1.64631
-33.7448 -24.3386 -6.19592
-27.0478 -68.3896 -10.907
10.1832 -9.15579 -2.04082
44.7463 -10.3515 -6.82079
-36.9383 -24.5894 -6.53066
-31.7544 -26.1924 -6.02136
-12.8708 -42.6457 -6.55393
16.8841 -12.2156 -3.05274
-25.6002 21.0774 -4.81919
-25.1562 -56.3653 -8.89411
-7.68477 15.392 -2.46029
-12.8134 17.4705 -3.08917
6.0272 -11.5149 -1.85729
-13.5205 18.0715 -3.17052
-35.0217 23.6579 -5.94196
6.75167 -11.0285 -1.80744
37.4134 -12.3471 -5.54142
-31.3844 -25.1483 -5.61279
-33.3063 23.9356 -5.68195
-20.9338 -50.4539 -7.54434
44.8961 -10.0437 -6.34398
-6.93275 15.3324 -2.29983
-23.1157 -60.3288 -8.77605
7.74481 -9.37262 -1.63172
-14.1158 18.0237 -3.08632
13.1972 -10.5258 -2.28418
-22.4024 20.3777 -4.07236
41.9066 -10.835 -5.74661
44.6229 -9.77423 -6.04647
-22.7843 20.0504 -3.96882
-32.932 -24.6425 -5.37239
-15.014 18.3852 -3.0693
-34.3304 22.9137 -5.35864
-38.6041 -16.3002 -5.4105
7.00917 -10.4241 -1.61177
10.7545 8.80496 -1.78452
-34.0545 -23.4682 -5.2926
-31.7159 23.1533 -4.96735
-35.8436 -22.3668 -5.29563
41.772 -10.8029 -5.39964
6.78873 -10.3565 -1.54742
-7.72185 15.4453 -2.13838
-25.2209 21.1774 -4.03271
-33.6968 23.7485 -5.08528
6.28641 -12.0566 -1.65655
44.5756 -9.5101 -5.58284
14.9744 7.84518 -2.03234
-18.2196 -44.127 -5.75649
7.07897 -10.5209 -1.52689
-20.6247 9.1406 -2.67013
-14.5462 -44.0016 -5.449
-32.0851 -24.7371 -4.73726
-31.5678 -25.2462 -4.73011
41.8535 -11.2113 -5.09269
11.2181 -9.66078 -1.71525
-30.1396 22.8532 -4.35176
6.63502 -10.8109 -1.45223
7.48289 -9.21283 -1.35769
11.5695 -9.71233 -1.71577
9.44306 -4.60676 -1.18978
14.9529 7.68389 -1.89455
-10.433 16.6092 -2.21377
-32.4715 23.7271 -4.50545
38.7038 -12.7408 -4.56965
9.34782 -9.01445 -1.43676
-11.1532 16.7274 -2.1857
6.78282 -12.7699 -1.5664
44.716 -9.71836 -4.96091
10.7523 8.83574 -1.49973
16.7394 -12.4345 -2.23815
42.0477 -10.9054 -4.65474
9.60958 -8.96985 -1.39275
8.37225 -8.4573 -1.24671
-31.1258 -24.9079 -4.15107
-30.7353 -61.6491 -7.18615
14.9499 7.49756 -1.70861
-32.0248 -24.6932 -4.14917
-12.957 17.663 -2.22442
-12.8729 17.2466 -2.13927
10.1969 -9.07857 -1.33753
-21.2308 -53.9185 -5.68101
6.30712 -12.0784 -1.31892
16.6094 -12.1517 -1.97834
41.9369 -11.269 -4.16264
-31.2923 -63.2538 -6.70857
-21.2188 -55.6845 -5.65919
-23.4936 20.5495 -2.91797
45.4099 -10.1019 -4.34525
9.70683 -8.97808 -1.22405
39.5277 -13.0392 -3.87878
-15.1355 18.5537 -2.16851
-29.8537 -13.6112 -2.99077
-32.9298 -64.1941 -6.65018
15.8276 -11.8467 -1.79857
8.62849 -8.71939 -1.11087
12.8721 -10.6252 -1.45352
44.9986 -10.4298 -3.95713
9.39268 -9.01914 -1.09468
10.9387 -9.63292 -1.22522
-34.4537 23.661 -3.47813
16.8089 -12.2577 -1.72322
-17.1803 -44.7064 -3.83614
14.657 -11.4608 -1.48378
-11.8581 -33.1972 -2.78243
-30.0705 22.8642 -2.92142
-33.3791 23.5936 -3.1556
-23.0908 -52.7455 -4.44521
-51.6896 28.1317 -4.45638
-21.5526 20.2843 -2.15302
-33.6084 23.7723 -2.98348
16.3466 -12.2141 -1.49288
41.963 -11.2293 -3.16495
-40.1579 -75.9825 -6.2023
13.9516 -11.0386 -1.2733
-15.7699 -41.8335 -3.08574
10.7535 -9.6036 -0.987866
-23.5178 20.5919 -2.11119
12.8505 -10.6036 -1.11536
17.9135 -12.9925 -1.47543
16.0101 -12.1098 -1.32587
-14.8694 -41.2268 -2.83507
43.71 -11.3679 -2.82324
-32.4644 -65.7782 -4.47644
35.7131 -8.66401 -2.25546
42.8891 -9.8166 -2.70129
6.03805 -13.0519 -0.859666
30.7788 -20.3662 -2.20874
-9.9178 16.5563 -1.13468
-15.7678 -41.1315 -2.50837
16.5765 -12.3884 -1.16206
-9.7084 -12.5854 -0.871051
14.9406 7.66507 -0.9078
13.8788 -10.9865 -0.947959
-12.8793 17.4534 -1.13304
-16.6815 -41.3465 -2.36796
14.835 7.80068 -0.82136
-16.5116 -42.2057 -2.22385
-14.2548 18.0679 -1.10062
9.55593 -9.01378 -0.602561
-24.3893 -55.9462 -2.76187
12.4332 -10.2211 -0.746259
-16.2452 -45.2851 -2.13618
-17.4387 -42.9655 -1.98536
6.84338 -12.6363 -0.637655
-14.1176 -43.0348 -1.92942
-53.1222 28.8897 -2.44956
18.2951 -13.1437 -0.914362
16.7669 -12.4628 -0.813736
-42.4122 -82.3183 -3.49389
-18.5112 -48.5426 -1.91362
-33.9104 23.2995 -1.50469
42.4402 -10.9353 -1.57828
-35.1424 -69.9045 -2.61804
-26.2989 -57.634 -2.13326
20.0578 23.1979 -1.01792
-21.5956 20.2371 -0.9642
8.09898 -14.2941 -0.551903
9.41229 -8.98547 -0.421857
11.2848 -9.93466 -0.488777
18.5493 -13.1157 -0.746747
34.706 -13.0899 -1.23111
21.8328 26.4285 -1.09882
-27.5144 -13.8011 -0.964815
-23.067 20.5412 -0.941203
-31.9464 22.626 -1.22159
-25.4061 -58.4095 -1.97309
-13.9804 -39.55 -1.29231
-21.8725 -55.7939 -1.81483
-16.8598 -45.6937 -1.39565
-34.2405 -20.7608 -1.06653
11.4339 -9.69985 -0.401734
16.3057 -12.1279 -0.535808
-41.4185 25.6228 -1.28422
-30.5282 23.229 -0.948863
-31.0493 22.7552 -0.90987
9.55828 -8.99802 -0.304142
-41.6324 14.3892 -0.973368
-31.8458 -53.3263 -1.39925
21.2118 -14.1865 -0.561066
30.3792 -18.421 -0.802082
14.2073 3.92631 -0.300571
27.1218 47.3943 -1.00316
23.4829 -10.9326 -0.456292
46.9345 -10.8075 -0.896024
-30.8251 -22.152 -0.692205
-29.8002 -29.2698 -0.662451
-19.2498 -47.2343 -0.849759
12.7015 -10.4449 -0.270628
18.4781 -13.3522 -0.348518
-29.4174 -13.0753 -0.422572
-33.0528 -24.7359 -0.57445
-33.9928 -68.5269 -1.03332
-28.1857 -59.9882 -0.90872
-34.1576 -23.3278 -0.540065
-30.5477 23.2402 -0.451627
16.962 -12.6669 -0.251466
29.2076 -18.1102 -0.404604
-31.0064 22.7631 -0.428001
-19.3317 -44.3362 -0.517874
-12.1608 -36.6027 -0.388751
-33.8984 -59.7283 -0.633237
-14.427 18.3003 -0.178645
-26.8352 -13.5295 -0.242594
-15.1218 18.4333 -0.162832
-22.7199 20.2909 -0.156504
-21.1487 19.8367 -0.131657
-10.5881 -13.612 -0.0605569
14.7029 7.7238 -0.0199148
11.0939 -9.75515 -0.00780901
-34.709 -19.0109 0.0604132
-11.4681 -34.0834 0.116728
16.9222 -12.2945 0.0907234
-19.0464 -43.727 0.211556
18.7381 -13.2024 0.121678
7.16505 -12.3166 0.103959
25.9381 -10.6418 0.172407
-55.8671 19.9484 0.566119
16.217 -12.0185 0.192674
37.3241 -7.62017 0.359458
-29.2174 -8.23866 0.355222
-36.5293 -22.0484 0.470583
-11.4496 -32.8046 0.37234
-12.8533 -35.6171 0.450429
-10.3934 -31.9469 0.402751
6.31905 -12.9162 0.183546
7.2045 -11.099 0.173973
-28.4064 22.2981 0.553384
11.2985 -9.86742 0.225508
-24.301 20.7817 0.528184
10.8866 -9.72046 0.229051
12.9523 -10.6627 0.264296
36.2796 -7.76433 0.61727
-34.791 -23.3094 0.761719
-31.4878 22.5139 0.760533
6.13182 -12.8114 0.275601
7.01321 -11.0368 0.251922
8.01821 -9.40883 0.241401
27.0981 55.7198 1.34818
7.72128 -9.4343 0.275622
10.1181 -9.16434 0.32934
-28.9528 -9.28401 0.732516
-23.4868 20.5004 0.843948
-27.8011 21.9211 0.950697
-29.0821 -8.73237 0.800292
9.18048 -8.88652 0.345151
9.61433 -8.93581 0.357786
-25.7907 21.7366 0.916931
25.3094 -5.12014 0.718979
12.962 -10.6334 0.499418
14.7195 23.979 0.868347
6.17903 -12.747 0.445776
7.44686 -11.6084 0.432801
-28.604 -8.06724 0.975271
-12.6697 -19.3988 0.76325
-28.2852 -8.84052 1.02474
16.0648 10.9956 0.703745
-30.0054 -18.5932 1.23384
15.648 27.1819 1.11962
-30.6235 -16.7042 1.2927
23.4772 -4.2394 0.861974
-27.998 -19.9126 1.27307
-7.3072 -7.96736 0.408057
9.04208 -8.81736 0.469463
12.3833 13.5461 0.707851
25.6292 52.8709 2.22567
24.4986 52.16 2.17046
-11.5847 -9.16978 0.58265
8.7145 -8.66023 0.48601
-25.8756 21.3153 1.36151
21.7847 -2.95241 0.890696
-28.9678 -17.5951 1.38848
9.40384 -8.91667 0.531337
12.4052 14.2872 0.814248
6.56547 -12.4336 0.597088
14.7749 19.1977 1.06524
20.6168 28.4773 1.54004
-9.52411 -13.8481 0.738718
-10.0165 -15.6654 0.825335
7.58731 -10.9354 0.586403
8.61549 -8.70484 0.553468
24.1216 -3.69522 1.10186
-30.0195 -8.74813 1.42738
6.73266 -11.0683 0.59608
-8.28898 -8.15735 0.547401
21.0433 42.4571 2.26744
-28.7281 -17.7551 1.5964
-9.79832 -13.744 0.803357
9.6491 -8.95267 0.61995
15.219 42.2926 2.17609
-30.4271 -13.4771 1.58845
-6.77375 -8.25821 0.525644
14.3659 33.4084 1.85591
-29.9085 -11.7122 1.61203
-7.60475 -6.99283 0.522316
-6.71 -7.60651 0.513203
15.967 28.9242 1.71578
10.4981 12.2756 0.873085
14.1301 19.2286 1.28142
9.33383 -8.91481 0.691553
14.7163 19.1478 1.33365
15.1536 23.4046 1.53551
-27.7366 19.5294 1.85992
-6.98497 -8.20885 0.597803
-26.6629 20.4584 1.86907
6.08116 -12.8399 0.794916
-7.12 -9.17581 0.66239
9.90668 12.3741 0.932395
14.7702 24.8859 1.69089
6.44853 -12.9514 0.832657
13.7194 22.3828 1.55089
-8.27579 -8.13479 0.699279
11.4817 11.5609 0.971804
14.565 19.3716 1.45635
-7.41416 -10.0367 0.776087
6.99732 -11.1508 0.802279
11.2414 -9.69638 0.899986
5.85712 -10.7371 0.758974
-7.20635 -6.66091 0.613323
14.3635 20.3756 1.57756
16.0861 7.14041 1.14285
-7.04741 -6.15739 0.614198
6.44897 -13.4169 0.992101
9.30099 21.0093 1.55011
10.3603 12.4874 1.10939
13.4496 18.0851 1.57216
12.2879 20.3731 1.64647
11.2871 11.9231 1.15255
6.58754 -9.82428 0.837659
11.4357 11.6998 1.18412
9.78947 -6.91041 0.852639
12.294 11.9017 1.25686
9.90709 -8.36641 0.949955
-6.18573 6.70416 0.681335
10.3855 9.14469 1.03961
11.8257 17.6813 1.60065
11.3775 18.1266 1.61274
-6.95799 -7.71254 0.805566
10.756 18.5647 1.64637
9.49538 -8.9399 1.00789
-6.42364 -4.3043 0.609997
9.09708 18.2258 1.62792
10.0622 -6.8855 0.976273
12.3889 11.4946 1.3663
9.65009 18.7366 1.69719
-7.28162 -9.65847 0.985304
6.70597 -9.36373 0.937219
12.1763 11.6483 1.38086
12.08 11.8802 1.40709
11.3588 11.8725 1.36043
-5.06551 -11.5614 1.0618
10.2493 12.8232 1.39693
-6.97139 -6.0919 0.79756
-6.82802 -6.70673 0.80856
-5.22659 -11.4632 1.0714
-7.31474 -7.76191 0.918573
9.26777 -7.24285 1.01626
-7.13494 -8.07399 0.943039
-7.03023 -7.70501 0.917408
9.33104 12.455 1.37988
-6.96645 -8.38942 0.974323
10.7641 9.03177 1.28071
10.3954 13.3887 1.5316
10.4736 9.19848 1.27615
7.66096 13.9064 1.46048
-6.51093 -8.15183 0.956
-6.91843 -9.03867 1.05067
11.1388 10.743 1.42803
11.1959 9.13469 1.35228
10.8102 10.7451 1.42891
6.43064 14.8604 1.52164
-11.4649 2.93712 1.11017
-6.36867 -4.17575 0.71363
-6.81627 -6.30368 0.861101
9.37013 13.2146 1.56285
-6.05592 6.58044 0.881
7.94949 -6.60014 1.007
7.87667 13.1336 1.52134
-7.08188 -7.63185 1.04899
9.25311 11.5699 1.49443
6.96031 12.3583 1.43957
7.01399 12.9218 1.49898
9.48821 9.04957 1.35707
5.81487 13.862 1.55814
9.08424 12.3553 1.59896
-6.11355 -4.4614 0.793458
5.91428 13.5899 1.56126
6.17417 13.5241 1.56307
-6.97896 -4.43318 0.884513
8.72597 8.97537 1.33466
9.08891 10.1253 1.47989
7.28688 10.9415 1.42877
5.78914 11.4026 1.39042
-6.30932 -7.42233 1.0649
10.2273 6.42758 1.33661
8.95175 8.10209 1.33105
7.26785 11.6173 1.51325
6.80453 11.5651 1.48363
5.32145 11.8168 1.44197
4.83502 12.0184 1.4494
4.66459 13.5655 1.57821
9.82649 7.02598 1.34896
8.71555 9.26454 1.42147
5.34756 11.4421 1.42236
-6.85179 -6.73366 1.06939
6.82844 10.6582 1.42602
4.28386 13.0681 1.55433
9.73837 -3.19117 1.14267
-6.11075 -5.41991 0.945823
7.28101 -6.11307 1.0792
10.3763 5.69323 1.35756
-7.38987 -0.986948 0.85457
-6.26415 -5.36196 0.949279
5.24258 -5.55087 0.879675
5.03422 11.547 1.46337
-6.89096 -4.56448 0.958004
4.44858 -7.25379 0.984093
10.3706 5.13026 1.35784
8.84514 7.85049 1.38845
-6.0077 -4.37236 0.866141
-6.49317 -5.27947 0.988804
4.08715 -7.85659 1.05324
4.96184 -5.84458 0.919825
10.1319 4.73757 1.34091
8.47984 8.23418 1.43177
5.24115 11.4182 1.5337
9.0104 6.24198 1.34218
7.97454 8.29921 1.44189
-6.49762 -5.75373 1.08058
3.70274 -7.56528 1.05495
8.64156 6.66299 1.37228
-6.47533 -5.35066 1.0633
9.05653 5.99041 1.38641
8.14976 7.11119 1.38008
8.07955 7.47549 1.40556
5.7711 -5.34002 1.00948
-6.98041 -4.44855 1.06271
8.06575 7.96361 1.47028
-7.36614 -1.04363 0.961529
-6.93088 -2.82959 0.977913
8.94852 4.08867 1.28852
8.36981 6.60312 1.39962
4.99376 -6.02245 1.02839
4.91185 -6.18672 1.04606
6.86294 -4.27816 1.07651
-7.14165 -1.72027 0.985066
-7.01755 -2.22253 0.984407
-6.03153 -4.42689 1.00044
8.10398 6.63299 1.41982
8.58374 4.42609 1.31682
8.60284 5.14994 1.36959
7.99608 7.1094 1.45645
-6.81596 -3.73767 1.05575
8.83506 4.14715 1.33605
8.23619 5.8131 1.3806
-6.40483 -4.33374 1.05841
-5.96349 -4.5297 1.02295
5.33171 8.98465 1.4431
3.61674 10.0055 1.47747
-7.37635 -1.09426 1.03299
-6.91187 -3.93145 1.10377
4.94494 -5.53913 1.0262
5.22404 -5.39392 1.04219
7.45595 -3.53341 1.15388
3.36163 10.0814 1.48905
8.37692 4.58469 1.35095
7.36773 -3.67451 1.16798
7.57916 -3.33146 1.18035
7.75351 -3.30214 1.19582
8.916 2.80739 1.34551
4.82991 -5.63091 1.06636
7.34658 -2.8503 1.14728
-6.96598 -3.30373 1.12403
7.90936 -2.77654 1.2222
8.65294 -1.81762 1.2979
4.98508 8.53505 1.45906
2.93269 9.37369 1.46112
7.72386 -1.88591 1.17181
7.20672 5.73936 1.37276
3.43317 9.49755 1.4928
3.16452 9.72834 1.5161
-7.37868 -1.04458 1.10529
-7.08199 -2.02523 1.09805
6.92434 6.26819 1.41023
-6.26878 -2.27375 1.00103
-7.24807 -1.37682 1.11402
7.91699 4.80414 1.41091
5.68822 7.32958 1.40778
5.27214 7.60167 1.40801
5.03573 7.98025 1.4267
6.75403 -3.22307 1.13178
7.23954 -3.12181 1.20737
7.62823 -2.75266 1.23583
-7.32506 -0.733805 1.12457
-7.10471 -1.95654 1.1377
6.78356 -3.09034 1.15282
3.74922 -5.78566 1.06608
-7.06034 -2.07815 1.15416
-7.35431 -1.09413 1.16784
7.34143 4.7618 1.38213
-7.20619 -1.44505 1.16968
-7.2794 -1.30251 1.18687
-7.10485 -2.02113 1.20155
7.05103 4.75054 1.38793
-7.10854 -1.94748 1.21108
6.99062 4.85188 1.4135
6.5977 4.83927 1.36552
5.19028 6.22387 1.3501
4.65553 7.14501 1.42429
3.80418 7.89568 1.45681
-7.25701 -1.375 1.23335
2.79253 -5.77714 1.08167
7.12384 4.41736 1.41217
6.49534 5.22363 1.40624
3.87334 -5.36484 1.11563
3.93655 -5.02086 1.08004
-7.28023 -1.2538 1.25354
-6.60427 -2.62763 1.20626
7.40129 2.84194 1.34475
7.01361 3.8821 1.36615
-6.41989 -2.75542 1.18893
6.75835 4.08879 1.35608
5.68037 -3.51835 1.15007
-7.40442 -1.04079 1.29344
-6.3624 -2.28243 1.16241
5.53344 -3.6467 1.14231
5.31743 -3.77295 1.14285
3.58101 7.13056 1.40359
-6.80608 -1.73687 1.23394
4.47966 -4.46709 1.11334
-7.09982 -0.915632 1.27562
4.72457 -4.45718 1.14944
4.31343 6.47005 1.3876
6.57184 3.46635 1.34185
6.61078 3.67424 1.35876
-6.44722 -1.50193 1.191
3.60887 -5.32637 1.17038
5.06272 5.59628 1.38182
-6.16028 -2.18511 1.19827
3.41346 -5.15907 1.15044
3.37346 6.74265 1.41052
-1.69735 -5.78079 1.14456
6.43247 2.7267 1.3296
-2.14292 -5.72685 1.17563
6.29696 2.79061 1.32605
-2.78745 -5.3765 1.18692
-3.53674 5.37101 1.394
4.46125 3.88517 1.35018
4.15164 -2.87911 1.17718
4.6285 -2.18623 1.23687
4.19188 3.28572 1.31934
3.7085 -2.93111 1.2242
4.01245 2.57078 1.33131
-1.44283 -4.11695 1.22166
-2.32092 -3.57953 1.21261
3.85482 2.36116 1.30966
-2.86762 3.5344 1.3652
-2.48067 -2.91658 1.18961
-2.3781 -2.93769 1.19453
1.84388 -2.81305 1.18251
1.86686 -2.79122 1.21253
1.99288 -2.52745 1.19879
-2.04651 2.81168 1.32318
2.80379 -0.555684 1.25909
2.78296 -0.336825 1.24075
-2.0893 -1.61923 1.21319
-2.07709 -1.45135 1.2383
-1.86212 -1.79588 1.28357
-1.9947 -1.13147 1.2048
-1.98622 -1.07043 1.23164
-1.94608 -0.880423 1.23192
-1.93049 -0.708465 1.22226
-1.92936 -0.701566 1.24948
-1.90579 -0.469735 1.22237
-1.87122 -0.34574 1.21961
-1.85604 -0.401209 1.22631
2.378 -19.6976 -10.0117
-7.61226 -8.98729 0.465764
8.01441 -8.79562 -10.4627
8.26059 -8.62613 -10.4993
8.21221 -8.28704 -9.88201
6.95519 -11.9528 -11.4058
8.51237 -8.96955 -9.737
7.84716 -8.9337 -9.13178
5.84854 -12.7954 -10.7269
9.42217 -8.82948 -9.73968
6.14603 -14.0917 -11.5737
8.28361 -8.67524 -9.01849
8.01437 -9.16514 -9.10466
7.28902 -9.24208 -8.76972
5.90823 -14.1486 -11.1873
7.71494 -9.30196 -8.72048
7.85221 -9.11294 -8.66537
7.12563 -10.5762 -9.07976
6.81698 -11.0682 -9.2155
10.0465 -9.18667 -9.56131
6.53648 -11.1705 -8.86058
8.02951 -8.62408 -7.84672
7.35702 -9.27643 -7.86817
8.51184 -8.67711 -8.07956
7.71637 -9.46809 -8.02451
6.48403 -12.7687 -9.35164
7.92934 -9.17632 -7.90999
5.00124 -16.0368 -10.8048
-0.472708 13.9402 -8.91873
7.72392 -9.24008 -7.72286
7.33119 -10.8579 -8.34196
8.37343 -8.56167 -7.62977
10.8665 -9.61298 -9.2027
8.98453 -8.81414 -7.89373
11.7538 -10.0231 -9.68117
8.06852 -8.53143 -7.22442
4.04105 -16.8443 -10.6168
4.24866 -15.3779 -9.79623
7.84046 -9.35416 -7.31475
3.95247 -15.6307 -9.61433
11.4685 -9.81829 -9.04235
6.86023 -11.0709 -7.73379
7.76816 -8.81514 -6.96039
5.48534 -13.993 -8.8804
6.48509 -12.7003 -8.34584
8.3577 -8.59008 -6.98455
9.6811 -9.07491 -7.7375
2.7898 -11.7927 -6.94651
5.47564 -13.8909 -8.45457
9.5881 -9.09908 -7.4725
6.61414 -11.0644 -7.25853
3.35015 -20.7179 -11.7619
8.87365 -8.93401 -7.05899
12.1769 -10.2163 -8.90505
6.8199 -11.0003 -7.21068
4.6812 -14.6072 -8.47758
6.21857 -12.6159 -7.73777
0.896962 18.5686 -10.1188
14.5949 7.71189 -8.96763
4.20224 -14.2389 -8.01854
14.7012 -11.6334 -10.1062
14.9477 7.42775 -8.88971
13.9877 7.70666 -8.48436
4.76393 -14.8449 -8.2843
12.0679 -10.1374 -8.29434
1.81446 -20.5063 -10.5911
11.4021 -9.84017 -7.71637
2.08204 -20.2305 -10.3201
13.9399 -11.0648 -9.00248
0.00571524 14.2799 -7.16717
-7.32445 15.2272 -8.46984
10.5826 -9.59012 -7.17639
7.50925 -9.41883 -6.00177
-8.54054 16.193 -8.84969
11.6267 -9.76461 -7.34917
10.4833 -9.57478 -6.81783
14.7579 -11.3144 -8.96992
16.6508 15.7726 -10.8942
7.47744 -11.0521 -6.358
14.9827 7.40284 -7.84006
13.9045 -11.0105 -8.28979
-12.0031 17.1896 -9.60787
15.8068 -11.9773 -9.06075
9.76931 -2.44943 -4.62618
-9.12172 -1.65833 -4.21623
18.6553 18.0013 -11.6952
3.91195 -9.09621 -4.49434
-10.2538 16.7522 -8.82238
-5.35413 4.45265 -3.13213
6.85213 -11.2811 -5.94244
9.41949 -9.07864 -5.77017
15.9841 7.29157 -7.7497
-6.65595 15.1196 -7.21719
1.50038 -18.7544 -8.13759
-11.2219 17.0759 -8.79976
9.57562 -3.36816 -4.34753
7.01148 -11.0364 -5.52774
15.7915 -11.9375 -8.28697
14.6198 7.72816 -6.93517
18.6846 19.439 -11.2663
1.02073 -22.6547 -9.44103
-4.54373 13.9027 -6.02791
-9.94744 -1.11262 -4.14847
14.0598 7.76334 -6.55659
20.3631 22.1498 -12.2615
-13.0965 2.45433 -5.42826
15.0833 7.16637 -6.75266
-5.2374 14.3563 -6.14792
3.63638 -8.80383 -3.79155
13.9159 -10.9879 -6.92973
19.2283 21.5194 -11.1921
18.7651 5.78646 -7.61366
1.53856 19.2207 -7.47475
-8.76451 15.7944 -6.96569
11.3859 -10.0391 -5.83908
19.1612 22.2141 -11.2978
0.683535 15.3673 -5.88988
-1.66323 12.7774 -4.95782
2.71329 -12.2446 -4.81202
-8.78041 -1.25407 -3.37144
0.7035 -23.713 -8.95151
15.1503 -11.6104 -7.19908
9.48466 -3.46082 -3.80837
-14.6341 18.0422 -8.66027
-7.89987 -3.50931 -3.17053
1.09655 -10.4667 -3.87046
7.02227 -11.2274 -4.84311
14.1666 7.91001 -5.85677
-8.30277 -2.85066 -3.15675
0.790059 15.2739 -5.4525
-3.96578 13.4165 -4.95139
5.7326 -10.9781 -4.35872
15.7985 -11.9396 -7.01433
19.0368 5.87949 -7.00873
2.10588 20.5461 -7.24059
21.5222 26.0177 -11.7317
-14.9438 18.4479 -8.15131
2.96782 -13.3249 -4.6991
-8.92517 16.1248 -6.30056
18.4259 -13.0508 -7.73964
-5.05458 14.5265 -5.23211
1.36238 -22.3011 -7.4037
1.7573 19.5753 -6.49101
1.44827 -10.3211 -3.44452
38.9009 -19.8855 -14.339
6.16374 -10.039 -3.77105
17.5183 -12.3696 -6.86927
2.11505 20.6303 -6.59842
-13.4087 17.9023 -7.05441
1.45478 -22.8026 -7.11895
-4.31582 14.7786 -4.78633
-10.995 16.6608 -6.0521
-2.77259 -28.205 -8.60917
3.06201 -9.46315 -3.023
0.796194 -24.3757 -7.33408
19.0613 -13.5297 -6.93677
17.5614 5.5557 -5.40406
-7.91674 15.3278 -5.02448
4.22395 -10.4821 -3.28475
3.61661 -10.557 -3.17641
4.23599 -10.932 -3.29146
-13.3665 17.867 -6.20907
-9.32301 15.939 -5.0256
-13.2697 1.98917 -3.67929
-16.9968 19.5287 -7.03185
26.1875 -17.2398 -8.49642
-3.95589 -28.2018 -7.63669
3.78008 -9.13883 -2.64628
-9.83803 16.3556 -5.08251
46.9556 -13.7101 -12.9721
10.5179 -9.38096 -3.73092
-6.47241 14.9886 -4.26723
-14.4763 18.1507 -6.09435
-8.08674 -38.2563 -10.184
4.95224 -9.5602 -2.78712
6.54961 -10.4823 -3.18911
-7.23894 15.3658 -4.31988
-10.5958 16.5046 -5.01342
-10.0047 -39.6438 -10.1668
-9.14799 -39.4888 -9.89688
10.9243 -9.63013 -3.58124
-7.9982 15.5249 -4.23688
-11.7749 17.1157 -5.03096
14.5783 7.70065 -3.91268
4.04211 -9.24232 -2.38769
15.1808 7.5182 -3.99182
3.7428 -8.89937 -2.26969
-6.5839 -32.7991 -7.74574
5.61816 -9.87024 -2.63259
44.4758 -10.763 -10.6363
-12.863 17.5221 -5.00524
14.8344 7.59715 -3.7702
43.5268 -9.41593 -10.0889
-9.8308 16.3766 -4.27714
3.70895 -9.23925 -2.16629
42.696 -10.953 -9.62111
15.0923 7.48719 -3.60727
-10.6836 16.6779 -4.24418
-22.1035 -34.7487 -8.84702
4.81344 -9.736 -2.34338
44.7648 -10.4815 -9.83738
-14.8551 18.4055 -4.97786
-32.4264 -23.9336 -8.54228
41.4417 -13.8662 -9.24579
14.818 7.83007 -3.49479
-35.7468 24.1738 -8.82512
-8.46161 -34.6088 -7.21416
3.94372 -11.4828 -2.44098
44.2983 -9.55758 -9.21792
11.7575 -9.73232 -3.06122
42.7174 -10.9967 -8.7906
-27.1399 20.4805 -6.74966
6.13259 -10.2646 -2.38089
45.6424 -10.6733 -9.15563
-12.8526 17.537 -4.20325
-27.0189 21.1744 -6.67141
16.0002 12.1026 -3.83389
-6.91732 15.2288 -3.21269
-33.3361 -24.1123 -7.87474
-31.8325 -24.927 -7.76971
-35.9743 23.9717 -8.14134
-33.8411 -22.3237 -7.66101
17.9792 5.65253 -3.5174
-34.3657 -20.7353 -7.49544
-15.2556 -43.9827 -8.67169
3.7645 -9.80539 -1.97794
-25.0161 -62.2794 -12.4811
-17.0223 -45.8575 -8.9463
3.97011 -9.62287 -1.87788
13.0441 -10.1927 -2.98571
45.1313 -10.0429 -8.30553
-14.8184 18.379 -4.21962
-27.1728 21.312 -6.0977
15.0539 7.96875 -2.96628
-30.4967 -26.5757 -7.05041
42.5772 -10.9059 -7.54663
-7.97636 15.3667 -2.93425
-9.81009 18.0678 -3.47459
44.4088 -10.4538 -7.71528
-30.9635 22.5538 -6.44988
-30.46 -23.4343 -6.42326
-20.9357 20.0179 -4.81993
-32.5976 23.0212 -6.65823
15.8844 -11.8519 -3.24812
-10.3889 16.4941 -3.10232
-43.7805 25.7618 -8.05963
-31.8506 -23.9274 -6.37739
-33.7052 -23.2488 -6.44884
3.42858 -9.48257 -1.57714
-23.9219 20.4351 -4.8595
16.8712 -11.9269 -3.20085
-11.2327 16.8117 -3.0728
45.7767 -10.7283 -7.13683
-23.2663 -53.9178 -8.87269
-29.709 22.281 -5.55317
-38.7259 24.1464 -6.77429
-31.8765 -24.7438 -6.02016
44.4124 -9.51728 -6.76358
-33.993 -24.5841 -6.12961
-50.4969 28.1944 -8.31628
-35.8108 -23.8863 -6.19609
6.71582 -12.888 -2.1107
-36.483 -21.2041 -5.97193
-6.99071 15.4136 -2.35178
-13.1929 17.8097 -3.08461
-32.4306 23.3486 -5.58602
-25.059 -55.8072 -8.43514
-16.4068 -47.9625 -6.97089
36.5337 -12.1497 -5.28076
-23.3342 20.5051 -4.13373
-32.5101 -24.3464 -5.30256
-30.8596 -25.3163 -5.27722
-34.1542 -23.5221 -5.31206
7.4371 -9.41995 -1.5521
42.6299 -10.9123 -5.64693
-33.791 22.994 -5.19671
-29.9537 -15.9836 -4.32773
6.03635 -7.81747 -1.26169
44.5505 -10.4711 -5.80253
-31.3431 23.0353 -4.85407
14.4765 -11.2784 -2.2549
-30.256 22.7879 -4.58234
-32.8801 23.2431 -4.84825
-10.4236 16.5787 -2.26327
-31.7366 -22.8254 -4.59922
12.9697 -10.4898 -1.95294
35.6461 -11.779 -4.34447
6.33464 -10.3302 -1.39305
11.1781 -9.68658 -1.66671
16.4068 -12.2156 -2.30533
-11.1383 16.7016 -2.22339
6.74563 -12.5687 -1.56349
11.5844 -9.67409 -1.67162
42.4703 -10.8906 -4.81406
-39.4083 24.5714 -4.98441
44.6105 -10.4242 -4.93308
14.8863 -11.431 -1.99709
-13.0423 17.6204 -2.25212
14.74 7.80166 -1.66637
13.9787 -11.0274 -1.77883
-14.1001 18.0335 -2.22061
6.3885 -12.2428 -1.32964
9.39384 -8.91043 -1.25158
16.975 -12.4122 -2.05266
-29.0418 -13.8777 -3.03215
-15.0847 18.472 -2.22345
-37.9234 -73.8816 -7.73032
-34.2167 -21.411 -3.57404
16.1009 -12.0648 -1.81082
38.3144 -12.7485 -3.61444
11.0971 -9.86442 -1.22719
42.871 -10.9572 -3.69095
-16.4528 -42.8145 -3.68427
-41.03 -80.2288 -7.01976
17.5711 -12.804 -1.71737
-30.4609 23.0536 -2.92191
7.43876 -9.16325 -0.913709
-33.1679 23.4784 -3.01861
-16.8345 -41.6456 -3.35727
-37.6345 -70.8189 -5.70383
-36.5507 -73.2053 -5.60562
12.551 -10.4451 -1.09929
17.0286 -12.4026 -1.42438
-39.8667 24.8182 -3.0703
43.1223 -11.0403 -2.92226
-28.8365 -13.5597 -1.9083
-41.3922 -79.9681 -5.45381
14.48 -11.2885 -1.10653
30.9875 -20.4131 -2.0283
30.9643 -19.5156 -2.00111
15.3103 7.56142 -0.885771
14.7504 7.82156 -0.858219
-12.9673 17.6956 -1.11324
-25.1739 -55.5517 -3.13404
-43.4112 -81.8159 -4.52383
9.64425 -9.08299 -0.66275
13.4267 -10.6775 -0.84276
15.9231 10.1296 -0.891326
16.2143 11.3647 -0.921634
6.81461 -12.4986 -0.677159
-20.112 -5.93444 -0.900248
-30.4124 -54.1979 -2.74261
10.2059 -13.7785 -0.701059
18.0045 -12.9838 -0.907426
42.351 -10.818 -1.73974
-9.41824 -12.4568 -0.602464
43.8607 -10.2706 -1.77162
22.0164 26.4684 -1.17381
-33.0614 22.6005 -1.38769
-36.792 -20.6314 -1.37321
-18.539 -46.2033 -1.60018
16.4423 -12.2668 -0.669532
14.3617 3.89012 -0.438717
-26.483 -60.8551 -1.9909
-23.0168 20.5031 -0.8803
-12.5282 -37.9889 -1.07615
42.7653 -9.08457 -1.22276
-42.5686 26.4777 -1.35489
-55.1775 19.8409 -1.40427
43.4402 -10.0872 -0.959437
-31.3528 23.6945 -0.785082
-30.6734 9.75632 -0.672703
30.8491 54.0116 -1.1422
-30.598 22.5821 -0.72795
12.9478 -10.6091 -0.290153
-34.9429 -21.7459 -0.638023
-31.2837 -62.9151 -1.04679
17.4437 -12.58 -0.312634
-12.805 -38.7124 -0.526834
-14.3829 18.2583 -0.236617
-20.4388 -46.9728 -0.557476
30.0949 -18.8494 -0.320547
-23.0062 20.5266 -0.208763
-9.95655 -12.7789 -0.0489929
7.00432 -11.6839 -0.023618
14.5775 7.62324 0.000712345
-35.9669 -22.2094 0.225208
-24.2202 -41.3959 0.352799
-54.3673 29.7829 0.634758
6.67505 -11.8434 0.140815
7.99631 -9.09174 0.120996
-41.6053 -22.1196 0.517965
-11.6292 -32.9331 0.388916
11.0815 -9.65985 0.192714
-23.3915 19.9867 0.405678
-12.4643 -19.3388 0.334319
-31.6068 22.4911 0.691937
-35.6305 -23.8873 0.767649
-35.1401 -25.9596 0.762217
10.6163 -9.54046 0.232895
7.77798 -9.58753 0.265303
7.8847 -9.20284 0.2615
-72.5146 25.1099 1.7951
18.0439 -13.0981 0.542869
-28.9447 -8.6958 0.809138
-28.3458 22.2287 1.03868
11.5606 -9.90465 0.415229
17.2216 -7.46505 0.534483
-25.3233 21.4771 0.989662
-7.93106 -9.30043 0.389082
12.6287 13.7304 0.663729
6.12289 -12.6157 0.493467
8.89539 -8.75326 0.426485
24.434 -4.32977 0.830002
18.3873 17.5595 0.918426
13.6912 23.701 1.02978
-57.832 19.0092 2.19282
24.2435 -4.70948 0.935697
-25.7946 21.0711 1.26018
9.36286 -8.90709 0.49965
22.2851 -3.07022 0.849956
12.1323 14.0518 0.760317
14.6386 18.9147 0.979867
6.49759 -12.3194 0.571787
17.5353 40.5291 1.8444
7.63013 -10.9952 0.564235
-7.57395 -7.45561 0.469706
-8.31533 -11.5045 0.634308
-29.8405 -11.8129 1.52877
16.2927 10.5768 0.968356
-7.75088 -7.21185 0.507187
15.104 23.4655 1.44242
-6.97701 -8.21342 0.592551
14.4003 19.7191 1.33851
-26.4336 20.3546 1.84597
14.2374 23.1868 1.57604
-7.15131 -9.21855 0.666816
6.79007 -13.4558 0.865281
9.83235 12.3677 0.935507
14.5554 19.3386 1.51792
14.7924 26.3267 1.85992
10.1279 28.4031 1.91835
-7.33461 -10.0109 0.793999
9.35956 21.3296 1.56388
11.3541 9.9875 1.07813
11.3737 12.0273 1.16887
13.5789 15.6906 1.48535
8.15851 -12.5763 1.05837
10.7014 8.93298 1.02593
12.7821 14.3364 1.43755
-14.4739 8.53547 1.27135
-11.1771 2.1056 0.860871
12.3118 16.0265 1.5688
11.4455 18.2407 1.67273
10.0691 -6.89078 0.952771
-7.69948 -8.14497 0.896792
12.6575 11.4577 1.39294
11.7647 11.5094 1.36653
-7.02808 -6.18367 0.76088
-7.08132 -6.92442 0.821704
11.3759 11.8747 1.41836
10.5667 9.30823 1.28042
-11.4529 2.93267 1.08697
-7.64674 -7.12227 0.939003
11.5636 8.92259 1.39884
9.12628 12.9055 1.51811
7.10941 13.0817 1.45954
8.33153 12.9539 1.54485
-6.7648 -6.74109 0.949471
7.8476 -6.52315 0.998902
9.59377 12.0165 1.54137
9.85832 10.0703 1.45576
-6.90109 -5.41733 0.913226
9.54489 9.08895 1.40535
8.11999 11.0396 1.43678
6.68076 12.9541 1.55314
9.52385 8.3106 1.33821
9.10749 10.1438 1.48532
5.61912 12.3776 1.47171
-6.40824 -7.5471 1.07008
6.61851 11.2646 1.4377
5.17245 12.9602 1.53969
-6.84277 -3.99091 0.87504
-6.71554 -6.0949 0.999398
3.91447 -7.75787 0.962057
5.43274 -6.08657 0.916731
9.2951 7.48279 1.34138
8.99179 9.56918 1.48098
7.84407 11.1724 1.52622
6.70941 10.5886 1.42968
-6.8966 -4.5809 0.93925
4.69959 -7.66784 1.03924
-10.701 7.17372 1.496
-7.10624 -2.13805 0.863927
8.95811 6.05149 1.28638
5.81966 11.8777 1.56334
4.91539 11.3672 1.46081
4.76716 -5.85543 0.888802
4.10599 -7.87258 1.07974
8.29769 3.84331 1.1464
10.8951 5.43432 1.4966
4.49346 12.502 1.65374
-6.17329 -5.40113 1.0063
-9.17316 1.30757 1.1554
8.19769 7.49763 1.40622
-6.45318 -5.33333 1.05916
7.73079 8.11971 1.44157
-6.90338 -3.58155 1.00732
4.96144 -5.95848 1.00111
5.017 -5.42032 0.963102
8.34414 6.86512 1.43153
7.88234 7.79421 1.47505
-7.22115 -1.72821 1.00084
-7.04802 -2.21478 0.990352
-6.50146 -4.38361 1.04197
4.82368 -6.08038 1.03291
8.33137 6.31424 1.42206
-6.86669 -4.22842 1.08692
-6.06251 -4.45466 1.0121
4.94364 -5.53077 1.01871
7.39796 -3.51383 1.14001
8.31831 4.22319 1.32522
8.2805 4.55018 1.34083
-6.95642 -2.91407 1.07878
7.46489 -3.72575 1.19141
7.00585 -3.05034 1.07798
4.93446 -5.78116 1.09725
8.17292 -1.72937 1.20993
-6.97584 -3.26559 1.14276
7.34242 5.53266 1.38098
5.70495 7.36556 1.40731
7.94412 3.89267 1.35189
7.86474 4.17085 1.35363
5.38416 7.73129 1.43251
5.02611 8.58543 1.50321
3.45029 9.43758 1.51596
-7.02516 -2.83357 1.15524
7.66519 -2.78854 1.24951
7.82877 -2.23105 1.25637
7.7787 -2.01241 1.24163
7.42317 4.18105 1.37391
7.02706 4.72508 1.39161
6.70179 4.88454 1.37907
5.34198 6.40146 1.3876
-7.2251 -1.36446 1.21793
4.94638 7.26401 1.46681
4.68056 7.16371 1.43658
-7.24045 -0.80655 1.22037
2.86618 -5.93027 1.11045
6.66455 4.06681 1.33407
6.46641 5.19432 1.40868
3.79295 7.84951 1.46319
-6.39369 -2.30598 1.15358
-6.2992 -2.68793 1.16842
3.77188 -5.23963 1.09926
-6.99169 -1.80047 1.2621
4.23428 -4.64106 1.10413
6.63456 3.4936 1.35425
5.02569 5.55889 1.36968
3.63193 -5.36016 1.17918
3.32791 6.67307 1.39024
6.46909 3.0356 1.35768
6.40372 2.70396 1.32723
-1.65002 -5.71081 1.14131
-2.17236 -5.76718 1.20171
6.23177 2.3692 1.33271
3.93871 -4.58005 1.2016
