ply
format ascii 1.0 
element vertex 1862
comment /media/mkaihara/Seagate Backup Plus Drive/model_iterations/model_37.ply
property float32 x 
property float32 y 
property float32 z 
end_header 
-23.9997 20.4222 -2.89753
-22.7104 -51.6587 -5.20647
9.44488 -8.33608 -1.17806
8.42617 -8.56997 -1.06708
-24.774 20.6966 -2.87454
11.5911 -9.86185 -1.35002
15.8751 -12.0063 -1.74968
16.8644 -12.4077 -1.82321
9.87632 -9.09766 -1.15504
-33.3451 -64.3605 -6.232
13.4968 -10.8599 -1.47641
-34.6239 -21.6839 -3.45983
11.5824 -9.93234 -1.28403
46.5041 -10.1123 -3.94783
39.862 -13.0521 -3.3617
-29.7243 -14.2483 -2.63684
18.3111 -13.151 -1.71517
17.0894 -12.5328 -1.49141
-16.5499 -44.2578 -3.2227
-14.6152 -37.766 -2.71927
42.0735 -11.0087 -2.94842
43.7201 -9.91993 -2.94977
11.8099 -10.0393 -1.00376
13.2615 -10.7672 -1.09935
13.629 -10.804 -1.09854
-16.4036 -40.8868 -2.72221
-33.7119 23.2032 -2.41201
16.866 -12.4784 -1.23235
15.8235 -11.9505 -1.14291
17.5026 -12.7975 -1.24912
-36.4399 22.8703 -2.34611
-9.48269 -12.4306 -0.832977
-15.4413 -39.1918 -2.27903
-13.7702 -39.0234 -2.21923
-28.0671 -16.4404 -1.70077
-16.7808 -41.1327 -2.33181
-14.3897 -39.8516 -2.22188
-27.5544 -13.4536 -1.58745
-28.5439 -14.5018 -1.66914
38.6949 -8.25958 -2.03917
-39.3553 -75.0251 -4.16995
18.1255 -13.0501 -1.08482
-27.3324 -13.716 -1.45686
-16.0152 -39.711 -1.97473
-26.1019 -16.2057 -1.32409
-36.5542 22.9611 -1.55687
44.9267 -9.69632 -1.57239
-30.4544 -13.9795 -1.0254
-26.1837 -56.2267 -1.90979
-12.5294 -36.3935 -1.18682
-31.7438 -23.9327 -1.19174
-25.9163 21.15 -0.904735
36.6308 -8.70349 -1.02012
-34.783 -21.6118 -1.00215
-34.4416 -21.7835 -0.990652
-32.7984 -65.2131 -1.67211
-18.3401 -41.9023 -0.967843
-34.725 -21.7818 -0.775944
17.0798 -12.5024 -0.40701
-34.2311 -21.6465 -0.555081
17.2061 -12.5982 -0.245293
13.3103 15.1424 -0.210569
-33.3974 -22.2753 -0.389751
11.2091 -9.68353 -0.133154
-35.5392 -20.6411 -0.342848
-28.473 -8.56817 -0.124101
-29.0999 -9.33434 -0.083912
11.5809 -10.0167 -0.00310638
-12.8084 -19.7166 0.0345568
43.001 -9.53847 0.134936
9.14266 -8.9383 0.104594
15.2187 -11.6262 0.153739
11.4074 -9.8595 0.140522
13.396 -10.7666 0.180531
18.3529 -13.169 0.219509
-27.3896 -13.2699 0.3354
-32.9044 -21.8622 0.453929
-34.337 -18.435 0.443017
-35.2055 -21.6806 0.514537
-13.4647 -20.4403 0.281746
-12.6728 -19.8865 0.31294
-13.1549 -19.7055 0.339685
15.1523 -11.6213 0.281817
-29.8361 -12.9099 0.572645
-35.9962 -19.3876 0.79024
-13.9234 -21.8471 0.515912
-29.9959 -13.1576 0.692086
-35.3711 -19.6935 0.824879
18.3946 -13.2036 0.473441
10.5664 -9.29188 0.300637
10.4723 -9.29789 0.347872
-8.1827 -9.70794 0.3585
10.594 -9.33043 0.419219
13.6313 -10.8877 0.540028
10.4359 -9.51379 0.464405
13.3373 -10.7492 0.565486
-9.19891 -12.9837 0.591874
10.5793 -9.53098 0.531085
13.3304 -10.6818 0.673873
-29.9049 -16.6841 1.38467
-31.7313 -18.3508 1.4908
9.59829 -9.16836 0.560941
-28.7239 -17.1502 1.46538
23.5982 46.7838 2.32368
9.6644 -8.99951 0.586098
10.5439 -9.44004 0.671662
12.3815 -10.3391 0.754447
-6.0916 6.55745 0.441955
-6.85722 -8.14203 0.533222
-7.10995 -9.22549 0.5736
-28.013 -11.0504 1.57808
-6.81431 -8.44142 0.560199
12.0394 11.883 0.89894
16.9124 25.2538 1.61408
16.3194 24.7115 1.55641
8.93063 -8.67799 0.668734
8.71093 -8.61895 0.674628
15.1505 25.993 1.67225
-28.3502 -8.50229 1.6503
-7.50813 -8.00125 0.616834
10.4567 -9.43625 0.809734
-6.74581 -8.18626 0.635508
-6.70513 -8.42342 0.647382
-7.5429 -7.93678 0.679228
-6.88181 -8.20858 0.670557
9.60952 -8.93537 0.821901
10.5365 -9.42629 0.887253
10.6187 12.4142 1.06303
-7.31006 -9.47017 0.789039
12.7606 19.3734 1.566
13.3311 21.28 1.69023
9.49002 23.6038 1.7711
-7.07778 -8.27901 0.755795
-7.08394 -7.59964 0.738337
9.57133 -8.90494 0.928038
11.488 12.0774 1.23479
11.9927 17.0485 1.5683
12.7155 11.6326 1.32492
12.9927 11.5726 1.35577
12.3925 11.6855 1.32646
12.1696 11.8173 1.34339
-7.19277 -9.34627 0.934782
11.7336 12.0754 1.35596
-7.34792 -6.12235 0.755932
-7.03861 -8.07535 0.86226
-6.74063 -8.28089 0.859967
-7.25459 -6.2332 0.761902
9.29501 -7.61693 0.996045
-7.33889 -8.08021 0.908863
-7.36134 -9.8539 1.02783
-7.26552 -7.85073 0.899538
9.2298 -6.99265 0.980595
11.7767 12.0508 1.43292
-6.34787 -4.32707 0.657562
-7.05514 -8.33356 0.940894
-6.81287 -8.38472 0.959701
9.02725 -6.885 1.01287
8.24309 -7.15785 0.981718
5.94487 -5.91952 0.774704
10.9348 11.2171 1.50092
-7.01256 -5.71715 0.863638
10.8694 9.39187 1.39642
-7.14538 -5.7014 0.891368
7.76195 -6.59123 1.00216
11.1712 9.92263 1.47745
11.0172 9.17084 1.44013
9.70081 11.6712 1.52014
-6.48948 -6.48464 0.919507
-6.85657 -4.505 0.830557
-6.95514 -7.29326 1.02097
10.8751 9.17015 1.47196
10.2259 9.5467 1.43447
9.39444 10.2204 1.45077
-6.84141 -4.44567 0.859359
-7.12047 -5.65912 0.972402
-7.09189 -5.69883 0.971246
-6.90123 -4.618 0.906194
-7.04366 -5.4896 0.97054
8.78584 10.3885 1.5119
-6.88044 -3.42193 0.860835
-6.95254 -4.33761 0.913591
-6.82725 -3.48192 0.860449
-6.87005 -3.56596 0.867468
-6.87592 -4.22241 0.90736
-6.89671 -4.39268 0.922605
-6.89655 -4.4781 0.925302
8.82769 8.89629 1.41963
-6.93447 -3.84355 0.908996
-6.89908 -4.0604 0.906807
-6.89851 -4.14386 0.914494
5.86015 -5.78683 0.951877
-6.91153 -3.40758 0.897503
-6.92207 -4.36095 0.948992
-6.8918 -4.43238 0.950627
-6.8859 -2.82259 0.872175
-6.86768 -3.60788 0.90782
-6.95165 -4.12407 0.950732
-6.89843 -4.1928 0.945478
8.58997 8.12481 1.40318
-6.90155 -2.97516 0.906191
-6.87985 -3.95999 0.952919
-6.86324 -3.64681 0.943202
-6.90641 -4.11606 0.984184
-6.89217 -4.29923 0.995441
-6.45458 -5.34662 1.02433
6.01722 -5.96619 1.03547
-6.89136 -3.74265 0.971819
-6.88959 -3.90689 0.983355
-6.994 -4.7282 1.05282
-6.91842 -4.37699 1.03278
-6.85182 -3.47 0.972576
-7.06099 -2.16456 0.94329
-6.86879 -3.07491 0.964946
-6.88738 -3.15228 0.974098
-6.13203 -5.47475 1.07086
-6.90837 -3.22248 0.996334
-6.36694 -4.35361 1.01575
-6.78127 -3.77509 1.0281
-6.86746 -4.17421 1.06593
-7.03234 -2.12948 0.980998
-6.98315 -2.32976 0.989961
-6.89093 -3.25844 1.01777
-6.89019 -3.53066 1.03599
-6.8978 -3.38516 1.04909
-7.01386 -2.15558 1.01912
-6.91394 -3.17168 1.05272
-6.88408 -3.2552 1.05231
-6.83209 -3.64083 1.06813
-6.88758 -2.93817 1.04616
-6.85332 -3.40218 1.06743
-6.86846 -3.74518 1.10006
-6.91732 -3.22797 1.07902
-5.99232 -4.48226 1.06437
-6.87231 -3.57569 1.11217
7.74616 6.38911 1.45164
5.25769 8.43116 1.43775
-6.87599 -3.48414 1.11556
7.31562 -3.53005 1.17916
-6.86805 -3.2711 1.10947
-6.86455 -3.38256 1.11555
-6.8484 -3.19251 1.11114
-7.14583 -1.74859 1.08373
-6.89938 -2.93463 1.11299
-6.90481 -3.02179 1.11747
7.1742 5.64806 1.414
-6.36291 -2.27995 1.04802
7.10383 5.20352 1.40559
-6.99583 -2.40447 1.18951
-6.44864 -2.8142 1.14714
3.83507 8.03756 1.4688
-6.29684 -2.25671 1.10987
-6.46467 -2.28462 1.16741
-6.13609 -2.27545 1.13934
2.59478 7.50259 1.50676
7.85877 -8.55099 -10.2078
7.98609 -8.83409 -10.4221
7.71706 -8.77791 -10.1696
8.21987 -8.35193 -10.0377
6.96177 -11.4972 -11.0124
8.17138 -8.29874 -9.55574
6.96657 -11.9152 -11.2059
8.04878 -8.43633 -9.26646
7.99467 -9.19319 -9.48507
8.26587 -8.7268 -9.34608
7.88166 -9.01194 -9.13095
8.32723 -8.73715 -9.15828
6.33563 -14.0024 -11.471
7.5133 -9.45065 -9.02305
7.9498 -9.10817 -8.95033
6.23318 -14.3685 -11.5354
6.27839 -12.8951 -10.5393
9.2663 -8.86769 -9.39156
9.25021 -9.02335 -9.40464
5.97517 -12.7531 -10.219
5.91199 -13.125 -10.3071
9.39882 -9.02483 -9.32291
9.25343 -9.06589 -9.20148
6.93842 -11.233 -9.3658
5.62304 -12.9779 -10.0085
6.52773 -11.0287 -8.81449
8.48514 -8.8713 -8.38427
11.8211 -10.0305 -10.4069
8.27543 -8.6604 -7.92764
7.4615 -9.3077 -7.86727
8.28338 -8.82111 -7.98233
9.20131 -8.82323 -8.39318
7.63637 -9.36278 -7.89149
12.1716 -10.1651 -10.3204
4.67453 -15.8178 -10.6643
9.22035 -8.85942 -8.22262
5.02551 -15.3959 -10.4399
7.78998 -9.34078 -7.78502
8.28583 -8.50779 -7.59357
0.346942 15.6732 -9.99926
4.7493 -15.16 -10.114
10.9472 -9.62716 -9.27043
7.94961 -9.11529 -7.66546
8.19745 -8.53187 -7.46669
4.73304 -15.8025 -10.3629
-0.396816 13.5781 -8.49418
8.87534 -8.84066 -7.73608
4.22981 -18.6839 -11.8304
7.9521 -9.09402 -7.45827
8.30481 -8.60889 -7.38626
4.27089 -15.4338 -9.80773
8.2563 -8.67945 -7.32446
4.25702 -18.1796 -11.3873
0.149973 15.047 -9.16629
3.76686 -17.8829 -11.0603
4.18537 -15.7901 -9.87712
7.07904 -10.8681 -7.78402
8.08972 -9.25249 -7.38238
4.20504 -16.5988 -10.2047
8.33029 -8.70756 -7.17914
9.45759 -9.04609 -7.79925
10.7373 -9.2573 -8.47647
7.04957 -11.116 -7.82805
7.76628 -9.30825 -7.19524
9.10624 -8.85812 -7.52791
8.03582 -9.20735 -7.15141
8.62108 -8.81557 -7.19726
9.75079 -9.20425 -7.81545
6.80614 -13.3967 -8.67393
9.29193 -9.02173 -7.47955
5.82565 -13.4371 -8.45174
6.91658 -10.9161 -7.44797
9.60925 -9.15545 -7.55781
12.0181 -10.3072 -8.93851
10.8483 -9.53419 -8.12466
6.91311 -11.1521 -7.36491
9.18756 -9.13204 -7.2641
9.3037 -9.06974 -7.26493
12.6957 -10.5974 -9.23684
4.6701 -14.4155 -8.46989
10.2578 -9.4393 -7.79228
8.56809 -8.74731 -6.81565
2.74377 -17.296 -9.66103
8.13009 -9.37324 -6.89602
14.8827 7.61212 -9.14182
2.70491 -19.815 -10.8782
2.43036 -8.80683 -4.95487
2.97458 -19.8631 -10.8527
14.8533 7.73666 -8.99602
2.36059 -20.1417 -10.7702
11.0239 -9.66788 -7.79998
9.83403 -9.08201 -7.08911
15.0457 7.55037 -8.91125
2.36569 -8.82457 -4.82852
1.65273 -19.73 -10.2273
2.38202 -20.7796 -10.7286
14.0456 -11.2224 -9.21246
-9.25703 -2.59441 -4.89376
11.4088 -9.87965 -7.66493
2.16971 -20.2176 -10.2479
10.1841 -9.29754 -6.96735
0.848645 17.5273 -8.72829
11.0625 -9.70529 -7.3364
-8.83251 -1.94291 -4.43601
2.2069 -20.146 -9.95152
3.86416 -9.21698 -4.90879
11.3264 -9.7188 -7.30649
1.99382 -19.8454 -9.74939
-8.28605 15.8956 -8.68984
2.50657 -11.2106 -5.4964
1.99318 -21.0592 -10.0731
0.630338 17.1362 -8.12319
15.0138 7.67499 -7.96333
17.5598 16.4479 -11.3831
17.9324 17.1835 -11.5432
14.4587 -11.4333 -8.54721
9.84301 -2.62018 -4.72235
17.4947 16.4674 -11.1055
9.79006 -2.47797 -4.67283
-10.1211 16.6143 -8.8657
-9.52801 -2.06446 -4.42137
9.89259 -2.61757 -4.64568
10.2264 -2.40819 -4.75971
9.7985 -2.98911 -4.63745
-5.36543 4.42252 -3.13396
8.12037 -8.35753 -5.25421
18.0822 17.6204 -11.3401
17.9488 17.7918 -11.3648
19.3735 5.89357 -9.08637
7.17468 -10.9502 -5.83207
20.521 5.38806 -9.42918
9.59716 -3.43443 -4.53273
-9.79516 16.096 -8.36553
-5.3139 4.86904 -3.19191
19.477 5.62687 -8.96378
-11.1532 17.0006 -8.94548
18.2295 18.0832 -11.2624
-6.46511 14.8153 -7.09421
9.62495 -3.61323 -4.48095
20.2561 5.48948 -9.10125
18.3826 18.6522 -11.2946
18.173 18.8051 -11.2753
14.9811 7.66713 -7.17556
3.87169 -9.37773 -4.30041
-11.1002 16.8826 -8.53561
-13.376 3.27616 -5.80486
1.26652 -21.4453 -9.00204
3.25895 -10.2122 -4.48469
14.293 7.69947 -6.79044
18.9785 19.8137 -11.4815
3.87819 -9.2052 -4.15979
14.9263 7.78295 -6.98524
18.6501 19.883 -11.3245
14.1274 7.8039 -6.6398
4.00618 -8.48279 -3.84598
6.80738 -10.9055 -5.26546
-13.3127 2.50408 -5.54415
15.0869 7.5617 -6.88098
-7.9203 15.3197 -7.00956
1.1903 -10.5963 -4.33121
0.758125 -21.6665 -8.78056
-12.8786 2.33263 -5.2658
-9.27991 -1.43279 -3.749
-5.03991 5.59205 -2.98385
2.83705 -11.7625 -4.77272
14.3099 -11.2898 -7.12538
4.11741 -9.49226 -4.05533
1.52621 19.2548 -7.50834
3.96168 -13.2169 -5.33378
19.1609 5.85775 -7.72374
0.876611 -25.9157 -9.90259
4.76178 -8.69703 -3.76356
11.7937 -10.2105 -5.92748
19.5252 5.62245 -7.70363
20.5179 24.3271 -11.8891
20.1255 5.466 -7.78283
20.8095 24.2571 -11.9136
3.27932 -10.8977 -4.24561
-12.8795 17.3441 -7.96916
11.9646 -10.1536 -5.76958
20.524 5.23959 -7.76702
21.4387 25.6321 -12.1434
-8.15149 -2.81071 -3.12384
19.4456 5.76907 -7.30427
2.2872 -13.2584 -4.84066
0.809346 15.8348 -5.6849
-4.23761 13.8039 -5.1471
-8.20509 -2.79387 -3.09269
6.77233 -10.575 -4.45815
-15.7536 18.202 -8.50833
16.0963 -12.1546 -7.1453
-10.9426 16.4949 -6.9181
19.4902 5.94233 -7.07721
3.72844 -8.69512 -3.26297
-8.68645 15.794 -6.13158
3.00692 -13.562 -4.73739
19.1294 -13.684 -8.04583
34.7015 -21.4992 -13.8732
-14.7146 18.0251 -7.85235
20.2422 5.50007 -7.03401
37.6609 -21.2668 -14.4423
41.4098 -20.3793 -15.3805
16.5817 7.43791 -6.05586
3.46508 -10.309 -3.62594
1.34936 -10.9234 -3.63832
-6.18285 14.7461 -5.21329
-12.5131 17.1615 -6.91126
15.9056 -12.2237 -6.52579
6.06935 -9.88802 -3.72894
3.35238 -10.1699 -3.4336
-1.11541 -23.4261 -7.4924
2.32776 -11.039 -3.59391
3.24645 -10.103 -3.36251
2.83281 -9.0591 -2.99322
13.7264 -10.8538 -5.49978
-17.6653 19.0948 -8.14385
-8.67784 -2.64316 -2.84126
29.0626 -15.9419 -10.3984
1.36154 -21.3181 -6.59685
20.1303 26.0648 -9.9302
3.2376 -9.90878 -3.14258
3.45571 -8.99034 -2.89895
-14.1392 17.6831 -6.77185
-21.022 19.6043 -8.5125
-7.83202 15.2281 -5.03674
4.80136 -12.0595 -3.80197
4.16611 -8.95577 -2.90362
2.08918 20.7075 -6.11402
-4.28046 14.3874 -4.39572
4.0712 -8.98843 -2.88493
-15.0394 18.0936 -6.78353
-31.3381 -44.7844 -15.6384
7.17849 -11.1774 -3.78943
2.54978 -9.49197 -2.78644
-8.38022 -2.19514 -2.4423
4.46399 -11.0794 -3.36725
-2.41057 -24.3314 -6.85361
-9.12826 15.7395 -5.00956
4.38398 -11.3112 -3.3442
8.61614 -8.40414 -3.3071
-12.8744 17.153 -5.86923
46.4198 -15.3902 -13.3301
-8.69676 -2.43258 -2.44529
-23.9995 20.1431 -8.47419
3.25967 -10.0182 -2.84686
3.41325 -10.0259 -2.86031
-4.13982 -29.7753 -8.07382
-26.3457 20.2055 -8.84963
43.3886 -14.315 -12.0741
46.7987 -13.5471 -12.8893
-8.27704 -37.2638 -10.06
-8.01914 -37.8237 -10.1949
-14.2092 17.8059 -5.9106
9.89 -8.99396 -3.49374
11.3817 -10.1062 -3.95374
-10.4643 16.3272 -5.01561
-4.16858 -27.3347 -7.18608
3.27395 -9.89675 -2.6946
3.53474 -10.3419 -2.82808
-25.7711 20.4304 -8.43457
4.29721 -11.1042 -3.01218
4.42196 -9.72124 -2.69361
9.51875 -9.20525 -3.33787
6.94918 -11.4177 -3.35428
-26.7249 20.621 -8.43321
44.7097 -13.0143 -11.6182
-11.3289 16.6908 -5.00512
11.8785 -10.2288 -3.87428
3.38038 -10.2812 -2.66278
-24.0971 20.2419 -7.69807
10.0184 -9.04758 -3.24753
-7.71571 15.0509 -4.05867
4.0814 -12.0576 -3.06667
15.1921 7.63055 -4.06921
3.40115 -11.1771 -2.8006
3.17729 -9.90828 -2.47973
4.83461 -12.6017 -3.24899
-6.52461 -37.3303 -9.0219
-10.796 -41.4784 -10.1649
3.98055 -9.11898 -2.35333
-28.3607 21.1948 -8.36374
15.0015 7.67819 -3.94778
-9.27416 16.0195 -4.34595
3.95428 -11.4003 -2.83989
-12.6176 17.2022 -4.98456
-25.962 20.6007 -7.69616
3.49028 -10.3379 -2.5019
11.0986 -9.52819 -3.37533
15.7727 -11.8904 -4.52442
-36.5791 25.8815 -10.2464
-12.0674 -42.014 -9.96617
10.966 -9.58827 -3.33213
-11.3663 -40.8556 -9.62384
-5.98473 -30.3556 -7.04314
41.3616 -12.7872 -9.80963
-26.5639 20.5215 -7.57339
14.8086 -11.4919 -4.21452
-30.1802 21.9229 -8.37007
4.45079 -5.80681 -1.64241
5.31251 -9.2091 -2.3787
-26.5866 -68.5905 -16.2699
-9.47892 15.8677 -4.06996
-12.5698 -43.1723 -9.8959
4.12273 -9.81477 -2.34255
13.5438 -10.9254 -3.83621
4.02368 -9.21327 -2.21074
41.7471 -12.3458 -9.53325
-23.0896 20.1268 -6.67921
3.40482 -10.1304 -2.29312
4.41676 -9.94198 -2.3537
15.0763 7.57851 -3.62576
-28.394 21.2459 -7.62287
-20.8 -32.978 -8.37797
-8.11055 -34.3571 -7.55241
-23.9938 20.2368 -6.68781
-30.4416 22.1108 -8.00676
3.26396 -9.97801 -2.24012
4.88789 -8.88908 -2.15111
14.8873 7.77383 -3.55542
4.25536 -10.5515 -2.42078
42.4376 -11.0594 -9.29286
-10.3561 16.2221 -4.05934
4.35262 -9.17834 -2.13052
3.15602 -9.13537 -2.0027
5.17546 -9.07952 -2.18944
14.8899 7.49254 -3.47369
-37.2235 24.5118 -9.27706
-26.7787 -24.8299 -7.54937
3.03019 -9.48056 -2.06888
-28.1539 -29.6885 -8.43103
-19.4452 -30.3632 -7.42552
-32.6828 -83.6023 -18.5255
3.86777 -9.36277 -2.09009
3.74779 -8.76026 -1.9555
-15.3525 18.1544 -4.86577
-23.4963 -62.2825 -13.6669
4.00001 -8.8073 -1.97791
-34.7309 23.259 -8.4985
-13.8802 3.03655 -2.90309
-32.9344 -23.276 -8.22487
-25.7945 -71.2542 -15.4294
-10.9692 -35.3276 -7.52465
44.6703 -9.75584 -9.28708
15.0479 7.68779 -3.38677
-17.5167 -23.2048 -5.84312
12.4188 -10.1486 -3.22496
-18.0374 -51.6023 -10.9127
4.20365 -10.8144 -2.31376
-11.8241 16.9548 -4.10533
-25.6763 20.2034 -6.47593
-34.8376 -20.6233 -8.04915
-31.6159 -24.6912 -7.95098
-8.89816 -34.4965 -7.09599
14.6414 -11.5434 -3.69365
4.04702 -9.86602 -2.10188
3.23892 -9.8997 -2.04171
-34.8174 23.0059 -8.10964
-22.1628 -53.3665 -11.1714
-15.3483 -44.3195 -8.94696
3.50115 -8.93872 -1.83831
-19.7912 -32.0538 -7.15328
-31.422 -24.5228 -7.51633
-28.5253 -25.3297 -7.18176
-21.0092 -51.918 -10.5981
3.90328 -9.13229 -1.89121
-16.0552 -43.7914 -8.73098
-24.8079 -56.3717 -11.33
3.45446 -9.25435 -1.82363
-31.8934 -23.8048 -7.24558
-30.6892 -26.3135 -7.36838
-32.2574 22.7103 -7.11117
-19.4186 -48.0457 -9.24827
-30.6971 -24.7282 -6.93367
-23.0563 -59.7 -11.2762
-33.4977 22.2922 -7.04535
-15.9024 -44.8456 -8.34507
3.41765 -9.60636 -1.78192
14.2013 7.88173 -2.81747
-34.2136 23.4448 -7.19356
-28.3787 -24.8728 -6.56376
3.48965 -9.55711 -1.76417
4.81506 -8.68765 -1.72119
-26.3299 20.6718 -5.78465
-30.0784 21.8767 -6.41481
-30.4347 -28.0327 -7.14035
3.90742 -10.0549 -1.86104
14.0482 7.57326 -2.74309
-22.6045 -51.9398 -9.63524
-20.2599 19.2765 -4.71852
-30.9439 -24.595 -6.7034
-18.9605 -47.0098 -8.59689
5.64253 -11.8224 -2.21152
43.0369 -12.155 -7.5807
-17.5 -46.708 -8.39934
42.1174 -10.9584 -7.31997
5.02779 -10.7888 -1.98117
6.73227 -11.1864 -2.20533
-10.1499 16.1369 -3.09221
-29.8176 -23.0816 -6.14542
43.4382 -11.6655 -7.31866
-21.6983 19.7108 -4.75463
-19.5804 -48.4427 -8.29978
-22.4728 19.7592 -4.71978
-23.6552 20.1657 -4.8361
-32.1835 22.6708 -6.09085
3.83414 -10.1559 -1.66793
-31.5226 -24.3734 -6.0912
-13.2849 -40.0804 -6.48775
-30.4116 22.1322 -5.71784
-21.7441 -52.3334 -8.632
-7.47582 15.1374 -2.5446
-32.7575 -23.0205 -6.03276
-32.0401 -23.5552 -6.02618
-27.2934 -25.6084 -5.63291
-32.6143 -23.4735 -6.02757
-30.8085 -24.6616 -5.89981
-34.1738 -22.8255 -6.10097
-24.3377 20.4305 -4.68438
-32.5258 -24.34 -5.98741
-31.5317 -23.8781 -5.84142
-24.9874 20.5906 -4.73674
-12.0412 -39.905 -6.11149
-12.3495 16.893 -3.01411
-7.49237 14.9891 -2.38874
3.52165 -9.59549 -1.45419
39.1566 -12.8781 -5.86203
-32.8536 -24.2009 -5.77289
-30.0837 -23.9094 -5.4087
-26.1213 -55.2067 -8.67107
-29.5553 -24.9278 -5.44509
-19.6989 -47.4657 -7.16292
-6.66717 14.7722 -2.19928
-13.7067 17.5123 -3.01644
-11.2585 -39.4123 -5.58294
-7.24127 14.6756 -2.1967
-22.9271 -59.6847 -8.65235
-21.9289 19.9426 -3.94759
-23.5364 -53.3481 -7.74929
-30.7908 -23.7688 -5.13496
46.3372 -10.6777 -6.25264
45.6701 -10.0399 -6.15931
-12.9087 -40.1174 -5.54015
6.67178 -10.9956 -1.69126
-14.6966 18.0012 -3.02417
-22.335 19.6719 -3.85836
-32.0544 -23.9299 -5.15034
10.8098 8.86626 -1.80566
-32.8561 22.5916 -5.11984
-29.0252 22.0869 -4.59799
-30.4198 -23.8163 -4.87444
-12.3664 -35.1852 -4.71691
-31.6294 -64.4812 -8.99532
9.7103 -9.08803 -1.65949
12.8673 -10.5159 -2.09186
-32.9615 23.1231 -5.035
-35.4366 -22.0769 -5.20042
-30.0736 -24.8572 -4.84862
6.80833 -10.3544 -1.54639
-32.3692 -22.8795 -4.91249
-13.0515 -40.7194 -5.26094
13.2666 -11.0596 -2.11994
42.6252 -11.0785 -5.43736
-15.8472 18.2438 -2.95369
-15.427 -37.3936 -4.94587
-8.55289 15.2901 -2.13329
44.5732 -10.2679 -5.53788
15.1254 7.89593 -2.05001
9.45166 -8.96831 -1.55532
-33.1467 -23.1267 -4.79317
-17.4835 19.0021 -3.02146
-20.5236 9.08234 -2.65983
-31.1832 -24.1415 -4.65163
-24.4412 -55.3761 -7.1132
11.3432 -9.75782 -1.75171
42.9923 -11.5093 -5.23978
14.8077 -11.4976 -2.15455
15.0498 7.73596 -1.92453
-29.2337 22.2323 -4.19019
7.30413 -11.0916 -1.50687
-10.0308 16.0152 -2.1161
9.4872 -9.35312 -1.48291
12.8462 -10.551 -1.85345
14.0601 -11.0975 -1.99221
9.48941 -9.15132 -1.46307
7.08818 -10.4967 -1.38729
45.5817 -9.95525 -5.07774
-10.6739 16.034 -2.07692
-32.3832 22.8351 -4.30385
11.773 -9.89133 -1.66021
6.22401 -12.7988 -1.49675
7.59687 -11.6285 -1.44525
9.88446 -8.93866 -1.40201
-14.7153 -42.5228 -4.71884
16.6882 -12.3584 -2.17761
-29.0158 -58.2943 -6.75567
14.9908 7.54866 -1.71604
-30.4977 -24.3054 -4.00642
13.9123 -11.0077 -1.81792
-31.2424 -24.1668 -3.99701
14.9802 7.82692 -1.69876
-12.4113 16.5981 -2.03667
-19.4329 -49.2711 -5.13353
-30.94 -62.5023 -6.67804
-22.916 20.0464 -2.87702
-30.3523 -24.8648 -3.73032
-30.3251 -25.1895 -3.75784
-20.5504 -53.7748 -5.42936
-13.7838 17.6381 -2.0955
-30.6267 -23.9608 -3.62962
-15.084 -41.0857 -4.07817
-13.3171 -41.392 -4.05699
9.8559 -9.13529 -1.24868
-31.5296 -61.4181 -6.36158
8.58854 -8.68611 -1.10908
16.6199 -12.3834 -1.89593
-14.6653 17.9901 -2.08246
-35.1454 -21.8596 -3.74607
-32.3327 22.8285 -3.48683
-30.4162 -24.5387 -3.45416
14.1273 -11.2362 -1.60222
-31.5921 -19.2516 -3.15715
11.0971 -9.73862 -1.25709
-26.0715 21.1482 -2.82033
-10.9636 -34.1234 -3.02971
9.43056 -9.04241 -1.09692
-33.0339 22.7123 -3.33169
8.71271 -8.71435 -1.01215
16.8857 -12.3149 -1.707
-16.0496 -41.7048 -3.59213
-20.5407 -46.9879 -4.01488
-14.7841 -36.4979 -3.12194
-12.8491 -36.052 -3.04151
9.23202 -8.97177 -1.0114
11.3347 -9.82583 -1.17594
14.9577 -11.6996 -1.50324
-29.2399 22.298 -2.86228
-28.8403 -13.462 -2.47313
11.9135 -10.093 -1.21016
-22.1593 -49.3513 -4.14423
12.843 -10.6602 -1.26437
-38.4655 -72.9763 -5.97099
9.98461 -9.16377 -0.982142
10.9525 -9.77641 -1.02317
-32.6388 -20.2619 -2.65814
12.0086 -10.0927 -1.08603
14.803 -11.6553 -1.30928
-14.9933 -37.8857 -2.77339
-14.5887 -38.5938 -2.82891
18.7238 -13.5316 -1.53335
-22.8164 19.9772 -2.01337
-23.6372 -54.5272 -3.93055
12.9396 -10.6444 -1.11998
-14.1004 -39.1192 -2.7029
15.3727 -11.6072 -1.25151
-30.6812 -62.1194 -4.3515
-14.3017 -44.3297 -2.89497
-32.0628 22.6505 -2.40345
-31.1429 -61.5865 -4.20101
-16.3875 -39.9185 -2.63152
31.4106 -20.8253 -2.29346
42.7455 -11.1471 -2.68129
37.02 -8.92554 -2.30683
-14.5917 -39.1758 -2.52623
-26.3818 21.4114 -1.92712
-28.5711 -14.0662 -1.84075
-15.2671 -39.7733 -2.3766
17.0211 -12.7007 -1.18946
-26.7682 -16.1081 -1.6822
43.3512 -9.65664 -2.28358
-9.33018 -12.4666 -0.790663
-14.8659 -39.5629 -2.10536
5.75346 -12.557 -0.686055
-13.8999 17.6211 -1.0949
-14.4111 -45.2962 -2.33471
14.9993 7.86908 -0.816511
-15.7527 -40.378 -2.06007
-13.8795 -45.1405 -2.22855
18.8766 -13.3932 -1.10895
-16.424 -47.6312 -2.35037
37.3244 -9.1672 -1.80046
-28.4722 -14.5591 -1.43131
-23.252 -53.2792 -2.578
-15.9797 -39.3173 -1.88937
9.69407 -9.14785 -0.594162
12.6682 -10.3978 -0.735406
45.0594 -10.3104 -2.05504
-13.4963 -41.0536 -1.83947
-31.9919 22.6158 -1.63248
-51.9493 28.2138 -2.35932
-33.0089 22.7165 -1.47118
-18.048 -47.1972 -1.89641
-33.9798 -21.3976 -1.43571
9.78117 -9.10278 -0.49115
6.63789 -10.8847 -0.442251
-12.6044 -37.5752 -1.31177
7.51622 -13.193 -0.518358
18.7678 -13.2928 -0.776448
-25.402 -55.6349 -2.01346
-12.9163 -36.6439 -1.25875
21.5365 24.8391 -1.0568
-22.6393 20.0989 -0.954187
-22.6683 -56.7918 -1.95647
-19.9188 -51.0044 -1.69762
21.2344 -14.4806 -0.780885
-27.2598 -14.0281 -0.929668
-12.4981 -39.9985 -1.24564
-23.5868 20.042 -0.889774
-22.6425 -52.1094 -1.61569
-16.822 -45.5283 -1.39973
22.7525 -10.2392 -0.752729
-33.8543 -20.6274 -1.09679
-9.71875 -12.7509 -0.458031
-21.889 -51.6204 -1.58216
18.1783 -13.5425 -0.576655
31.7669 53.0134 -1.60354
-29.3887 22.4234 -0.95129
-30.5226 22.3251 -0.936173
-26.8918 -12.9212 -0.731496
9.59871 -9.03282 -0.318908
-20.3675 -32.8059 -0.900177
-39.4203 13.6741 -0.91327
21.4354 -14.3427 -0.547162
-51.8441 18.6986 -1.01852
18.5932 -13.4048 -0.429665
12.8821 -10.5831 -0.277542
-7.03691 15.2324 -0.294086
-32.5947 10.3081 -0.565938
-27.9247 -13.2975 -0.489993
-36.3945 -20.7261 -0.636507
-17.4595 -42.8008 -0.714491
-7.6632 16.1163 -0.242842
-31.9497 -23.8673 -0.553051
-33.286 -22.6912 -0.515739
-32.9111 -66.4987 -0.918245
17.4334 -13.007 -0.263528
18.3771 -13.2315 -0.286767
29.3467 -18.0961 -0.459413
-20.3974 -52.242 -0.679365
-29.5641 22.5402 -0.39758
-36.8962 -20.6249 -0.467016
-26.4757 -56.4943 -0.66324
-17.9945 -41.2727 -0.481276
-51.6429 28.3022 -0.491519
-32.2261 -56.8483 -0.601155
-19.1474 -50.2172 -0.509502
38.0528 -9.19326 -0.359291
-14.0045 17.7756 -0.159716
-33.0456 -73.5895 -0.550446
-17.2918 -41.941 -0.308113
9.60699 -9.03994 -0.0409591
13.1584 15.0596 -0.0415991
14.8975 7.84252 -0.0289458
-29.0241 -12.9476 -0.0578419
-11.5628 -16.835 0.024916
-12.723 -19.1501 0.0438819
-18.0531 -41.4407 0.187551
9.47162 -9.01778 0.0597181
-32.0295 22.6675 0.202648
-20.7681 -52.4301 0.274467
-29.7963 -13.8289 0.196936
16.9506 -12.3679 0.117609
-12.961 -19.8726 0.154959
14.7933 -11.5236 0.147808
-51.7677 18.5477 0.485222
7.12567 -12.2436 0.119011
16.0985 -11.9294 0.170365
-35.8093 -21.6692 0.438954
38.7537 -7.96535 0.412464
-34.6814 -21.7339 0.46612
-12.2131 -33.7327 0.419505
-12.6813 -34.102 0.441678
-10.9071 -31.4078 0.405317
-9.39203 -29.0595 0.370308
27.0564 54.7846 0.794535
9.61932 -9.04785 0.17083
-12.6479 -19.5989 0.31776
-10.5808 -32.1191 0.464057
8.58998 -8.53347 0.183636
6.33167 -12.9536 0.210019
7.17937 -11.0631 0.201385
9.37391 -9.0874 0.188657
8.05105 -9.13533 0.194809
9.75549 -9.03298 0.219101
38.2191 -8.18855 0.641828
-23.4626 20.1206 0.552541
-32.6647 -21.9768 0.677383
-33.8821 -24.859 0.736006
12.9728 -10.6572 0.275266
13.2861 -10.7163 0.32006
-9.8474 -12.4855 0.300153
6.85624 -11.2367 0.256727
8.00826 -9.41185 0.243063
27.6504 56.8921 1.26658
7.00382 -11.0089 0.262373
9.20329 -8.70804 0.269261
11.5698 -9.9446 0.334463
17.3285 -7.74003 0.382253
7.2384 -10.9824 0.297754
-9.38977 -12.1218 0.387772
-12.6576 -19.4309 0.554179
7.66522 -9.33235 0.275155
7.84996 -9.38776 0.284167
-25.1836 21.1666 0.853292
-28.6143 -9.176 0.753646
9.64694 -8.97598 0.339072
17.601 -12.858 0.549825
18.4477 -13.2835 0.565679
-22.5882 19.7765 0.781042
-27.2277 21.5186 0.904708
-28.6292 -8.59248 0.782091
-32.6869 -17.4286 1.00585
-13.2098 -19.9475 0.636099
14.8323 -11.5247 0.50141
22.8707 -3.32771 0.650595
-12.0731 -18.8254 0.647185
25.1414 -4.76286 0.74505
16.6367 25.8185 0.920127
-27.6582 -20.3753 1.0165
7.2538 -11.3627 0.404819
6.9883 -10.7317 0.390094
14.9827 24.4071 0.878863
-7.59109 -8.77162 0.354571
13.0833 -10.7056 0.516408
-7.28723 -9.47125 0.365895
-28.2682 -7.97876 0.977031
-11.7834 -17.2248 0.699006
7.8889 -9.37052 0.405378
16.2561 11.1064 0.704955
10.89 -9.48253 0.524702
11.9327 -10.0821 0.569382
23.5967 47.5163 1.99198
-7.42147 -8.10246 0.410524
9.67457 -8.98089 0.492925
22.9405 -3.22093 0.889561
27.7999 57.4673 2.4713
-7.41319 -9.83953 0.481774
10.4596 -9.53971 0.555462
12.7746 -10.5506 0.669589
21.677 -2.6568 0.890581
-28.7895 -17.4659 1.37676
8.7567 -8.7174 0.510757
-6.89802 -8.43442 0.468221
9.45901 -8.94803 0.544455
12.7873 14.6791 0.859593
-28.6001 -8.39358 1.30941
14.8965 19.4028 1.09919
15.2869 26.3209 1.35605
22.2861 43.8242 2.17407
6.21822 -13.8545 0.677092
10.8739 -9.53984 0.654359
18.5576 -1.64698 0.852493
19.9379 37.9625 2.01089
15.2334 26.8402 1.44685
-11.1352 2.76191 0.551939
-7.21256 -9.50697 0.57539
9.18811 -9.00568 0.609443
11.4269 -8.767 0.674615
20.1983 -2.3147 0.979556
11.7131 11.9372 0.830402
16.5579 39.8205 2.11989
7.77674 -9.47822 0.603549
10.21 -9.29907 0.684013
14.814 25.1204 1.46016
20.6357 40.0168 2.28519
21.1001 -2.62854 1.08143
-7.3783 -8.47667 0.582905
9.40616 -8.95579 0.676411
16.9573 24.8667 1.58102
16.838 30.5254 1.81939
13.0551 -10.7609 0.899121
10.6348 12.4321 0.874884
14.3842 19.5254 1.30265
11.1066 -9.63071 0.795058
15.181 19.7795 1.37496
-25.8433 19.8106 1.77819
-6.94489 -8.14778 0.592144
10.3291 12.4878 0.907462
-7.23303 -9.33733 0.661436
10.0655 12.5389 0.932433
-27.2838 19.2088 1.89344
6.13971 -12.9667 0.821375
11.2618 12.1742 0.953107
-6.86403 -6.77424 0.559131
11.3517 12.1049 0.977055
-6.78579 -8.38508 0.645476
6.28218 -12.6282 0.82412
14.8109 19.7062 1.48223
14.3278 23.4258 1.63801
13.7115 31.6883 2.07212
-6.09569 6.49237 0.546174
-8.14093 -7.71382 0.678211
-7.09401 -8.1381 0.662906
5.75111 -12.5074 0.832405
-7.46032 -6.86858 0.630678
7.02836 -11.1982 0.817564
7.00693 -10.5897 0.792594
11.3733 -9.81763 0.928079
12.1685 -10.1795 0.983328
16.2997 7.2188 1.13587
15.0574 19.5059 1.55895
-7.2191 -6.29146 0.620884
10.2917 -9.39974 0.89967
-7.35985 -6.24379 0.632905
11.5568 12.1948 1.1447
9.6939 21.8231 1.62597
-7.24379 -9.61537 0.804263
11.7214 12.713 1.18618
-6.94166 -4.44852 0.566834
-6.73214 -8.17641 0.722178
-6.68727 -4.42547 0.552847
9.29483 -8.88654 0.895354
10.0211 -7.86229 0.897371
12.831 16.1717 1.49258
-6.65439 -6.64686 0.653331
9.83455 -8.3049 0.941375
11.5865 17.3246 1.56683
11.5272 18.3777 1.62052
9.71441 18.4896 1.57502
9.14193 19.7571 1.63733
7.47798 22.2879 1.76742
10.9014 18.8165 1.65669
10.038 -7.61596 0.963547
-7.00975 -7.17036 0.768209
-17.099 -6.20191 1.42191
9.49365 -7.69659 0.958182
9.45523 18.885 1.66692
-6.37009 -4.2534 0.606978
-6.80974 -8.19582 0.844635
4.83676 -5.73568 0.596575
9.14794 20.1261 1.75351
7.87894 19.2643 1.67356
5.0309 -5.79829 0.618549
12.8668 11.6104 1.40431
11.8624 11.9157 1.37677
6.74685 -9.41229 0.941402
12.3212 11.7849 1.40149
6.79229 19.9397 1.7244
-6.34624 -4.38093 0.628203
-7.13589 -9.4443 0.971519
11.6316 12.186 1.39382
10.5319 9.21357 1.19153
-5.01487 -11.4415 1.05543
6.13309 -6.0531 0.752248
9.23675 -7.19578 1.00716
-6.77956 -6.67745 0.808278
10.5117 12.4574 1.42292
8.81534 -7.3455 0.997566
10.9107 12.2993 1.43891
-7.28877 -7.74224 0.932085
8.20616 -7.30561 0.975595
10.2876 12.5745 1.46059
-7.05196 -7.7203 0.926987
-6.91744 -8.31557 0.97067
10.6803 12.4152 1.48715
10.592 13.6631 1.56633
-7.09544 -8.30307 0.994809
11.295 10.9102 1.44448
-6.30471 -4.22462 0.697574
-6.84027 -8.56716 1.00296
-6.3184 -4.38742 0.708793
11.1454 8.60124 1.32116
10.7048 9.38433 1.32738
6.57354 15.6155 1.59374
10.5846 11.387 1.47116
-11.1804 2.86497 1.08993
6.16479 -5.97236 0.818371
8.01938 -6.64817 1.00062
10.8047 9.2524 1.38099
9.60706 12.641 1.53745
9.7926 12.5671 1.56974
7.7347 12.3701 1.44935
7.98841 13.3543 1.54911
11.2855 8.10415 1.41607
7.20858 12.8276 1.48516
9.13016 11.442 1.48956
7.07202 13.6914 1.57729
5.94016 14.115 1.57242
9.26228 10.5595 1.45183
9.1084 12.4089 1.59947
11.4482 7.69837 1.43926
9.31406 10.0729 1.42849
4.97673 -5.82364 0.82247
-6.83391 -4.64789 0.871544
5.6477 14.0708 1.60965
-7.04616 -4.4984 0.89125
8.99263 10.7751 1.50702
-6.75138 -6.76098 1.02189
5.91623 -5.83955 0.89801
9.74721 8.58188 1.39993
9.01849 9.41955 1.40271
9.32214 10.392 1.51375
4.84905 14.0538 1.60495
4.2441 -8.07164 0.987869
6.52087 10.9095 1.39882
-6.79024 -3.91843 0.862657
6.40901 12.0172 1.51136
-6.88366 -3.85657 0.873839
9.7605 7.24221 1.35924
6.72963 11.4854 1.48278
9.85508 7.06598 1.36241
5.49083 11.7055 1.46224
5.49947 12.2287 1.51478
4.76028 12.3885 1.50205
9.88308 6.71731 1.362
-6.88011 -4.55583 0.944797
7.41995 -6.24121 1.10529
-7.31553 -0.783841 0.84323
-6.26512 -5.38213 0.951048
5.25421 -5.57343 0.883924
8.9263 7.9357 1.39163
4.42502 -7.19448 0.978519
10.459 5.1779 1.36683
9.01002 7.83827 1.40396
5.20552 -5.61707 0.904856
8.65249 7.96456 1.39556
8.9606 9.11593 1.49567
-7.0343 -5.64021 1.06665
10.1834 4.76838 1.33984
-6.90733 -3.84545 0.952286
9.18458 6.17426 1.34238
5.26796 11.5475 1.539
-6.88207 -3.06059 0.914881
-6.86655 -3.24634 0.918215
4.88608 -5.95886 0.940641
5.98299 -6.13841 1.04376
9.41632 5.64806 1.3575
8.50899 7.26449 1.38346
-6.93882 -4.30332 1.00557
-6.87045 -4.52748 1.01387
8.31223 8.64101 1.48772
5.08759 11.4419 1.5553
-6.53946 -5.60847 1.07198
3.71524 -7.58766 1.05286
8.55309 7.78827 1.44762
6.08651 -5.62541 1.03921
9.21115 6.09042 1.39952
-6.12593 -5.40543 1.03073
8.59327 6.64785 1.38568
8.13482 7.5529 1.41225
-7.08773 -1.77958 0.934375
-7.00135 -2.302 0.940956
-6.4356 -5.31055 1.06438
8.86954 5.68638 1.35081
8.20505 8.09493 1.48574
-7.24869 -1.25067 0.942896
-6.88673 -4.11225 1.03677
7.46825 6.25178 1.26159
8.12235 7.07935 1.3973
8.01858 8.17601 1.48417
-6.89895 -2.82154 0.970112
-6.90025 -2.9612 0.9705
4.5989 10.1847 1.46903
9.03141 4.12633 1.3071
-7.23311 -1.60291 0.973301
6.84894 -4.26502 1.07243
4.93402 -5.95065 1.02496
-7.31739 -1.11475 0.990441
-7.00161 -2.19538 0.981265
-7.03859 -2.26449 0.987522
-5.98734 -4.39261 0.992208
5.19603 -6.57451 1.11691
6.91997 -4.18189 1.08863
8.11748 7.20936 1.47098
-7.13731 -1.71485 0.986536
-7.06926 -1.952 0.986084
8.82977 4.87479 1.37003
8.37046 5.90032 1.39257
-6.90973 -3.6131 1.06227
8.90026 4.17717 1.34869
3.38925 10.6528 1.53107
-7.2971 -1.19737 1.01193
-6.00245 -4.43575 1.0263
-5.98296 -4.53443 1.02754
7.15862 -3.94005 1.12322
8.11233 6.51839 1.43945
5.39993 9.12708 1.46885
-6.37301 -4.31517 1.05493
4.93806 -5.53163 1.03019
7.19637 -3.83566 1.13506
7.57235 -3.69256 1.16582
3.66166 10.1588 1.50423
3.47713 10.4632 1.53783
-7.35298 -1.07974 1.03722
-7.0602 -1.99996 1.0223
4.9771 -5.29277 1.01575
7.25833 -3.74362 1.14748
7.37526 -3.67837 1.16906
7.88698 -3.36273 1.21903
-7.14062 -1.87101 1.04951
-6.99585 -2.94069 1.09949
-6.00036 -4.36788 1.06723
7.92173 -2.78812 1.22887
8.26656 4.63979 1.38907
5.03374 8.62346 1.46385
8.40411 4.5257 1.41091
7.84698 -2.34572 1.20745
7.18043 5.71608 1.37459
2.99824 9.57119 1.50035
-7.07997 -2.01553 1.10298
7.49869 -3.11588 1.22431
8.26283 4.56653 1.43124
5.8249 7.49138 1.44129
5.32927 7.68854 1.42587
5.1662 8.00432 1.44745
5.12011 8.11512 1.45263
7.34808 -3.176 1.2228
7.69571 -2.76201 1.24525
-6.74314 -1.67953 1.04644
7.84904 -2.26184 1.25277
7.26979 5.45232 1.39561
-7.08937 -1.94851 1.14066
-6.90749 -2.78086 1.1571
6.84819 5.55479 1.38336
-7.33888 -1.09328 1.15863
-7.12984 -1.82045 1.15219
-7.03283 -2.06348 1.14813
-7.10664 -1.86871 1.15287
-6.88284 -2.92903 1.17404
4.84693 7.51566 1.42268
3.44712 -6.03346 1.10967
-7.26003 -1.2966 1.18113
3.52828 -5.70807 1.08114
3.56509 -5.61333 1.07051
7.11098 4.79334 1.39767
4.69946 7.43816 1.43237
-7.05733 -2.01955 1.19606
-7.07917 -1.94311 1.20435
7.00614 4.85495 1.40996
3.85624 8.01157 1.47264
6.06204 -3.32413 1.15181
6.67252 4.90188 1.38075
4.70053 7.22488 1.43824
3.83673 -5.30104 1.09995
7.14532 4.44952 1.41758
7.50918 2.87141 1.35888
6.35999 5.31679 1.40528
-7.26352 -1.25304 1.25489
6.78937 4.10489 1.3628
-6.44048 -2.76748 1.19585
5.51564 -3.63375 1.13475
5.69792 -3.52301 1.15031
2.78794 7.94626 1.45669
-7.35632 -1.03724 1.28766
5.33906 -3.78717 1.14118
-6.30094 -2.25607 1.16028
-6.26174 -2.413 1.17476
4.28212 -4.66576 1.10756
4.49571 -4.4789 1.11332
4.59379 -4.45107 1.1223
-6.78853 -1.72937 1.23377
4.3675 6.55278 1.40526
-7.14444 -0.926332 1.28745
-6.13503 -2.25439 1.16399
6.67358 3.71099 1.3691
6.13411 4.38631 1.36813
3.6085 -5.32721 1.17025
5.1837 5.72515 1.41305
2.54457 7.28279 1.44999
6.51517 3.06641 1.36175
-1.70731 -5.78501 1.14153
6.44001 -1.3889 1.25016
6.30091 2.79025 1.327
6.24394 2.39135 1.33424
-4.4357 3.9248 1.39166
4.34554 3.55125 1.34274
4.22936 3.30668 1.32949
4.66785 -1.67869 1.24582
4.82261 -1.38204 1.25524
-2.13115 4.77321 1.30457
3.72514 -2.95151 1.22204
3.67123 -2.54825 1.19329
3.40377 -2.95928 1.22507
4.01618 2.57721 1.33399
-2.5963 -3.53642 1.25131
-2.32811 -3.57339 1.21689
3.76333 2.06259 1.30518
3.7396 1.98458 1.30449
-2.83405 3.47447 1.3821
-2.29846 -2.42121 1.18782
1.95058 -2.77457 1.21044
-2.11948 2.76105 1.32105
-2.02483 2.74932 1.32727
2.24678 -1.86651 1.22375
2.37679 -1.49618 1.2212
-2.01378 1.87437 1.29361
-2.06611 -1.44394 1.22864
1.44547 -2.06488 1.24303
-1.99387 -1.08838 1.21454
-1.92609 -0.707984 1.21987
-1.9278 -0.703757 1.24544
-1.95656 -0.344477 1.22851
-1.89394 -0.564918 1.22969
-1.89352 -0.531109 1.23475
8.24753 -8.72824 -7.48977
12.1792 -10.3324 -8.83809
-8.65908 15.4542 -6.87165
20.8238 25.3603 -11.7916
-8.78015 -2.5145 -2.57353
-33.9473 -22.6769 -7.5421
-33.5674 -21.9522 -5.91842
-33.2942 -22.6261 -5.97848
-30.7745 -19.7367 -2.74961
9.32349 -8.88044 -0.393317
-7.5009 16.1684 -0.439971
-29.149 -11.2796 0.719781
-6.89922 -8.2457 0.45915
16.996 24.4055 1.61551
11.5343 16.2215 1.64628
-6.68063 -6.6537 0.881519
4.28826 12.4438 1.51722
8.79529 9.16162 1.48564
8.00105 -8.79495 -10.4159
8.86593 -8.57195 -10.5368
6.98071 -11.9758 -11.5508
6.89571 -11.3867 -10.9303
8.18209 -8.29438 -9.56664
7.04451 -12.0653 -11.3601
7.09075 -11.0097 -10.4908
8.03166 -8.4082 -9.23705
6.75104 -11.3224 -10.3227
6.46729 -11.7351 -10.2458
7.78598 -8.88273 -9.00438
6.227 -14.3617 -11.8448
8.33128 -8.73477 -9.13637
6.32138 -11.9476 -10.2077
6.16718 -12.1243 -10.1426
7.52058 -9.48169 -9.03536
7.93874 -9.08896 -8.95896
10.5198 -9.49672 -10.5397
6.13828 -14.1515 -11.4008
6.11667 -13.6986 -11.0294
6.15144 -12.6154 -10.3223
9.23592 -8.86327 -9.38983
9.32427 -9.11108 -9.50767
5.88438 -12.544 -10.0645
9.40033 -9.02727 -9.30067
6.88883 -11.1687 -9.3121
5.6338 -13.0087 -10.0328
9.73629 -9.12233 -9.45482
7.63804 -9.37916 -8.50382
10.0438 -9.22911 -9.58204
10.9701 -9.53881 -10.1999
11.5009 -9.74918 -10.1247
8.41811 -8.6419 -7.98687
7.46045 -9.3353 -7.89531
8.20152 -8.75444 -7.92865
7.65882 -9.38912 -7.92666
7.8686 -9.43947 -7.87565
8.35465 -8.56999 -7.65057
0.354022 15.8608 -10.1228
7.55833 -9.36155 -7.65627
10.9663 -9.65567 -9.28939
7.25788 -10.7483 -8.20761
8.18848 -8.53177 -7.45733
4.62419 -15.4363 -10.1337
8.74751 -8.73404 -7.64769
7.95336 -9.06842 -7.43974
4.05718 -18.0454 -11.3925
8.23093 -8.66209 -7.30456
4.09071 -17.3156 -10.8562
0.140308 14.864 -9.04486
6.68297 -11.3094 -7.99704
7.77316 -9.30405 -7.35572
10.1782 -9.36059 -8.38996
6.84933 -11.2973 -7.93049
8.09429 -9.24254 -7.37427
11.3295 -9.74859 -8.93538
5.42032 -13.903 -8.84934
7.76662 -9.30357 -7.18672
9.39325 -9.07395 -7.73836
6.93214 -11.1622 -7.77598
8.01641 -9.16528 -7.14431
9.79988 -9.23158 -7.84562
14.9548 7.47324 -9.71137
8.70637 -8.8706 -7.18159
6.96193 -11.0093 -7.48547
2.64742 -11.2398 -6.64053
7.89249 -9.10885 -6.90235
9.65162 -9.18413 -7.56754
10.8474 -9.54289 -8.1496
0.125509 15.3028 -8.63176
3.27716 -20.5606 -11.7085
6.82796 -11.0243 -7.2691
10.1561 -9.33691 -7.72533
12.4161 -10.4179 -9.08827
9.28257 -9.0483 -7.24304
4.63301 -14.3412 -8.40122
8.03933 -9.25684 -6.80878
14.8782 7.60698 -9.1758
9.74409 -9.15057 -7.34074
0.831392 17.4757 -9.55493
2.73751 -19.8016 -10.9002
11.1889 -9.69561 -8.03798
4.25273 -14.4825 -8.16942
14.7908 7.73537 -8.99253
15.1989 10.4945 -9.91911
14.12 7.79023 -8.61867
11.0085 -9.66837 -7.79061
13.3499 -10.8711 -9.15733
3.03934 -19.2825 -10.2622
11.4174 -9.87801 -7.68134
2.16659 -20.33 -10.3194
10.315 -9.39101 -7.01398
14.3624 -11.3595 -9.19313
13.9003 -11.2428 -8.94904
11.0685 -9.70813 -7.33437
7.53992 -9.37641 -5.95798
3.5704 -8.48485 -4.53643
-8.67611 -1.90495 -4.367
2.21788 -20.0808 -9.90938
4.54058 -9.31569 -5.06813
0.398947 13.6622 -6.69158
7.63896 -9.30764 -5.87523
-8.40044 16.0252 -8.76024
-9.17334 -2.42506 -4.57165
15.1028 -11.6626 -9.16892
19.5281 5.58752 -9.71492
-10.2783 -2.54475 -5.00812
1.90814 -20.504 -9.792
17.3909 16.3443 -11.3063
7.61776 -11.2611 -6.41446
20.1899 5.4497 -9.84951
14.1178 -11.1769 -8.37274
2.93972 -17.38 -8.19531
19.5083 5.77216 -9.3999
17.9915 -13.1111 -10.282
9.8919 -2.49863 -4.71456
20.4476 5.18276 -9.7336
17.5203 16.4771 -11.0857
1.80661 -20.1492 -9.25875
9.71446 -9.08361 -6.08965
-9.18277 -1.66677 -4.25606
9.47672 -3.47741 -4.59797
6.74451 -11.3688 -6.01181
9.93952 -2.62545 -4.66352
19.4009 5.91604 -9.13266
17.9268 17.7832 -11.3545
9.39212 -3.09396 -4.4515
15.5471 -11.9632 -8.80242
7.07077 -11.6162 -6.08184
7.1813 -10.9616 -5.84051
9.5837 -3.41352 -4.534
-9.89641 16.2158 -8.45507
17.8006 -12.9907 -9.79135
19.6904 5.67236 -9.08354
16.2243 7.3593 -7.8906
18.0394 18.2226 -11.3432
16.5519 -12.3096 -9.09037
-11.1087 16.889 -8.88238
-6.49282 14.8308 -7.09576
-5.21052 4.88648 -3.11124
20.297 5.51107 -9.14479
9.58259 -3.41378 -4.39051
18.4459 18.6976 -11.2919
15.941 -12.267 -8.6544
14.969 7.48473 -7.14421
3.84864 -9.32554 -4.28593
-11.0381 16.7843 -8.50178
6.97375 -10.9517 -5.47413
-13.505 3.30967 -5.85772
0.742604 -22.2618 -9.38715
15.9175 -12.0516 -8.34863
-5.13608 5.65472 -3.19479
0.996215 -22.1185 -9.2819
1.23233 -20.7349 -8.70185
14.2706 7.65408 -6.7748
18.7927 19.5862 -11.3444
3.79142 -8.97453 -4.06254
14.8813 7.7876 -6.99294
18.1477 19.384 -11.0226
-9.4824 -1.08831 -3.93976
4.01343 -8.51465 -3.85654
14.1374 7.80664 -6.63128
6.87331 -11.0332 -5.3138
-13.5479 2.53078 -5.63761
-7.87796 15.2568 -6.97496
19.5279 21.2211 -11.6867
15.1861 7.29717 -6.78993
-5.22724 14.266 -6.08927
14.0481 -11.1061 -7.01338
1.53613 19.3684 -7.54847
-8.64867 15.6158 -6.93425
19.1448 5.83861 -7.75634
-1.74706 13.2003 -5.15632
5.31257 -9.42334 -4.17144
-2.37234 13.4046 -5.2272
19.886 23.0064 -11.6639
4.67114 -8.53435 -3.69462
19.5775 5.61649 -7.75139
0.869875 -26.1995 -9.96364
15.0143 -11.5698 -7.13264
20.144 5.4575 -7.81223
9.46733 -3.44935 -3.76752
0.529903 -22.4027 -8.35258
3.26237 -10.8385 -4.22801
20.5061 23.8594 -11.6869
0.908478 -8.70634 -3.24654
14.1219 -11.1835 -6.64169
20.5581 5.22879 -7.80049
18.1123 17.8984 -9.3083
-12.97 2.27221 -4.78688
21.1888 25.3054 -11.9742
2.29577 -13.3012 -4.86212
13.116 -10.6066 -6.0692
0.7938 15.4921 -5.55205
-8.18011 -2.7915 -3.09148
0.408806 -21.6297 -7.73449
-4.1773 13.6984 -5.09169
0.636344 -21.7559 -7.73551
15.9807 -12.0695 -7.09721
-15.5353 17.9586 -8.36634
5.94914 -11.3763 -4.51349
-10.8945 16.4381 -6.88547
0.0951369 -18.3558 -6.45351
14.3611 -11.3811 -6.4066
20.5134 5.40249 -7.40527
0.654984 -22.8399 -7.892
-4.96161 14.3944 -5.21431
3.6475 -8.46685 -3.17324
4.88984 -9.05713 -3.52685
-14.3238 17.7816 -7.81341
2.27982 -10.9049 -3.8176
-8.78251 15.9283 -6.19781
3.04775 -13.7834 -4.81174
-14.7928 18.1547 -7.93688
20.3302 5.52758 -7.08243
22.4655 27.7934 -11.948
36.6864 -20.7092 -14.0762
-5.24856 13.9141 -4.93663
1.92538 20.9269 -6.97585
1.26778 -10.245 -3.41328
32.9792 -20.7319 -12.8087
-5.19796 14.3047 -4.94106
-12.434 17.0206 -6.83579
18.7414 -13.3549 -7.47224
3.56466 -8.68342 -3.00944
6.24384 -10.1513 -3.81898
2.31626 -11.0165 -3.58227
-4.46362 -33.5597 -10.763
-1.11991 -23.528 -7.49942
15.1565 10.4387 -5.80969
-13.0473 17.3601 -6.86217
-17.7452 19.1388 -8.2026
3.00754 -9.69901 -3.20353
6.99693 -11.1501 -4.06916
1.37915 -21.7497 -6.74228
-2.52926 -26.9735 -8.31787
7.31577 33.8159 -10.5627
0.769106 15.0851 -4.58949
-10.9934 16.5852 -5.99524
-2.65024 -26.0493 -7.88746
-14.16 17.7032 -6.76224
-5.19534 -34.0942 -10.2708
0.831255 -24.7399 -7.4027
-5.32703 14.6444 -4.63306
2.09466 20.8949 -6.1898
-20.976 19.5578 -8.45979
18.359 5.84232 -5.67198
-4.2501 14.2643 -4.37422
-7.82921 15.1858 -5.01044
4.26947 -9.1721 -2.97326
4.65837 -11.6704 -3.67366
-12.554 2.21156 -3.66346
-32.0722 -45.4321 -16.0048
-14.997 18.0403 -6.74227
6.99798 -11.1453 -3.7881
2.56922 -9.5643 -2.81365
13.016 -10.5354 -4.76495
-8.42851 -2.45296 -2.48907
21.4702 27.6923 -9.93137
-8.55494 -2.25476 -2.49996
-2.49899 -25.5244 -7.19956
-12.9575 1.98559 -3.6504
4.41112 -11.388 -3.38901
-9.18786 15.7986 -5.01554
-12.8861 17.1848 -5.898
-5.32355 14.202 -4.14327
-8.27505 -40.2039 -11.2334
-21.1524 19.7387 -7.77643
-9.60215 15.9205 -4.98061
-26.295 20.1991 -8.82004
11.5455 11.6209 -4.32427
4.35072 -11.3562 -3.22106
48.0288 -13.962 -13.2488
-7.95245 -37.5396 -10.0891
4.10401 -8.688 -2.52973
11.2361 -9.99384 -3.93338
-14.2498 17.8411 -5.93568
6.56477 -10.4683 -3.19781
3.18856 -9.67674 -2.63362
-29.3085 -42.9262 -13.4238
-4.25185 -27.8995 -7.30441
3.55679 -10.4169 -2.83781
4.0834 -9.42167 -2.63895
15.7362 -11.8325 -5.02286
-7.05033 15.0172 -4.19702
-30.7516 -41.0116 -13.0006
4.33457 -11.2018 -3.03939
4.26759 -7.72723 -2.24645
6.57102 -10.7181 -3.13485
45.6419 -13.7995 -11.887
-27.7949 20.97 -8.60714
-11.3689 16.7017 -4.97911
-26.9606 -39.3309 -11.7261
-9.60708 -37.8214 -9.62829
-24.0902 20.2336 -7.73012
4.36784 -10.3733 -2.76497
-11.8941 17.0357 -5.03614
-7.73514 15.0687 -4.08073
10.3275 -9.31533 -3.32983
40.9509 -13.6028 -10.3247
15.2374 7.62054 -4.05701
-6.13471 -35.1476 -8.50174
3.97727 -9.11349 -2.35592
47.8896 -12.8173 -11.7649
-11.7487 -43.2662 -10.6236
4.22094 -9.03152 -2.37787
3.88765 -11.1498 -2.78217
4.92588 -8.72413 -2.35667
-12.5958 17.1642 -4.95328
11.0691 -9.70025 -3.36353
-6.04724 -30.6761 -7.13615
-26.6999 20.6216 -7.64657
42.2075 -9.23069 -9.80388
-29.9463 21.7425 -8.29637
-34.8735 -22.8535 -9.34309
-5.26178 -25.0572 -5.71124
41.3912 -12.7953 -9.72631
5.47641 -9.51187 -2.45022
-12.3421 2.8162 -2.77763
41.2679 -12.0937 -9.50036
43.299 -12.3544 -9.90523
28.1882 39.702 -10.6688
-5.29264 13.8822 -3.24645
13.4873 -10.8531 -3.81007
38.6418 -12.4181 -8.92191
-23.0067 20.0514 -6.61896
-27.9765 -68.9772 -16.1552
4.32829 -9.74154 -2.31127
4.55728 -9.21683 -2.22057
-14.3576 17.8875 -4.89719
-30.3589 22.0521 -8.01159
-31.212 22.15 -8.18079
-26.5616 -70.4751 -16.1476
-10.5255 16.4458 -4.13881
-8.20654 -34.8433 -7.61426
3.20488 -9.72882 -2.18387
3.98592 -9.8778 -2.27071
46.6132 -10.8074 -10.2133
15.0683 7.54766 -3.57393
-14.9196 18.3656 -5.0086
5.18342 -9.08877 -2.19796
27.3669 39.5984 -10.0631
-27.2323 -26.6498 -7.91239
15.1124 7.90917 -3.54236
-29.7079 -22.9435 -7.78739
-30.8713 -79.1584 -17.5947
41.1543 -11.0753 -8.81307
-11.2703 16.6047 -4.07682
-15.3772 18.1805 -4.84654
-34.4592 23.1316 -8.43303
45.195 -9.85815 -9.43228
-12.8006 -41.1911 -8.7691
4.15441 -9.7776 -2.16108
4.27856 -9.74334 -2.16883
11.6737 -9.70412 -3.08828
-11.8079 16.9445 -4.12154
-19.0444 -54.6607 -11.5711
-12.585 -39.0977 -8.13379
4.08835 -9.96608 -2.13243
-33.582 -22.9631 -8.02048
-26.2593 20.6094 -6.56935
-32.6337 -23.3434 -7.82191
-6.76899 14.9552 -3.18469
-25.3935 -59.6687 -12.5985
-33.0512 -22.0032 -7.65206
3.45085 -9.40289 -1.93379
46.6879 -10.8173 -9.20176
-12.5406 17.1215 -4.05603
4.00641 -9.38516 -1.9471
-35.8679 -21.7872 -7.94475
-20.8261 -33.8317 -7.55661
-15.0461 -43.4157 -8.69633
38.4814 -12.6942 -7.65926
-35.1835 23.6304 -7.93142
-33.17 -22.9079 -7.57344
-32.1388 -23.514 -7.47586
-20.4978 -50.7831 -10.3067
-16.3124 -44.311 -8.76066
3.83303 -9.23721 -1.84703
43.2928 -11.6683 -8.32534
5.78386 -9.7569 -2.07844
-23.547 -53.3943 -10.6861
-19.7125 -48.93 -9.54307
-14.3147 17.8435 -4.05537
-30.6122 -24.6894 -6.99123
-19.9878 -26.6345 -5.95561
-38.4817 24.2826 -8.02819
-26.2647 20.6229 -5.81189
-33.3743 22.8379 -7.02131
3.9287 -10.0987 -1.87862
4.78866 -8.64288 -1.71697
14.1155 7.58051 -2.76434
14.1949 8.14575 -2.80398
-30.2135 21.9709 -6.40402
42.9664 -12.1562 -7.60117
42.745 -11.0707 -7.51584
-30.7701 -24.4373 -6.66625
-20.69 19.7045 -4.79739
-19.6291 -48.7912 -8.88804
14.9811 7.50862 -2.81133
-31.0638 21.9915 -6.3574
-22.6116 -53.9116 -9.662
44.34 -11.945 -7.46303
-10.1677 16.1414 -3.07748
-19.8919 -49.3498 -8.48783
-34.3241 -23.6941 -6.5728
-22.3693 19.6534 -4.66232
-23.7309 20.2582 -4.83557
-39.1794 23.722 -7.0974
-11.0221 16.4964 -3.06193
3.48922 -9.57569 -1.57591
3.89159 -10.2906 -1.70314
-7.46372 15.1375 -2.57667
-30.4309 22.1486 -5.75333
-31.2627 -24.1463 -6.00728
-27.509 -25.7316 -5.70695
42.9446 -11.1643 -6.74381
45.6784 -9.95181 -7.12156
-6.40686 14.2691 -2.33909
9.86588 -5.17144 -1.65332
-32.956 -23.7696 -6.05165
-25.1641 -63.63 -10.1502
10.249 -9.215 -2.05374
45.8306 -10.6024 -6.98513
-36.0338 -23.9872 -6.37132
-30.9996 -25.5697 -5.87879
-12.243 -40.568 -6.23642
17.0713 -12.351 -3.08596
-24.9104 20.5096 -4.68907
-23.739 -53.191 -8.39495
-7.46439 14.9497 -2.38825
-12.4841 17.0213 -3.00894
6.07711 -11.6101 -1.87213
-13.1659 17.5975 -3.08657
-33.9507 22.9346 -5.76023
6.80228 -11.1111 -1.82054
38.1997 -12.6067 -5.65692
-30.6609 -24.5685 -5.4839
-32.2887 23.2045 -5.50829
-19.8465 -47.8344 -7.15418
45.9873 -10.288 -6.49726
-6.71988 14.8604 -2.22758
-21.6126 -56.4071 -8.20749
7.78799 -9.42481 -1.64058
9.23113 -9.08742 -1.7866
-13.7519 17.559 -3.00611
13.313 -10.6183 -2.30382
-21.8136 19.8422 -3.96507
42.8712 -11.0845 -5.87798
45.7003 -10.0104 -6.19159
-22.1953 19.5322 -3.86604
-32.1673 -24.0702 -5.24812
-14.6261 17.9102 -2.98946
-33.308 22.2315 -5.19917
-37.7582 -15.9429 -5.29244
7.05668 -10.4947 -1.62235
10.8638 8.8947 -1.80384
-33.2722 -22.929 -5.17149
-30.7767 22.4679 -4.82031
-35.0166 -21.8506 -5.17392
42.7224 -11.0488 -5.52161
6.83475 -10.4267 -1.55758
-7.49452 14.9899 -2.07421
-24.5367 20.6031 -3.92327
-32.6708 23.0256 -4.93055
6.34213 -12.1631 -1.67069
45.6494 -9.73933 -5.71649
15.1309 7.92727 -2.0545
-17.3928 -42.1252 -5.49637
7.1277 -10.5933 -1.53707
-20.3106 9.00151 -2.62975
-13.8223 -41.8132 -5.17919
-31.3476 -24.1684 -4.62878
-30.8387 -24.6631 -4.62127
42.8153 -11.4691 -5.20883
11.2992 -9.73065 -1.72737
-29.2614 22.1875 -4.22509
6.68259 -10.8883 -1.46228
7.52286 -9.26197 -1.36474
11.6559 -9.78488 -1.7283
9.48046 -4.62503 -1.1946
15.1077 7.76351 -1.91504
-10.1486 16.1563 -2.15273
-31.4891 23.0095 -4.36934
39.5514 -13.02 -4.6688
9.40416 -9.0688 -1.44522
-10.8566 16.2825 -2.12703
6.85044 -12.8969 -1.58145
45.797 -9.95341 -5.08001
10.8641 8.92781 -1.51642
16.9286 -12.5751 -2.2629
43.019 -11.1574 -4.76141
9.66855 -9.02494 -1.4011
8.41554 -8.50105 -1.25302
-30.4172 -24.3408 -4.05692
-28.8776 -57.923 -6.75265
15.1037 7.57473 -1.72701
