ply
format ascii 1.0 
element vertex 1881
comment /media/mkaihara/Seagate Backup Plus Drive/model_iterations/model_74.ply
property float32 x 
property float32 y 
property float32 z 
end_header 
-8.18224 -7.75301 0.681928
-7.12797 -8.1771 0.666306
5.68309 -12.3595 0.822773
-7.49191 -6.89771 0.633665
6.96656 -11.0997 0.810466
6.95205 -10.5067 0.786462
11.2786 -9.7358 0.920309
12.0595 -10.0883 0.974466
16.1045 7.13234 1.12242
14.6855 19.0242 1.52078
-7.2466 -6.31547 0.6236
10.2146 -9.32921 0.892908
-7.38845 -6.2681 0.63572
11.372 11.9998 1.12666
9.36039 21.0721 1.57018
-7.28724 -9.67309 0.809208
11.527 12.502 1.16675
-6.96279 -4.46209 0.569016
-6.76326 -8.21427 0.725734
-6.70635 -4.43813 0.554879
9.23347 -8.8278 0.889447
9.95868 -7.81327 0.891772
12.5622 15.8328 1.46153
-6.67813 -6.67059 0.655982
9.77139 -8.25149 0.935322
11.3144 16.9177 1.53021
11.236 17.9134 1.57975
9.44667 17.9799 1.53173
8.85806 19.1434 1.58655
7.17063 21.3713 1.69464
10.6106 18.3145 1.61264
9.97696 -7.56963 0.957682
-7.03864 -7.19997 0.77167
-17.2689 -6.26359 1.43659
9.43857 -7.65189 0.952623
9.18351 18.3421 1.61907
-6.38649 -4.26438 0.609013
-6.84155 -8.23417 0.848796
4.83049 -5.72825 0.595854
8.85733 19.4865 1.69781
7.62199 18.6358 1.61891
5.02328 -5.78952 0.617664
12.6721 11.4347 1.38323
11.6776 11.73 1.35547
6.70522 -9.35415 0.935678
12.1319 11.6038 1.38012
6.539 19.1957 1.65988
-6.36266 -4.39229 0.630295
-7.17735 -9.49923 0.977286
11.4459 11.9914 1.37172
10.401 9.09901 1.17687
-5.05395 -11.5306 1.0635
6.11727 -6.03747 0.750347
9.18726 -7.15718 1.00177
-6.80459 -6.70215 0.81159
10.3364 12.2496 1.39931
8.76944 -7.3072 0.992384
10.7328 12.0988 1.41558
-7.32222 -7.77782 0.936624
8.16664 -7.27039 0.970919
10.1133 12.3614 1.43593
-7.08337 -7.75473 0.931372
-6.95068 -8.3556 0.975543
10.5036 12.2096 1.46262
10.397 13.4115 1.53756
-7.13011 -8.3437 0.999882
11.1321 10.7527 1.42374
-6.32059 -4.23529 0.699819
-6.87421 -8.60974 1.00813
-6.33457 -4.39868 0.711086
11.0146 8.50023 1.30575
10.5694 9.26566 1.3107
6.39502 15.1912 1.55024
10.424 11.2142 1.44891
-11.2715 2.88833 1.09983
6.14891 -5.95697 0.8163
7.98504 -6.61966 0.996356
10.6697 9.13678 1.36381
9.43988 12.4209 1.51072
9.62447 12.3512 1.5428
7.59233 12.1422 1.42262
7.82875 13.0873 1.51807
11.1581 8.01265 1.40015
7.06493 12.5717 1.45546
8.98574 11.2609 1.466
6.91702 13.3911 1.54254
5.79111 13.7605 1.53266
9.12837 10.4068 1.43086
8.95043 12.1936 1.57168
11.3233 7.61437 1.42361
9.18603 9.93433 1.40887
4.96941 -5.81507 0.821294
-6.85444 -4.6619 0.874647
5.50216 13.7078 1.56779
-7.06822 -4.51253 0.89454
8.85886 10.6148 1.48458
-6.77652 -6.78622 1.02603
5.90264 -5.82612 0.895978
9.6327 8.48102 1.38351
8.90189 9.29771 1.38459
9.18989 10.2445 1.49226
4.71275 13.6582 1.55931
4.2294 -8.04369 0.984575
6.40943 10.7229 1.37478
-6.80964 -3.92967 0.865661
6.28442 11.7833 1.48176
-6.9038 -3.8679 0.876941
9.66081 7.16821 1.34538
6.60891 11.2792 1.45601
9.75616 6.99502 1.34876
5.37879 11.4663 1.4321
5.38081 11.9645 1.48175
4.6476 12.0946 1.46602
9.78743 6.65227 1.34884
-6.90086 -4.56962 0.94815
7.39353 -6.219 1.10137
-7.34289 -0.786765 0.847136
-6.2826 -5.39721 0.954139
5.24593 -5.56463 0.882556
8.82801 7.84826 1.37629
4.41467 -7.17766 0.976308
10.3712 5.13438 1.35537
8.91197 7.75292 1.38867
5.19742 -5.60833 0.903473
8.55666 7.87628 1.38008
8.84822 9.00153 1.47688
-7.05839 -5.65958 1.07073
10.1022 4.73035 1.32917
-6.92765 -3.8568 0.955646
9.10183 6.1186 1.33029
5.15982 11.3101 1.507
-6.90206 -3.06951 0.91815
-6.88638 -3.25574 0.921465
4.87864 -5.94978 0.939239
5.96784 -6.12286 1.04115
9.336 5.59986 1.34592
8.42212 7.19027 1.3693
-6.95976 -4.31635 1.00913
-6.89108 -4.54112 1.01743
8.212 8.53675 1.4697
4.98247 11.2051 1.52271
-6.55954 -5.62575 1.0757
3.70635 -7.56955 1.05046
8.46012 7.70356 1.43183
6.07241 -5.61236 1.03682
9.12889 6.03599 1.387
-6.14247 -5.42008 1.03395
8.51183 6.58479 1.37251
8.04848 7.47267 1.3972
-7.11077 -1.78538 0.938121
-7.02288 -2.3091 0.944522
-6.45423 -5.32598 1.06792
8.79451 5.63823 1.33937
8.11207 8.00312 1.46882
-7.27426 -1.25509 0.946969
-6.90706 -4.12444 1.04038
7.40095 6.19538 1.25019
8.0411 7.00846 1.38326
7.92651 8.08206 1.46703
-6.91916 -2.82982 0.973593
-6.92044 -2.96989 0.97397
4.51308 9.99415 1.44113
8.96781 4.09724 1.29788
-7.25784 -1.60841 0.977358
6.83226 -4.25463 1.06981
4.92644 -5.94151 1.02341
-7.34384 -1.11878 0.994791
-7.02326 -2.20218 0.98499
-7.06047 -2.27155 0.991279
-6.00115 -4.4028 0.995022
5.18435 -6.55972 1.11444
6.90282 -4.17152 1.08593
8.03485 7.13591 1.45591
-7.1609 -1.72053 0.990523
-7.09184 -1.95826 0.989944
8.7622 4.83746 1.35951
8.2983 5.84941 1.38051
-6.92998 -3.62373 1.06598
8.83759 4.14772 1.33916
3.3095 10.4011 1.49413
-7.32315 -1.20164 1.01631
-6.01644 -4.44615 1.02922
-5.99693 -4.54508 1.03046
7.13981 -3.92969 1.12026
8.03672 6.45758 1.42595
5.31923 8.99044 1.44656
-6.3896 -4.32646 1.05821
4.93177 -5.52457 1.02888
7.17734 -3.82551 1.13205
7.55019 -3.68175 1.1624
3.58468 9.94436 1.47183
3.39826 10.2249 1.50207
-7.37983 -1.08368 1.04179
-7.08261 -2.00633 1.02626
4.97126 -5.28656 1.01456
7.23887 -3.73357 1.14439
7.35484 -3.66818 1.16581
7.86223 -3.35216 1.21518
-7.1639 -1.87712 1.05366
-7.01662 -2.94944 1.10341
-6.01424 -4.37804 1.07024
7.89671 -2.77931 1.22497
8.20631 4.60593 1.37888
4.96145 8.49933 1.44243
8.34346 4.493 1.40066
7.82243 -2.33838 1.20364
7.12056 5.66835 1.36302
2.93361 9.36349 1.46696
-7.10253 -2.02197 1.10723
7.47745 -3.10705 1.22081
8.20318 4.53352 1.42082
5.75851 7.40582 1.42459
5.26446 7.59483 1.4082
5.09939 7.90055 1.42836
5.05238 8.00753 1.43304
7.32824 -3.16742 1.21947
7.6727 -2.75375 1.2415
-6.76364 -1.68466 1.05037
7.82438 -2.25474 1.2488
7.21146 5.40851 1.38429
-7.1121 -1.95478 1.14506
-6.92784 -2.78909 1.1612
6.79243 5.50947 1.37196
-7.36553 -1.09726 1.16366
-7.15307 -1.8264 1.1567
-7.05488 -2.06997 1.15247
-7.12964 -1.87477 1.15735
-6.9029 -2.9376 1.17814
4.78714 7.42268 1.40473
3.44656 -6.03246 1.10948
-7.28548 -1.30116 1.18608
3.52845 -5.70833 1.08117
3.5654 -5.61381 1.07058
7.05954 4.7586 1.38743
4.64154 7.34619 1.41429
-7.07967 -2.02596 1.2006
-7.10181 -1.94934 1.20896
6.95507 4.81949 1.39954
3.79854 7.89117 1.44994
6.05206 -3.31866 1.14988
6.62361 4.86587 1.37048
4.64456 7.13858 1.42068
3.83673 -5.30103 1.09992
7.09637 4.41897 1.40773
7.46847 2.8558 1.35142
6.30998 5.27489 1.39403
-7.28909 -1.25746 1.26014
6.74586 4.07853 1.35393
-6.45715 -2.77468 1.19965
5.5092 -3.62951 1.13338
5.69034 -3.51832 1.14873
2.73936 7.80655 1.43023
-7.38324 -1.04104 1.29323
5.3336 -3.7833 1.13996
-6.317 -2.26185 1.16398
-6.27727 -2.41902 1.17841
4.28142 -4.665 1.10732
4.49425 -4.47744 1.1129
4.59186 -4.4492 1.12177
-6.80913 -1.73464 1.23831
4.32001 6.48122 1.3895
-7.16963 -0.929589 1.29287
-6.14972 -2.25981 1.16753
6.63383 3.68882 1.3608
6.09337 4.35709 1.35885
3.60935 -5.32844 1.17047
5.13821 5.67475 1.40032
2.50365 7.16422 1.42548
6.48104 3.05028 1.35446
-1.70646 -5.78293 1.1415
6.42565 -1.38581 1.24729
6.27009 2.77654 1.32035
6.21593 2.38057 1.3281
-4.46723 3.95321 1.40327
4.32165 3.53155 1.33497
4.20766 3.28954 1.32227
4.66508 -1.67771 1.2449
4.81843 -1.38087 1.25398
-2.15536 4.83041 1.3224
3.72804 -2.95379 1.22278
3.67414 -2.55026 1.19401
3.40787 -2.9628 1.22629
4.00001 2.56667 1.32819
-2.59373 -3.53331 1.25095
-2.32507 -3.56923 1.2162
3.75117 2.05576 1.30051
3.72796 1.97824 1.29998
-2.85188 3.49757 1.39303
-2.29518 -2.41815 1.18724
1.95763 -2.78418 1.21417
-2.12882 2.77494 1.32938
-2.03347 2.76294 1.33554
2.25264 -1.8712 1.22632
2.38183 -1.49925 1.22318
-2.01872 1.88018 1.29911
-2.06325 -1.44227 1.22838
1.45153 -2.0727 1.2471
-1.99131 -1.08723 1.21451
-1.92397 -0.707354 1.2202
-1.92573 -0.703154 1.2458
-1.95513 -0.344229 1.22936
-1.89203 -0.564451 1.23018
-1.89166 -0.530675 1.23528
8.20832 -8.68714 -7.45492
12.0866 -10.2542 -8.77202
-8.85048 15.8006 -7.02853
20.3333 24.7598 -11.5081
-8.82042 -2.52602 -2.5853
-34.8501 -23.28 -7.74173
-34.4372 -22.521 -6.07101
-34.1682 -23.2201 -6.13464
-31.485 -20.1925 -2.81266
9.26259 -8.82238 -0.390843
-7.81166 16.8381 -0.457914
-29.6802 -11.4853 0.733391
-6.93205 -8.28497 0.461553
16.4754 23.6579 1.5665
11.2835 15.8687 1.6106
-6.70457 -6.67758 0.885011
4.17971 12.1279 1.47821
8.68416 9.04579 1.46683
7.96786 -8.75909 -10.3738
8.82653 -8.53441 -10.4909
6.95261 -11.9301 -11.5074
6.86838 -11.3437 -10.8896
8.14783 -8.26009 -9.5274
7.01806 -12.0228 -11.3204
7.06197 -10.9669 -10.4505
7.9976 -8.37298 -9.19872
6.72371 -11.2786 -10.2834
6.44157 -11.6909 -10.2078
7.75316 -8.8459 -8.96744
6.20165 -14.3083 -11.8015
8.29349 -8.69564 -9.09586
6.29636 -11.903 -10.1702
6.14421 -12.0821 -10.1079
7.48673 -9.43975 -8.99597
7.90516 -9.05123 -8.92212
10.4552 -9.43892 -10.4763
6.11742 -14.1085 -11.3666
6.09942 -13.6648 -11.0025
6.12794 -12.5706 -10.2862
9.18799 -8.8177 -9.34207
9.27571 -9.06414 -9.4592
5.86179 -12.4992 -10.0292
9.35156 -8.98095 -9.2534
6.8567 -11.1183 -9.27081
5.61276 -12.9642 -9.99908
9.68087 -9.07079 -9.40203
7.60452 -9.33875 -8.46764
9.98538 -9.17586 -9.52737
10.904 -9.48198 -10.1397
11.4245 -9.68489 -10.0586
8.37952 -8.60275 -7.95103
7.42648 -9.29343 -7.86041
8.16226 -8.71291 -7.89151
7.62334 -9.34628 -7.891
7.83208 -9.39637 -7.84015
8.31538 -8.53009 -7.61532
0.361013 15.8804 -10.1344
7.52303 -9.31845 -7.62154
10.8959 -9.59416 -9.23084
7.22034 -10.6939 -8.16682
8.15034 -8.49239 -7.42329
4.61121 -15.4016 -10.1113
8.70848 -8.69569 -7.6143
7.9167 -9.02719 -7.40631
4.0468 -18.0143 -11.3733
8.1929 -8.6225 -7.27152
4.08521 -17.306 -10.8503
0.14682 14.8863 -9.05765
6.6497 -11.2547 -7.95916
7.73809 -9.26275 -7.32346
10.1121 -9.30005 -8.33647
6.81585 -11.2438 -7.89361
8.05526 -9.19854 -7.33961
11.2513 -9.68174 -8.87483
5.39758 -13.8497 -8.8161
7.73023 -9.26059 -7.15396
9.34242 -9.0253 -7.69731
6.89726 -11.1076 -7.73863
7.97831 -9.12227 -7.11121
9.74218 -9.1776 -7.8003
14.8105 7.40054 -9.61484
8.66029 -8.82395 -7.14432
6.9279 -10.9569 -7.45052
2.6386 -11.2072 -6.62196
7.85479 -9.06584 -6.87019
9.59441 -9.13 -7.52352
10.7787 -9.48292 -8.09891
3.27914 -20.5997 -11.7306
6.79651 -10.9752 -7.23724
10.0936 -9.27976 -7.67862
12.3159 -10.3341 -9.01616
9.23143 -8.99882 -7.2039
4.61221 -14.283 -8.368
7.99784 -9.20949 -6.77448
14.7325 7.53194 -9.08323
9.68643 -9.09675 -7.29809
0.837854 17.4661 -9.54828
2.74142 -19.8589 -10.9313
11.1138 -9.63091 -7.98494
4.22885 -14.4077 -8.12844
14.6462 7.65914 -8.9019
15.0277 10.3753 -9.80396
13.9837 7.71441 -8.53269
10.9339 -9.60327 -7.73879
13.2347 -10.7776 -9.07961
3.04366 -19.3345 -10.2894
11.337 -9.80883 -7.62819
2.16818 -20.3832 -10.3461
10.2456 -9.32797 -6.96758
14.2349 -11.2592 -9.11284
13.7713 -11.1388 -8.86734
10.9891 -9.63864 -7.2826
7.50132 -9.32885 -5.92827
3.56143 -8.4643 -4.52568
-8.71804 -1.91417 -4.38845
2.22363 -20.1695 -9.95248
4.52973 -9.29485 -5.05691
0.404662 13.6561 -6.68735
7.60026 -9.26093 -5.84622
-8.55382 16.3254 -8.92694
-9.22037 -2.43751 -4.59537
14.952 -11.5465 -9.07878
19.3078 5.52432 -9.60354
-10.3387 -2.55972 -5.0378
1.90898 -20.557 -9.81713
17.1224 16.0901 -11.1272
7.57223 -11.1949 -6.37751
19.9556 5.38634 -9.73353
13.9936 -11.0791 -8.30025
2.92544 -17.3133 -8.16483
19.2851 5.706 -9.29061
17.78 -12.9575 -10.1628
9.84818 -2.48749 -4.69306
20.2092 5.12221 -9.61848
17.2464 16.2175 -10.9078
1.80998 -20.2312 -9.29599
9.65793 -9.03109 -6.05484
-9.23052 -1.67544 -4.2785
9.43702 -3.46273 -4.57819
6.70274 -11.2995 -5.97606
9.89532 -2.61367 -4.64215
19.1782 5.84799 -9.02605
17.6246 17.4815 -11.1584
9.35343 -3.08111 -4.43259
15.381 -11.8355 -8.70973
7.02562 -11.5433 -6.04452
7.14061 -10.9006 -5.80866
9.54293 -3.3989 -4.5142
-10.084 16.5291 -8.62074
17.5893 -12.837 -9.6768
19.4635 5.60688 -8.9772
16.0512 7.28049 -7.80428
17.7301 17.908 -11.1439
16.372 -12.1763 -8.99304
-11.3553 17.2682 -9.08479
-6.61331 15.1149 -7.23434
-5.25306 4.92723 -3.13833
20.058 5.44607 -9.03551
9.54188 -3.39918 -4.37136
18.1191 18.3643 -11.0871
15.7712 -12.1368 -8.56365
14.8164 7.40801 -7.06917
3.83489 -9.29328 -4.2715
-11.2767 17.1516 -8.69051
6.93322 -10.8891 -5.44351
-13.6397 3.34274 -5.91685
0.743061 -22.4088 -9.44843
15.759 -11.9322 -8.26683
-5.18402 5.70864 -3.22654
0.998749 -22.2732 -9.34603
1.2312 -20.7847 -8.72273
14.1279 7.57709 -6.70482
18.4442 19.2208 -11.1292
3.77944 -8.94707 -4.05041
14.7282 7.70704 -6.91879
17.8186 19.0301 -10.8178
-9.53469 -1.09431 -3.96176
4.00474 -8.49712 -3.84867
13.9949 7.72745 -6.56217
6.83267 -10.969 -5.28358
-13.6773 2.555 -5.69204
-8.04276 15.5821 -7.12646
19.1353 20.7922 -11.4466
15.0295 7.22159 -6.71785
-5.32033 14.5314 -6.20499
13.9136 -11 -6.94727
1.52944 19.1985 -7.47926
-8.83852 15.9637 -7.09154
18.9262 5.7718 -7.6662
-1.76065 13.3461 -5.21434
5.28961 -9.38329 -4.15411
-2.39636 13.5715 -5.29356
19.4546 22.5048 -11.4055
4.65668 -8.50849 -3.68361
19.3504 5.55122 -7.65997
0.877878 -26.6054 -10.116
14.8598 -11.451 -7.06037
19.9065 5.39303 -7.71866
9.42789 -3.4349 -3.75137
0.53394 -22.7529 -8.48105
3.24349 -10.7782 -4.20527
20.0468 23.3223 -11.4197
0.909826 -8.72411 -3.25279
13.9884 -11.0781 -6.57992
20.3123 5.16621 -7.70588
17.784 17.5724 -9.13553
-13.088 2.29291 -4.83087
20.6865 24.7026 -11.6847
2.28346 -13.2396 -4.8404
13.001 -10.5137 -6.0168
0.796139 15.4182 -5.52358
-8.21459 -2.80326 -3.10459
0.410027 -21.9077 -7.83235
-4.25775 13.9759 -5.19738
0.638429 -21.9704 -7.8107
15.8044 -11.9365 -7.02008
-15.9332 18.4202 -8.58391
5.92047 -11.3234 -4.49293
-11.1592 16.8405 -7.05672
0.093158 -18.557 -6.52292
14.2243 -11.273 -6.34654
20.2673 5.33757 -7.31508
0.657906 -23.098 -7.97997
-5.07018 14.7204 -5.33518
3.63653 -8.44191 -3.16411
4.87189 -9.02457 -3.51443
-14.6925 18.2412 -8.01794
2.27322 -10.8784 -3.80861
-8.99737 16.3223 -6.35395
3.02092 -13.6689 -4.77307
-15.1739 18.6245 -8.14473
20.0859 5.46106 -6.99598
21.8563 27.0372 -11.6183
35.7975 -20.2079 -13.738
-5.36833 14.2403 -5.05519
1.90916 20.6757 -6.88881
1.2669 -10.2455 -3.41342
-5.3145 14.6352 -5.05789
-12.7501 17.4554 -7.01294
18.4897 -13.1755 -7.37323
3.55803 -8.66843 -3.00426
6.21147 -10.0994 -3.79991
2.3122 -11.0027 -3.5779
-4.60905 -34.6143 -11.098
-1.14594 -23.9943 -7.64589
14.963 10.3051 -5.73328
-13.3827 17.8084 -7.04181
-18.2374 19.6709 -8.43292
6.9496 -11.0755 -4.04257
1.3865 -21.9339 -6.79866
-2.59701 -27.6524 -8.52463
7.12261 32.8879 -10.2672
0.771173 15.0078 -4.56409
-11.2807 17.021 -6.15528
-2.72713 -26.7705 -8.10293
-14.5354 18.174 -6.94438
-5.35417 -35.102 -10.5717
0.840231 -25.1549 -7.52521
-5.46181 15.0239 -4.75596
2.07425 20.6238 -6.10628
-21.5683 20.1109 -8.70092
18.1514 5.77617 -5.60655
-4.34726 14.604 -4.48091
-8.02956 15.5785 -5.14263
4.25167 -9.13445 -2.96139
4.62984 -11.6011 -3.65246
-12.6644 2.231 -3.69587
-33.5789 -47.5645 -16.7525
-15.3986 18.5248 -6.92546
6.94579 -11.0626 -3.76073
2.56172 -9.5386 -2.80631
12.9041 -10.445 -4.72465
-8.46525 -2.46364 -2.4999
20.8968 26.9497 -9.66095
-8.59323 -2.26485 -2.51113
-2.58139 -26.3347 -7.42492
-13.073 2.00327 -3.68306
4.38109 -11.3122 -3.36713
-9.43291 16.2227 -5.15264
-13.2306 17.6457 -6.05836
-5.46396 14.5842 -4.25752
-8.64658 -41.9858 -11.7274
-21.7642 20.3101 -8.00331
-9.85878 16.3484 -5.11685
-27.0854 20.8065 -9.08673
11.3914 11.465 -4.26407
4.32009 -11.2778 -3.19953
46.6931 -13.5737 -12.8821
-8.35003 -39.4018 -10.5852
4.08524 -8.64832 -2.51851
11.1491 -9.91666 -3.90349
-14.6441 18.3358 -6.10229
6.52756 -10.4098 -3.18034
3.17491 -9.63669 -2.62306
-30.6508 -44.8912 -14.0353
-4.42354 -29.0115 -7.59185
3.5364 -10.3587 -2.82248
4.06384 -9.37714 -2.62685
15.56 -11.7 -4.96749
-7.25351 15.4538 -4.32173
-32.084 -42.788 -13.5609
4.30516 -11.1273 -3.01982
4.25188 -7.69852 -2.23828
6.52597 -10.645 -3.11405
44.4119 -13.4275 -11.5684
-28.6671 21.6282 -8.87862
-11.6819 17.163 -5.11873
-28.034 -40.8952 -12.1901
-10.0731 -39.646 -10.0889
-24.8127 20.8407 -7.96346
4.34396 -10.3177 -2.7506
-12.222 17.5069 -5.17741
-7.94864 15.4878 -4.19655
10.2571 -9.25199 -3.30753
39.9638 -13.275 -10.0774
15.0696 7.53641 -4.01088
-6.42042 -36.7648 -8.88929
3.96169 -9.07848 -2.3471
46.5672 -12.4633 -11.4416
-12.4116 -45.697 -11.2162
3.85037 -11.0435 -2.75658
4.90314 -8.68391 -2.34607
-12.9463 17.6428 -5.09329
10.9864 -9.62792 -3.33885
-6.27895 -31.8382 -7.40371
-27.5209 21.2559 -7.88289
41.1872 -9.00732 -9.56793
-30.9252 22.4533 -8.56866
-35.8228 -23.4755 -9.59626
40.3907 -12.486 -9.49258
5.44716 -9.46137 -2.43755
-12.4532 2.84155 -2.80267
40.2636 -11.7991 -9.27046
42.2154 -12.0453 -9.65872
-5.4538 14.3104 -3.34918
13.3564 -10.7477 -3.77371
37.7683 -12.1375 -8.72149
-23.6961 20.6524 -6.81854
-30.5507 -75.319 -17.6347
4.30301 -9.68504 -2.29828
4.53292 -9.16768 -2.20908
-14.7679 18.3994 -5.03891
-31.3712 22.7874 -8.27971
-32.2651 22.8974 -8.45777
-29.2011 -77.4735 -17.7447
-10.8299 16.9227 -4.26073
-8.58832 -36.455 -7.96333
3.18522 -9.66988 -2.1711
3.95955 -9.81278 -2.25626
45.3615 -10.517 -9.94027
14.9025 7.46441 -3.53325
-15.3515 18.8979 -5.15535
5.15728 -9.04306 -2.18719
26.263 37.9982 -9.65145
14.9412 7.81944 -3.50088
-30.4559 -23.5212 -7.98243
-11.5954 17.0847 -4.1964
-15.8182 18.7024 -4.98708
-35.6881 23.9564 -8.73455
44.0227 -9.60222 -9.18873
-13.5456 -43.5854 -9.27513
4.12909 -9.71838 -2.14841
11.5786 -9.62496 -3.06352
-12.1489 17.4347 -4.24243
-20.4858 -58.7933 -12.4415
-13.2199 -41.0656 -8.54025
4.06301 -9.90484 -2.11975
-34.4774 -23.5753 -8.23331
-27.0739 21.2487 -6.77397
-33.4974 -23.9612 -8.02792
-6.98221 15.4295 -3.28791
-27.3435 -64.2476 -13.5612
-33.9041 -22.571 -7.84855
3.4304 -9.34746 -1.92277
45.4424 -10.5287 -8.95749
-12.9039 17.6182 -4.1752
3.9831 -9.33071 -1.93616
-36.829 -22.3709 -8.15668
-21.5709 -35.0413 -7.82509
-15.9339 -45.9747 -9.20562
37.6015 -12.4039 -7.48533
-36.4642 24.4904 -8.22072
-34.0461 -23.513 -7.77252
-32.9881 -24.1354 -7.67245
-21.8471 -54.1236 -10.9812
-17.2571 -46.8745 -9.26444
3.81586 -9.19641 -1.8391
42.2019 -11.3741 -8.11675
5.74883 -9.69796 -2.06623
-25.1693 -57.0719 -11.4187
-20.9261 -51.9393 -10.127
-14.7355 18.3682 -4.17588
-31.4257 -25.3455 -7.17607
-20.5078 -27.3273 -6.10947
-39.9458 25.2063 -8.334
-27.0845 21.2665 -5.99388
-34.5459 23.6395 -7.26821
3.9027 -10.0325 -1.8667
4.76644 -8.60276 -1.70919
13.9618 7.49786 -2.73304
14.0338 8.05322 -2.7709
-31.2223 22.7044 -6.61831
41.8842 -11.8499 -7.41092
41.6867 -10.7965 -7.33085
-31.5828 -25.0827 -6.84141
-21.3117 20.2966 -4.94233
-20.8862 -51.9145 -9.45408
14.8147 7.42512 -2.77895
-32.1055 22.7288 -6.57096
-24.1753 -57.6375 -10.3268
43.1875 -11.6343 -7.27023
-10.4741 16.6284 -3.17172
-21.1848 -52.5559 -9.03654
-35.2623 -24.3418 -6.75162
-23.0371 20.24 -4.80202
-24.459 20.8797 -4.98441
-40.6576 24.6168 -7.36522
-11.352 16.9906 -3.15487
3.4665 -9.5136 -1.56603
3.86185 -10.2123 -1.69062
-7.71632 15.651 -2.66584
-31.4574 22.8955 -5.94765
-32.0879 -24.7838 -6.16505
-28.2306 -26.4065 -5.85583
41.8725 -10.8855 -6.57651
44.482 -9.69102 -6.93606
-6.62435 14.7553 -2.42059
9.81988 -5.14733 -1.64551
-33.8392 -24.4067 -6.21304
10.1758 -9.14914 -2.03934
44.6198 -10.3222 -6.80167
-37.0466 -24.6614 -6.54958
-31.8442 -26.2664 -6.03819
-12.9457 -42.8931 -6.5916
16.8624 -12.1999 -3.04887
-25.6853 21.1474 -4.83524
-25.3315 -56.7578 -8.95563
-7.71228 15.4473 -2.46929
-12.8543 17.5262 -3.09913
6.02164 -11.5043 -1.8556
-13.5645 18.1304 -3.18095
-35.1538 23.7471 -5.96437
6.74606 -11.0194 -1.80596
37.3216 -12.3168 -5.52795
-31.4708 -25.2175 -5.62804
-33.432 24.0259 -5.70339
-21.0666 -50.7739 -7.59183
44.7689 -10.0153 -6.32615
-6.95937 15.3915 -2.30888
-23.3037 -60.819 -8.84692
7.74008 -9.3669 -1.63072
-14.1609 18.0813 -3.09628
13.184 -10.5152 -2.28192
-22.4749 20.4436 -4.08557
41.794 -10.8058 -5.73131
44.4974 -9.74671 -6.0296
-22.8572 20.1145 -3.98153
-33.0234 -24.7109 -5.38711
-15.0621 18.4441 -3.0792
-34.4566 22.9979 -5.37832
-38.7057 -16.3431 -5.42454
7.00398 -10.4163 -1.61058
10.7411 8.79397 -1.78218
-34.1485 -23.5329 -5.30701
-31.8318 23.2379 -4.98549
-35.943 -22.4288 -5.31012
41.6615 -10.7743 -5.38549
6.78374 -10.3489 -1.54629
-7.75034 15.5024 -2.14643
-25.3053 21.2483 -4.04622
-33.8235 23.8377 -5.10437
6.28018 -12.0446 -1.65493
44.4506 -9.4834 -5.56731
14.9555 7.83528 -2.02969
-18.3198 -44.3695 -5.78784
7.07365 -10.513 -1.52575
-20.6631 9.15761 -2.67504
-14.6337 -44.2661 -5.48147
-32.1737 -24.8054 -4.75015
-31.6548 -25.3158 -4.74297
41.7417 -11.1814 -5.07922
11.209 -9.65292 -1.71386
-30.2482 22.9355 -4.36741
6.62983 -10.8024 -1.4511
7.4786 -9.20754 -1.35691
11.5598 -9.70415 -1.71434
9.43891 -4.60472 -1.18923
14.9342 7.67428 -1.89211
-10.4685 16.6658 -2.2214
-32.5932 23.816 -4.52229
38.6052 -12.7083 -4.55813
9.34162 -9.00845 -1.4358
-11.1902 16.783 -2.19304
6.7753 -12.7558 -1.56469
44.5904 -9.69106 -4.94711
10.7386 8.82453 -1.49772
16.7177 -12.4184 -2.23529
41.9348 -10.8761 -4.64236
9.60308 -8.96377 -1.39181
8.36757 -8.45256 -1.24601
-31.211 -24.9761 -4.16226
-30.9712 -62.1221 -7.24095
14.9314 7.48826 -1.70642
-32.1124 -24.7607 -4.16034
-12.9996 17.7212 -2.2318
-12.9142 17.3019 -2.14618
10.1897 -9.07209 -1.33658
-21.3833 -54.3054 -5.72149
6.30044 -12.0656 -1.31754
16.5883 -12.1362 -1.97586
41.8243 -11.2387 -4.15159
-31.538 -63.7503 -6.76092
-21.3799 -56.1071 -5.70185
-23.5708 20.6171 -2.92753
45.2795 -10.0729 -4.3329
9.70023 -8.97198 -1.22322
39.4248 -13.0052 -3.86881
-15.1852 18.6145 -2.17564
-29.9146 -13.639 -2.99673
-33.1914 -64.7039 -6.70269
15.8084 -11.8324 -1.79642
8.62333 -8.71416 -1.11019
12.8595 -10.6149 -1.45212
44.8692 -10.3998 -3.94589
9.38645 -9.01314 -1.09395
10.9301 -9.62529 -1.22425
-34.5839 23.7503 -3.49118
16.7874 -12.242 -1.72106
-17.2824 -44.9718 -3.85872
14.6405 -11.4479 -1.48214
-11.9099 -33.3421 -2.79442
-30.1794 22.947 -2.93192
-33.505 23.6825 -3.16741
-23.2442 -53.0959 -4.47452
-51.9364 28.2659 -4.4775
-21.6232 20.3506 -2.16002
-33.7346 23.8616 -2.99458
16.3258 -12.1986 -1.49101
41.8495 -11.1989 -3.1565
-40.5361 -76.698 -6.26043
13.9367 -11.0267 -1.27196
-15.8581 -42.0675 -3.10283
10.7451 -9.59606 -0.987094
-23.5953 20.6598 -2.11809
12.838 -10.5933 -1.11428
17.8887 -12.9745 -1.47343
15.9901 -12.0946 -1.32424
-14.953 -41.4584 -2.85084
43.5872 -11.336 -2.81544
-32.7333 -66.3229 -4.5133
35.6329 -8.64453 -2.25048
42.7729 -9.78998 -2.69409
6.03018 -13.0349 -0.858551
30.7002 -20.3142 -2.20321
-9.95358 16.616 -1.13879
-15.854 -41.3564 -2.52196
16.5551 -12.3724 -1.16059
-9.71766 -12.5974 -0.871803
14.9217 7.65539 -0.906604
13.8642 -10.9749 -0.946976
-12.9218 17.511 -1.13675
-16.77 -41.5658 -2.3804
14.8161 7.79076 -0.820268
-16.6037 -42.4411 -2.23613
-14.3018 18.1275 -1.10421
9.54954 -9.00775 -0.602151
-24.5672 -56.3542 -2.78188
12.4217 -10.2116 -0.745574
-16.3463 -45.5669 -2.14936
-17.5354 -43.2037 -1.99627
6.83543 -12.6216 -0.636912
-14.2058 -43.3037 -1.94138
-53.3817 29.0308 -2.46131
18.2688 -13.1248 -0.913081
16.7449 -12.4464 -0.812695
-42.8473 -83.1627 -3.52958
-18.6334 -48.8629 -1.92615
-34.0363 23.386 -1.51013
42.3263 -10.9059 -1.57416
-35.4481 -70.5124 -2.64068
-26.4927 -58.0587 -2.14888
19.9968 23.1273 -1.01474
-21.6665 20.3035 -0.967266
8.08745 -14.2737 -0.551119
9.40609 -8.97955 -0.421571
11.2754 -9.92633 -0.488368
18.5225 -13.0968 -0.745703
34.6258 -13.0597 -1.22836
21.7575 26.3374 -1.09494
-27.5664 -13.8271 -0.966503
-23.1433 20.6091 -0.944205
-32.0623 22.7081 -1.22587
-25.5977 -58.85 -1.98788
-14.0559 -39.7636 -1.29922
-22.0391 -56.2188 -1.82857
-16.9648 -45.9782 -1.40427
-34.3288 -20.8143 -1.06913
11.4245 -9.69181 -0.401401
16.2851 -12.1126 -0.535155
-41.5929 25.7307 -1.28943
-30.6403 23.3143 -0.952198
-31.1617 22.8376 -0.913012
9.55194 -8.99204 -0.303932
-41.7673 14.4358 -0.976321
-32.0391 -53.6498 -1.40765
21.1769 -14.1632 -0.560185
30.3064 -18.3768 -0.800242
14.1935 3.92249 -0.300255
26.9462 47.0874 -0.996518
23.4459 -10.9153 -0.455616
46.793 -10.7749 -0.893449
-30.9027 -22.2078 -0.693817
-29.8903 -29.3583 -0.664339
-19.369 -47.5267 -0.854977
12.6895 -10.435 -0.270376
18.4511 -13.3326 -0.348038
-29.4754 -13.1011 -0.423266
-33.1446 -24.8047 -0.575914
-34.2838 -69.1135 -1.04212
-28.3994 -60.443 -0.915567
-34.2511 -23.3917 -0.541404
-30.6604 23.3259 -0.453126
16.9395 -12.65 -0.251154
29.1407 -18.0686 -0.40375
-31.1176 22.8447 -0.429365
-19.4392 -44.5828 -0.520719
-12.2221 -36.7873 -0.390691
-34.1343 -60.1439 -0.637587
-14.475 18.3612 -0.17914
-26.8846 -13.5544 -0.242912
-15.1719 18.4943 -0.163266
-22.7937 20.3568 -0.156868
-21.2169 19.9006 -0.131943
-10.5996 -13.6267 -0.060553
14.6843 7.71399 -0.0198654
11.0848 -9.7472 -0.00779805
-34.7973 -19.0592 0.0607106
-11.5212 -34.241 0.117265
16.9002 -12.2785 0.0905878
-19.1507 -43.9663 0.212715
18.711 -13.1833 0.121478
7.15758 -12.3037 0.103872
25.8939 -10.6237 0.172065
-56.1074 20.0342 0.568842
16.1966 -12.0034 0.192419
37.237 -7.60237 0.358536
-29.2713 -8.25386 0.356024
-36.6305 -22.1095 0.472027
-11.4991 -32.9463 0.373936
-12.9134 -35.7835 0.452518
-10.4382 -32.0846 0.404472
6.31141 -12.9006 0.183353
7.19857 -11.0899 0.173852
-28.5061 22.3764 0.555523
11.2891 -9.85924 0.225327
-24.3818 20.8507 0.530119
10.8779 -9.7127 0.228875
12.9396 -10.6523 0.264036
36.1966 -7.74655 0.615781
-34.8867 -23.3735 0.763941
-31.6009 22.5948 0.763481
6.12449 -12.7961 0.275304
7.00753 -11.0279 0.251742
8.01324 -9.40299 0.241269
26.8751 55.2612 1.33713
7.71658 -9.42856 0.275474
10.1109 -9.15784 0.329118
-29.0065 -9.30125 0.73402
-23.5637 20.5675 0.846901
-27.8978 21.9973 0.95421
-29.1358 -8.7485 0.801916
9.17469 -8.8809 0.344948
9.608 -8.92991 0.357562
-25.8796 21.8115 0.920293
25.271 -5.11236 0.717849
12.9493 -10.623 0.498931
14.6676 23.8945 0.865309
6.17182 -12.7322 0.445293
7.44016 -11.598 0.432437
-28.6557 -8.08183 0.977181
-12.6921 -19.433 0.764641
-28.3358 -8.85633 1.02672
16.0389 10.9778 0.702612
-30.0729 -18.6351 1.23673
15.585 27.0724 1.11512
-30.6898 -16.7404 1.29563
23.4446 -4.23349 0.860743
-28.06 -19.9568 1.276
-7.31061 -7.97108 0.408319
9.03651 -8.81192 0.469189
12.3594 13.52 0.706501
25.4273 52.4544 2.20812
24.3049 51.7475 2.15329
-11.5938 -9.17701 0.583192
8.70942 -8.65517 0.485743
-25.9631 21.3873 1.36633
21.7567 -2.9486 0.889524
-29.03 -17.6329 1.39158
9.39778 -8.91091 0.531009
12.3799 14.2581 0.812598
6.55853 -12.4205 0.596495
14.7351 19.146 1.06237
20.5372 28.3674 1.53408
-9.53447 -13.8632 0.739574
-10.0296 -15.6859 0.826456
7.58137 -10.9268 0.58597
8.6105 -8.6998 0.553164
24.0871 -3.68992 1.10025
-30.0765 -8.76473 1.43024
6.72728 -11.0595 0.595635
-8.29341 -8.1617 0.547767
20.9087 42.1855 2.2529
-28.7896 -17.7931 1.59993
-9.80891 -13.7589 0.80428
9.64272 -8.94674 0.619554
15.1024 41.9686 2.15938
-30.4894 -13.5047 1.59183
-6.77685 -8.26198 0.525953
14.2855 33.2213 1.84549
-29.9674 -11.7353 1.61534
-7.60805 -6.99586 0.522619
-6.71271 -7.60957 0.513481
15.8974 28.798 1.70828
10.4791 12.2534 0.871509
14.0912 19.1758 1.27789
9.32787 -8.90912 0.691127
14.6766 19.0962 1.33004
15.1021 23.3251 1.53028
-27.8238 19.5908 1.866
-6.98822 -8.21267 0.59815
-26.7496 20.5249 1.87539
6.07416 -12.8252 0.79405
-7.12391 -9.18084 0.662819
9.88824 12.351 0.930663
14.7153 24.7935 1.68459
6.44115 -12.9366 0.831749
13.6735 22.3079 1.54568
-8.2802 -8.13912 0.699726
11.4624 11.5415 0.970178
14.525 19.3184 1.45233
-7.41882 -10.043 0.776637
6.99173 -11.1419 0.80167
11.2324 -9.68853 0.899269
5.85283 -10.7292 0.758457
-7.20917 -6.66352 0.61364
14.3214 20.3159 1.57291
16.0654 7.13122 1.14136
-7.0499 -6.15956 0.614494
6.44126 -13.4009 0.990969
9.26626 20.9308 1.54429
10.341 12.4641 1.10732
13.4146 18.038 1.56804
12.2496 20.3096 1.64131
11.2675 11.9025 1.15055
6.58359 -9.81839 0.837188
11.4163 11.6801 1.18211
9.78431 -6.90676 0.852199
12.2731 11.8814 1.25471
9.90086 -8.36114 0.949371
-6.19441 6.7136 0.682427
10.3713 9.13223 1.0382
11.7942 17.6343 1.59636
11.3458 18.0761 1.60821
-6.96094 -7.71581 0.80598
10.7243 18.51 1.64148
9.48925 -8.93412 1.00725
-6.42527 -4.30539 0.610238
9.06856 18.1687 1.62278
10.0567 -6.88168 0.975742
12.3684 11.4756 1.36402
9.61969 18.6775 1.6918
-7.28597 -9.66424 0.985955
6.70243 -9.35879 0.936753
12.1559 11.6288 1.37853
12.0593 11.8599 1.40466
11.3391 11.852 1.35806
-5.06946 -11.5704 1.06266
10.2296 12.7985 1.39422
-6.97378 -6.09399 0.797916
-6.83056 -6.70922 0.808938
-5.23056 -11.4719 1.07225
-7.3181 -7.76547 0.919068
9.26301 -7.23912 1.01575
-7.13827 -8.07776 0.943552
-7.03331 -7.70839 0.917884
9.31311 12.4311 1.37721
-6.96979 -8.39345 0.97486
10.7496 9.01962 1.27898
10.3745 13.3618 1.5285
10.4592 9.18587 1.27439
7.6426 13.8731 1.45694
-6.51376 -8.15538 0.956485
-6.92208 -9.04345 1.05129
11.1213 10.7261 1.42576
11.1807 9.1223 1.35043
10.7931 10.7282 1.42664
6.41207 14.8175 1.51719
-11.4752 2.93978 1.11131
-6.37022 -4.17676 0.713894
-6.81868 -6.30591 0.861487
9.35086 13.1874 1.5596
-6.06421 6.58947 0.882359
7.94648 -6.59763 1.00663
7.85934 13.1047 1.51796
-7.08496 -7.63517 1.04952
9.23672 11.5494 1.49175
6.94526 12.3316 1.43642
6.99796 12.8923 1.49551
9.47528 9.03724 1.35521
5.79866 13.8234 1.55373
9.06687 12.3316 1.59587
-6.11494 -4.46242 0.793728
5.89837 13.5533 1.55699
6.15801 13.4887 1.55892
-6.98108 -4.43453 0.884874
8.71399 8.96305 1.33281
9.07491 10.1097 1.47758
7.27364 10.9216 1.42614
5.77676 11.3781 1.38739
-6.31169 -7.42512 1.06537
10.2167 6.42095 1.33521
8.94067 8.09206 1.32938
7.25359 11.5945 1.51024
6.79086 11.5418 1.48061
5.30894 11.7889 1.43852
4.82278 11.9879 1.44565
4.65001 13.5231 1.57318
9.81572 7.01828 1.34746
8.7032 9.25141 1.41943
5.3355 11.4163 1.4191
-6.85434 -6.73617 1.06987
6.81607 10.6389 1.4234
4.27082 13.0282 1.5495
9.73404 -3.18974 1.14216
-6.11227 -5.42125 0.946144
7.27888 -6.11127 1.0789
10.3663 5.68776 1.35623
-7.39277 -0.987326 0.855015
-6.26584 -5.3634 0.949621
5.24219 -5.55046 0.879625
5.02229 11.5196 1.45984
-6.89303 -4.56585 0.958384
4.44808 -7.253 0.984008
10.3612 5.12562 1.35659
8.83449 7.84104 1.38675
-6.00904 -4.37334 0.866425
-6.49503 -5.28099 0.989176
4.08651 -7.85537 1.05311
4.96155 -5.84425 0.919789
10.1232 4.73349 1.33974
8.46909 8.22374 1.42993
5.22917 11.3921 1.53012
9.00144 6.23577 1.34083
7.96422 8.28848 1.44
-6.49961 -5.75549 1.081
3.70254 -7.56488 1.05492
8.63252 6.65602 1.37082
-6.47718 -5.35219 1.06369
9.04779 5.98464 1.38506
8.14073 7.1033 1.37853
8.07014 7.46679 1.4039
5.77038 -5.33936 1.00936
-6.98256 -4.44992 1.06313
8.05577 7.95376 1.46843
-7.36899 -1.04403 0.962014
-6.93296 -2.83043 0.978309
8.94174 4.08558 1.28753
8.36113 6.59627 1.39814
4.99342 -6.02204 1.02834
4.9115 -6.18629 1.046
6.86154 -4.27729 1.0763
-7.1441 -1.72086 0.985515
-7.0198 -2.22323 0.984829
-6.0329 -4.4279 1.00076
8.09554 6.62608 1.41832
8.57704 4.42264 1.31578
8.59544 5.14551 1.3684
7.98719 7.1015 1.4548
-6.81793 -3.73874 1.05615
8.82835 4.144 1.33502
8.22849 5.80767 1.37929
-6.40648 -4.33485 1.05878
-5.96482 -4.53071 1.02328
5.32288 8.96977 1.44066
3.60823 9.98185 1.47389
-7.37919 -1.09467 1.03351
-6.9139 -3.93261 1.10419
4.94475 -5.53893 1.02617
5.22371 -5.39359 1.04214
7.45405 -3.53251 1.15359
3.35327 10.0562 1.48523
8.37029 4.58107 1.34986
7.36592 -3.6736 1.1677
7.57715 -3.33057 1.18004
7.75133 -3.3012 1.19549
8.91027 2.8056 1.34463
4.82978 -5.63075 1.06634
7.34477 -2.8496 1.147
-6.96807 -3.30472 1.12447
7.90701 -2.77571 1.22184
8.64969 -1.81693 1.29741
4.97709 8.52136 1.45666
2.92562 9.35095 1.45747
7.72155 -1.88534 1.17146
7.20008 5.73407 1.37147
3.42533 9.47578 1.48928
3.15677 9.7044 1.51226
-7.38155 -1.04497 1.10583
-7.08433 -2.02589 1.09852
6.9174 6.26191 1.40878
-6.27038 -2.27432 1.00139
-7.25073 -1.37732 1.11454
7.9106 4.80027 1.40975
5.68109 7.32039 1.40598
5.26502 7.5914 1.40606
5.02834 7.96852 1.42455
6.75275 -3.22246 1.13157
7.23784 -3.12107 1.20709
7.62614 -2.7519 1.23549
-7.32797 -0.734088 1.12514
-7.10708 -1.95719 1.13819
6.78225 -3.08973 1.1526
3.74968 -5.78638 1.06622
-7.06265 -2.07883 1.15465
-7.35713 -1.09454 1.1684
7.3356 4.75802 1.38101
-7.20879 -1.44556 1.17022
-7.28209 -1.30298 1.18743
-7.10721 -2.0218 1.20206
7.04547 4.7468 1.38681
-7.11091 -1.94813 1.2116
6.98503 4.84799 1.41234
6.59243 4.8354 1.3644
5.18472 6.21719 1.34861
4.64936 7.13552 1.42233
3.79781 7.88241 1.45428
-7.25966 -1.3755 1.23392
2.79335 -5.77884 1.08199
7.11852 4.41406 1.41109
6.4898 5.21918 1.40501
3.8738 -5.36549 1.11577
3.93706 -5.02151 1.08019
-7.28293 -1.25426 1.25413
-6.60609 -2.62835 1.2067
7.39701 2.8403 1.34395
7.00885 3.87946 1.3652
-6.42157 -2.75614 1.18935
6.75362 4.08594 1.35511
5.67992 -3.51807 1.14998
-7.40729 -1.04118 1.29406
-6.36409 -2.28303 1.16283
5.53309 -3.64647 1.14224
5.31723 -3.77281 1.1428
3.57562 7.11978 1.40139
-6.80825 -1.73742 1.23445
4.47993 -4.46736 1.11342
-7.10244 -0.915959 1.27621
4.72471 -4.4573 1.14948
4.30821 6.46218 1.38585
6.56779 3.46421 1.34099
6.60652 3.67187 1.35786
-6.44912 -1.50237 1.19147
3.60946 -5.32724 1.17057
5.05785 5.59089 1.38044
-6.16181 -2.18565 1.19869
3.41418 -5.16016 1.15068
3.3686 6.73288 1.40839
-1.6972 -5.78039 1.14456
6.42907 2.72526 1.32887
-2.14279 -5.72659 1.17566
6.29363 2.78914 1.32533
-2.78735 -5.37637 1.18697
-3.54105 5.3777 1.39596
4.45827 3.88257 1.34922
4.15205 -2.8794 1.17729
4.62856 -2.18625 1.23687
4.18951 3.28385 1.31854
3.70911 -2.93159 1.22439
4.01067 2.56964 1.33067
-1.44248 -4.11615 1.22153
-2.32054 -3.579 1.21254
3.85326 2.36019 1.30908
-2.86963 3.53704 1.36641
-2.48027 -2.91617 1.18956
-2.37773 -2.93728 1.19448
1.8449 -2.81458 1.1831
1.86787 -2.79269 1.21311
1.99386 -2.52867 1.19931
-2.04749 2.81326 1.32412
2.80412 -0.555748 1.25918
2.78322 -0.336856 1.2408
-2.08894 -1.61899 1.21317
-2.07675 -1.45115 1.23829
-1.86174 -1.79558 1.2835
-1.9944 -1.13133 1.20481
-1.98593 -1.07029 1.23166
-1.94581 -0.880322 1.23195
-1.93024 -0.708388 1.22231
-1.92912 -0.701493 1.24954
-1.90558 -0.469686 1.22245
-1.87102 -0.345699 1.21971
-1.85584 -0.401163 1.2264
2.37746 -19.6965 -10.0111
-7.61643 -8.99221 0.466088
8.01021 -8.79106 -10.4573
8.25654 -8.62196 -10.4943
8.20823 -8.28306 -9.87729
6.95136 -11.9464 -11.3998
8.50769 -8.96466 -9.73174
7.84322 -8.92926 -9.12728
5.84549 -12.7891 -10.7217
9.41653 -8.82424 -9.73394
6.14271 -14.0846 -11.5679
8.27919 -8.67063 -9.01374
8.01004 -9.16024 -9.09983
7.28525 -9.23734 -8.76528
5.90481 -14.1409 -11.1813
7.71076 -9.29697 -8.71585
7.84805 -9.10815 -8.66086
7.12185 -10.5707 -9.07511
6.81318 -11.0621 -9.21055
10.0396 -9.18044 -9.55489
6.53282 -11.1644 -8.85582
8.02536 -8.61965 -7.84272
7.35305 -9.27147 -7.86402
8.50721 -8.67242 -8.07523
7.71194 -9.46269 -8.01998
6.47999 -12.761 -9.3461
7.92494 -9.17127 -7.90568
4.99892 -16.0302 -10.8004
-0.472136 13.9425 -8.92012
7.71973 -9.2351 -7.71874
7.32668 -10.8513 -8.33698
8.3688 -8.55696 -7.6256
10.8586 -9.60596 -9.19604
8.97942 -8.80917 -7.8893
11.744 -10.0147 -9.6732
8.06402 -8.52668 -7.22043
4.03955 -16.8394 -10.6137
4.24663 -15.3715 -9.7922
7.83599 -9.34886 -7.31065
3.951 -15.6259 -9.61143
11.4592 -9.81038 -9.03514
6.85603 -11.0642 -7.7292
7.76435 -8.81086 -6.95703
5.48201 -13.9849 -8.87539
6.48104 -12.6927 -8.34087
8.35319 -8.58547 -6.98083
9.67474 -9.06896 -7.73248
2.78825 -11.7866 -6.94302
5.47129 -13.8803 -8.44821
9.58169 -9.09301 -7.46756
6.61024 -11.058 -7.25439
3.34983 -20.7187 -11.7623
8.86839 -8.92873 -7.05486
12.1665 -10.2075 -8.8975
6.81589 -10.9939 -7.20658
4.67805 -14.598 -8.47234
6.21445 -12.6077 -7.73287
0.897322 18.5605 -10.1142
14.5791 7.70349 -8.95766
4.19942 -14.23 -8.01362
14.6855 -11.621 -10.0955
14.9314 7.41959 -8.87973
13.9728 7.69838 -8.47504
4.76108 -14.8367 -8.2798
12.0579 -10.1291 -8.28758
1.81404 -20.5065 -10.5912
11.3931 -9.83238 -7.71032
2.0815 -20.2294 -10.3196
13.9255 -11.0535 -8.99335
0.00637605 14.28 -7.16711
-7.33796 15.2561 -8.48624
10.5748 -9.58299 -7.17111
7.50472 -9.41317 -5.99821
-8.55733 16.2256 -8.86781
11.6169 -9.75638 -7.34305
10.4756 -9.56778 -6.81289
14.7422 -11.3023 -8.96048
16.6229 15.7459 -10.8755
7.47202 -11.0441 -6.3535
14.9659 7.3945 -7.83104
13.8911 -10.9999 -8.28191
-12.0306 17.2295 -9.63045
15.789 -11.9638 -9.05065
9.7647 -2.44825 -4.62391
-9.12651 -1.65919 -4.21845
18.6184 17.9655 -11.6717
3.91015 -9.09204 -4.49232
-10.2763 16.7896 -8.84238
-5.35853 4.45638 -3.13486
6.84709 -11.2729 -5.93819
9.41348 -9.07287 -5.76653
15.9654 7.28303 -7.74043
-6.66934 15.1509 -7.23246
1.49945 -18.7474 -8.13461
-11.2481 17.1163 -8.82086
9.57124 -3.3666 -4.34547
7.0065 -11.0286 -5.5239
15.7741 -11.9244 -8.27797
14.6032 7.71937 -6.9271
18.6458 19.3983 -11.2424
1.02053 -22.6611 -9.44363
-4.55077 13.9258 -6.03813
-9.95342 -1.11328 -4.15097
14.044 7.75459 -6.54902
20.314 22.0961 -12.2314
-13.1092 2.45673 -5.43358
15.0661 7.1582 -6.74478
-5.24733 14.3847 -6.16037
3.63468 -8.79971 -3.78981
13.9016 -10.9767 -6.9227
19.1848 21.4705 -11.1664
18.7417 5.77925 -7.60404
1.53763 19.2 -7.4664
-8.78497 15.8318 -6.98249
11.3769 -10.0312 -5.83451
19.1159 22.1613 -11.2706
0.683838 15.3591 -5.88656
-1.66434 12.7906 -4.96305
2.71215 -12.24 -4.81026
-8.78481 -1.25468 -3.37313
0.703415 -23.7274 -8.95682
15.133 -11.5972 -7.19097
9.48041 -3.45925 -3.8066
-14.6703 18.0872 -8.68211
-7.90292 -3.51065 -3.17173
1.09641 -10.4662 -3.87026
7.01726 -11.2194 -4.83973
14.1503 7.90084 -5.84981
-8.30629 -2.85186 -3.15807
0.790208 15.2641 -5.44881
-3.97393 13.4456 -4.96242
5.72875 -10.9708 -4.35588
15.7799 -11.9256 -7.00616
19.0126 5.87201 -6.99968
2.1021 20.5027 -7.22483
21.4601 25.9424 -11.6973
-14.9844 18.4982 -8.17379
2.96522 -13.3139 -4.69529
-8.94824 16.1669 -6.31734
18.3999 -13.0324 -7.72884
-5.06562 14.5595 -5.24426
1.36251 -22.3109 -7.40688
1.75557 19.5481 -6.48166
1.4478 -10.3184 -3.4436
38.791 -19.8293 -14.2988
6.16028 -10.0334 -3.76898
17.4952 -12.3533 -6.8603
2.11259 20.5993 -6.58814
-13.4454 17.9515 -7.07405
1.45535 -22.8191 -7.12399
-4.32542 14.8132 -4.79778
-11.0252 16.7068 -6.06906
-2.78033 -28.2791 -8.63144
3.06042 -9.45828 -3.02147
0.796414 -24.3984 -7.34077
19.0327 -13.5094 -6.92648
17.5405 5.54907 -5.39749
-7.93802 15.3695 -5.03841
4.22129 -10.4755 -3.28274
3.61402 -10.5495 -3.17421
4.23281 -10.9239 -3.28907
-13.405 17.9187 -6.22727
-9.3496 15.9847 -5.04029
-13.2825 1.99109 -3.68281
-17.0477 19.5874 -7.05319
26.1345 -17.2049 -8.4794
-3.97145 -28.3107 -7.66572
3.77834 -9.13464 -2.64507
-9.86599 16.4023 -5.0973
46.8154 -13.6692 -12.9335
10.51 -9.37386 -3.72813
-6.49166 15.0337 -4.28038
-14.5181 18.2033 -6.11221
-8.1222 -38.4219 -10.2276
4.94945 -9.55482 -2.78557
6.5453 -10.4754 -3.18704
-7.26117 15.4134 -4.33356
-10.6261 16.5521 -5.02807
-10.0554 -39.8433 -10.2174
-9.19859 -39.7061 -9.95076
10.9154 -9.62235 -3.57838
-8.02189 15.5713 -4.24979
-11.8096 17.1663 -5.04606
14.5607 7.69133 -3.90781
4.0402 -9.23797 -2.38657
15.1626 7.50914 -3.98689
3.74106 -8.89523 -2.26863
-6.60826 -32.9187 -7.77361
5.61492 -9.86457 -2.63109
44.3515 -10.7329 -10.6068
-12.9012 17.5742 -5.02033
14.8165 7.58795 -3.76551
43.4079 -9.39018 -10.0615
-9.86059 16.4265 -4.29039
3.70673 -9.23368 -2.165
42.5799 -10.9232 -9.59511
15.0739 7.4781 -3.60277
-10.7162 16.729 -4.25738
-22.1833 -34.874 -8.87862
4.81048 -9.73001 -2.34196
44.6384 -10.4519 -9.80977
-14.9006 18.4619 -4.9933
-32.5144 -23.9985 -8.56521
41.3309 -13.8292 -9.22126
14.7997 7.82041 -3.49036
-35.8829 24.2658 -8.85879
-8.50418 -34.7823 -7.24989
3.94007 -11.4722 -2.43878
44.1746 -9.53086 -9.19232
11.7473 -9.72384 -3.05858
42.6013 -10.9668 -8.76686
-27.2271 20.5462 -6.77142
6.12821 -10.2572 -2.37921
45.5108 -10.6425 -9.12939
-12.8923 17.5913 -4.21644
-27.1081 21.2443 -6.69352
15.974 12.0828 -3.82745
-6.94105 15.2813 -3.22403
-33.4282 -24.1788 -7.89625
-31.9205 -24.9959 -7.79097
-36.1111 24.0629 -8.17235
-33.9318 -22.3836 -7.68134
17.9569 5.64552 -3.51296
-34.4561 -20.7898 -7.51494
-15.3456 -44.2417 -8.72231
3.76188 -9.79856 -1.97657
-25.2187 -62.7835 -12.5815
-17.1222 -46.1264 -8.99832
3.96776 -9.6172 -1.87678
13.0319 -10.1832 -2.98296
45.0035 -10.0145 -8.28217
-14.8651 18.4368 -4.23305
-27.2635 21.3831 -6.1181
15.035 7.95872 -2.96244
-30.5831 -26.651 -7.07017
42.4612 -10.8762 -7.5262
-8.00293 15.4181 -2.94425
-9.84619 18.1345 -3.48762
44.2838 -10.4244 -7.69372
-31.0733 22.6338 -6.47278
-30.5398 -23.4956 -6.43987
-21.0025 20.0818 -4.83539
-32.7158 23.1047 -6.6824
15.8655 -11.8378 -3.24431
-10.4223 16.5472 -3.11248
-43.9654 25.8706 -8.09365
-31.9368 -23.9922 -6.39445
-33.7971 -23.3122 -6.46621
3.42646 -9.4767 -1.57617
-23.999 20.501 -4.87521
16.8494 -11.9114 -3.19677
-11.2686 16.8655 -3.08277
45.6438 -10.6971 -7.11627
-23.4284 -54.2932 -8.93402
-29.8131 22.3591 -5.57265
-38.8778 24.2412 -6.80086
-31.9641 -24.8118 -6.0365
44.2892 -9.49086 -6.74495
-34.0887 -24.6533 -6.14666
-50.7349 28.3273 -8.35542
-35.9132 -23.9546 -6.21359
6.708 -12.873 -2.10828
-7.01793 15.4738 -2.36116
-13.2356 17.8674 -3.0947
-32.5501 23.4346 -5.60661
-25.2367 -56.2029 -8.49455
-16.5165 -48.2827 -7.01706
36.447 -12.1208 -5.26834
-23.4103 20.5719 -4.14723
-32.5997 -24.4135 -5.31698
-30.9448 -25.3862 -5.2916
-34.2486 -23.5872 -5.32655
7.43255 -9.41418 -1.55115
42.5139 -10.8825 -5.6317
-33.9153 23.0786 -5.21581
-30.0173 -16.0175 -4.33677
6.03407 -7.8145 -1.2612
44.4245 -10.4415 -5.78627
-31.4571 23.1191 -4.87172
14.4605 -11.2659 -2.25244
-30.3645 22.8697 -4.59876
-33.0014 23.3289 -4.86612
-10.459 16.635 -2.27106
-31.8184 -22.8842 -4.6109
12.9572 -10.4796 -1.95107
35.5634 -11.7517 -4.3345
6.33005 -10.3227 -1.39205
11.169 -9.67868 -1.66536
16.3859 -12.2 -2.30244
-11.1751 16.7568 -2.23081
6.7383 -12.5551 -1.56181
11.5746 -9.66589 -1.67021
42.3549 -10.861 -4.80111
-39.5659 24.6697 -5.00428
44.4841 -10.3946 -4.91924
14.8695 -11.418 -1.99485
-13.085 17.6781 -2.25955
14.7215 7.79186 -1.6642
13.9638 -11.0156 -1.77695
-14.146 18.0921 -2.22786
6.38161 -12.2296 -1.32822
9.38767 -8.90457 -1.25076
16.9528 -12.396 -2.05002
-29.0998 -13.9054 -3.03806
-15.134 18.5324 -2.23073
-38.2758 -74.5681 -7.80179
-34.3068 -21.4673 -3.58328
16.0808 -12.0498 -1.80861
38.2177 -12.7163 -3.60544
11.088 -9.85629 -1.22619
42.7531 -10.927 -3.68092
-16.5467 -43.059 -3.70511
-41.4435 -81.0371 -7.09017
17.5468 -12.7863 -1.71504
-30.5719 23.1376 -2.93248
7.4343 -9.15775 -0.913152
-33.2918 23.5661 -3.02979
-16.9245 -41.8682 -3.37504
-37.9629 -71.4369 -5.75334
-36.8884 -73.8816 -5.65715
12.5391 -10.4352 -1.09826
17.0063 -12.3864 -1.42255
-40.0284 24.9188 -3.08262
43.0028 -11.0096 -2.91428
-28.8933 -13.5864 -1.91191
-41.8063 -80.768 -5.50812
14.4641 -11.2761 -1.10533
30.9083 -20.3608 -2.02322
30.8878 -19.4673 -1.99627
15.2909 7.55183 -0.884601
14.7317 7.81162 -0.85708
-13.0107 17.7549 -1.11695
-25.3528 -55.9463 -3.15616
-43.8529 -82.6482 -4.56965
9.63763 -9.07675 -0.662289
13.4132 -10.6668 -0.841925
15.8991 10.1143 -0.889927
16.1877 11.3461 -0.920068
6.80691 -12.4844 -0.676392
-20.1369 -5.94175 -0.901245
-30.6059 -54.5428 -2.75992
10.193 -13.761 -0.700179
17.9791 -12.9655 -0.906179
42.2362 -10.7887 -1.73514
-9.42693 -12.4683 -0.602945
43.7378 -10.2418 -1.76678
21.9407 26.3773 -1.16967
-33.1815 22.6825 -1.39258
-36.8916 -20.6873 -1.37677
-18.6511 -46.4826 -1.60978
16.4215 -12.2513 -0.668709
14.3477 3.88633 -0.438262
-26.6912 -61.3334 -2.00646
-23.0929 20.5708 -0.883095
-12.5947 -38.1904 -1.08181
42.6498 -9.06002 -1.21956
-42.753 26.5924 -1.36057
-55.4152 19.9263 -1.41007
43.3199 -10.0592 -0.956892
-31.4709 23.7838 -0.787881
-30.7469 9.77966 -0.674152
30.6231 53.6158 -1.13368
-30.7085 22.6636 -0.73042
12.9352 -10.5988 -0.289877
-35.0365 -21.8041 -0.639586
-31.5276 -63.4056 -1.0549
17.4204 -12.5631 -0.312241
-12.8749 -38.9237 -0.529685
-14.4305 18.3187 -0.237303
-20.5605 -47.2525 -0.560762
30.0226 -18.8041 -0.319853
-23.0817 20.5939 -0.209305
-9.96629 -12.7914 -0.048972
6.99781 -11.673 -0.0235772
14.5592 7.61367 0.000735256
-36.0661 -22.2707 0.22597
-24.3311 -41.5854 0.354446
-54.634 29.929 0.638169
6.66865 -11.8321 0.140705
7.99161 -9.08639 0.120941
-41.7308 -22.1864 0.519686
-11.6793 -33.075 0.390581
11.0726 -9.65214 0.192566
-23.4666 20.0509 0.40715
-12.4862 -19.3728 0.33496
-31.7203 22.5719 0.694634
-35.7315 -23.9551 0.769954
-35.2433 -26.0358 0.764575
10.6082 -9.53317 0.232725
7.77309 -9.58149 0.265155
7.88003 -9.19738 0.261363
-72.9188 25.2498 1.80548
18.0185 -13.0797 0.542089
-28.998 -8.71182 0.810774
-28.445 22.3065 1.04253
11.5508 -9.89626 0.414884
17.2035 -7.45718 0.533907
-25.4098 21.5504 0.993243
-7.93576 -9.30594 0.389382
12.6041 13.7036 0.662452
6.11594 -12.6014 0.492945
8.89003 -8.74798 0.426243
24.3983 -4.32343 0.828752
18.3437 17.5179 0.91625
13.642 23.6158 1.02609
-58.0808 19.091 2.20257
24.2085 -4.70266 0.934307
-25.8808 21.1415 1.2646
9.35685 -8.90137 0.499343
22.2558 -3.06617 0.848809
12.1078 14.0235 0.758797
14.5997 18.8644 0.977269
6.49087 -12.3067 0.571232
17.4204 40.2635 1.83231
7.62402 -10.9864 0.563809
-7.57742 -7.45903 0.469995
-8.32199 -11.5137 0.634876
-29.8993 -11.8362 1.53192
16.267 10.5601 0.966821
-7.7544 -7.21513 0.507493
15.0526 23.3856 1.4375
-6.98025 -8.21723 0.592895
14.3597 19.6636 1.33474
-26.519 20.4203 1.85217
14.1884 23.1069 1.57059
-7.15531 -9.22371 0.667254
6.78151 -13.4388 0.864238
9.81402 12.3447 0.933767
14.5155 19.2857 1.51375
14.7332 26.2214 1.85245
10.0723 28.2472 1.90777
-7.33921 -10.0172 0.794558
9.3242 21.2489 1.55794
11.3375 9.97293 1.07656
11.3538 12.0064 1.16682
13.5489 15.656 1.48205
8.15019 -12.5634 1.05733
10.6872 8.9211 1.02456
12.7559 14.307 1.43459
-14.4965 8.54886 1.27351
-11.1863 2.10734 0.861703
12.2831 15.9892 1.56512
11.4135 18.1896 1.66802
10.0635 -6.88696 0.952252
-7.70335 -8.14906 0.897316
12.6366 11.4388 1.39063
11.7451 11.4902 1.36424
-7.03062 -6.18591 0.761236
-7.08415 -6.92719 0.822109
11.3563 11.8543 1.41589
10.552 9.29535 1.27864
-11.4632 2.93532 1.08808
-7.65019 -7.12549 0.939506
11.5482 8.9107 1.39696
9.10785 12.8795 1.51502
7.09309 13.0516 1.45615
8.314 12.9266 1.54156
-6.76729 -6.74358 0.9499
7.84474 -6.52076 0.998552
9.57624 11.9945 1.53852
9.8435 10.0552 1.45355
-6.90331 -5.41908 0.913606
9.53185 9.07654 1.40341
8.10573 11.0202 1.43423
6.66506 12.9236 1.54943
9.51182 8.3001 1.3365
9.09346 10.1282 1.48301
5.60542 12.3473 1.46806
-6.41073 -7.55003 1.07057
6.60549 11.2424 1.43483
5.15834 12.9248 1.53542
-6.84475 -3.99207 0.875387
-6.71776 -6.09691 0.99981
3.91401 -7.75697 0.961972
5.43205 -6.08579 0.916632
9.28442 7.4742 1.33982
8.9787 9.55525 1.4788
7.82989 11.1522 1.52342
6.69725 10.5694 1.42705
-6.89868 -4.58227 0.939625
4.69873 -7.66644 1.03907
-10.7151 7.18319 1.49815
-7.10857 -2.13874 0.864315
8.94943 6.04564 1.28512
5.80646 11.8507 1.55973
4.90381 11.3404 1.4573
4.76702 -5.85527 0.888794
4.10537 -7.87141 1.07961
8.29184 3.8406 1.14558
10.8848 5.42918 1.49516
4.48103 12.4673 1.64906
-6.1749 -5.40253 1.00665
-9.17909 1.30843 1.15627
8.18813 7.48889 1.40455
-6.45501 -5.33485 1.05955
7.72095 8.10938 1.43971
-6.90541 -3.5826 1.00772
4.96113 -5.95812 1.00106
5.01681 -5.42012 0.963079
8.33517 6.85775 1.42996
7.87274 7.78473 1.47322
-7.22366 -1.7288 1.00129
-7.05029 -2.21548 0.990778
-6.50321 -4.3848 1.04235
4.82341 -6.08005 1.03287
8.32304 6.30793 1.42062
-6.86872 -4.22967 1.08734
-6.06391 -4.45569 1.01243
4.94346 -5.53058 1.01869
7.39612 -3.51295 1.13973
8.31207 4.22002 1.32421
8.274 4.54661 1.33976
-6.95852 -2.91494 1.07921
7.46299 -3.7248 1.19111
7.00435 -3.04969 1.07775
4.93422 -5.78088 1.09721
8.17014 -1.72878 1.20952
-6.97794 -3.26657 1.1432
7.33584 5.52771 1.37971
5.69777 7.35628 1.40549
7.93852 3.88993 1.35092
7.85896 4.16779 1.35262
5.37681 7.72073 1.4305
5.01803 8.5716 1.50073
3.44247 9.41612 1.51241
-7.02731 -2.83443 1.1557
7.66307 -2.78776 1.24916
7.82643 -2.23038 1.25599
7.77636 -2.01181 1.24125
7.41783 4.17805 1.3729
7.02154 4.72137 1.39049
6.6964 4.88061 1.37793
5.33612 6.39442 1.38603
-7.22772 -1.36495 1.21849
4.93987 7.25444 1.46482
4.67434 7.15416 1.4346
-7.24327 -0.806855 1.22097
2.86693 -5.93183 1.11074
6.65993 4.06399 1.33312
6.4609 5.1899 1.40744
3.78663 7.83639 1.46066
-6.39539 -2.30659 1.154
-6.30078 -2.68861 1.16883
3.77244 -5.24041 1.09943
-6.994 -1.80106 1.26264
4.23467 -4.64149 1.10424
6.63043 3.49143 1.35338
5.02088 5.55356 1.36832
3.63251 -5.36102 1.17937
3.32315 6.66346 1.38815
6.46544 3.03389 1.35689
6.40036 2.70255 1.32651
-1.64984 -5.71035 1.1413
-2.17225 -5.76697 1.20175
6.22878 2.36806 1.33205
3.93926 -4.58069 1.20177
-3.00948 5.61895 1.36036
-3.63326 5.22702 1.38847
4.20923 -2.92797 1.2053
-4.28747 3.93827 1.41944
4.58701 -2.18724 1.23343
4.47831 -1.2692 1.15745
3.71012 -2.93668 1.23266
3.67997 -2.5856 1.19328
3.42699 -2.97957 1.22563
-2.31995 -3.61504 1.20695
-2.49801 -2.9258 1.19723
1.87458 -2.49463 1.13287
1.93617 -2.65272 1.19757
-2.04402 2.80619 1.31664
-2.07065 -1.46323 1.19712
-1.82344 -1.82953 1.30227
-1.97519 -1.17134 1.20966
9.64849 -9.02538 -9.35237
9.21283 -8.9001 -7.63404
2.44621 -20.0724 -10.7387
