ply
format ascii 1.0 
element vertex 1871
comment /media/mkaihara/Seagate Backup Plus Drive/model_iterations/model_3.ply
property float32 x 
property float32 y 
property float32 z 
end_header 
14.0777 -11.5644 -0.30175
-6.59542 14.2831 -0.284426
-29.7061 9.39592 -0.516669
-81.6582 36.6527 -1.32939
-25.0926 -11.9483 -0.429504
-31.5938 -17.9916 -0.536482
-12.6479 -31.0022 -0.497531
-7.18202 15.1081 -0.236811
-27.4828 -20.5288 -0.45896
-10.7094 -30.4609 -0.422518
-8.66964 -27.1438 -0.467133
-28.7697 -19.6115 -0.429239
-21.7938 -44.0235 -0.577261
19.2926 -14.3927 -0.289774
20.3837 -14.6753 -0.316258
33.6609 -20.7549 -0.524484
-13.9061 -35.6099 -0.439395
-26.4682 20.1819 -0.36376
-31.8749 -17.815 -0.387213
-18.55 -39.5827 -0.437438
-13.2842 -30.4657 -0.334908
37.4757 58.8546 -0.807006
-43.8113 24.0119 -0.42297
-23.0331 -40.6272 -0.400598
-13.275 -34.8157 -0.329876
42.8682 -10.3551 -0.410876
-13.031 16.5427 -0.157526
-20.8967 -46.5242 -0.315018
-12.637 -30.6488 -0.204338
-90.6264 37.6887 -0.604668
-18.7944 -36.2108 -0.17902
20.8207 -14.7651 -0.124556
-26.3329 -8.18808 -0.151082
10.4576 -9.83965 -0.0438565
13.692 15.6712 -0.058601
15.3193 8.06654 -0.0406259
-26.1041 -11.6449 -0.0407852
9.46962 -9.16524 -0.0609641
-83.1648 36.0132 0.0548387
-91.3837 37.4266 0.0573368
-24.6034 -18.0001 0.0209605
-10.1485 -14.7769 0.031887
-26.0346 -7.87638 0.0793766
-11.0034 -16.5618 0.0494325
-13.3091 -30.5472 0.16042
10.3127 -9.81771 0.0654149
-28.599 20.2414 0.173242
-14.1254 -35.6513 0.212888
-78.055 35.4739 0.486725
-80.8268 32.3215 0.536252
-26.6309 -12.3583 0.188105
18.7128 -13.6528 0.130566
-93.4391 38.884 0.713264
-11.138 -17.0765 0.145334
16.2479 -12.6554 0.162921
-44.7528 16.0357 0.418069
8.35098 -14.3497 0.141844
17.7322 -13.1392 0.188208
-30.9941 -18.7541 0.397389
43.6522 -8.97061 0.456794
-30.0409 -18.8244 0.421086
-9.13401 -25.2277 0.332495
-44.633 24.48 0.667937
-9.57376 -25.7486 0.352579
-8.20295 -23.6204 0.322398
-7.06476 -21.8577 0.294781
35.0547 71.0146 0.97515
10.4763 -9.85325 0.18608
-92.9635 38.0725 1.37922
-10.8881 -16.8716 0.285944
-7.82944 -23.7649 0.361321
9.34629 -9.28406 0.199622
-25.7066 -11.6815 0.3784
7.70097 -15.7565 0.257613
8.22229 -12.6706 0.231891
10.2259 -9.91275 0.205837
8.85885 -10.0515 0.214533
10.6168 -9.82983 0.238286
42.9998 -9.21096 0.714405
-21.4379 18.3859 0.496354
-28.3016 -19.0394 0.604261
-28.9773 -21.2579 0.648524
14.2046 -11.6684 0.301518
14.5435 -11.7296 0.350309
-76.4368 30.578 1.56578
-8.85939 -11.2324 0.278154
7.91749 -12.9762 0.29747
8.84659 -10.3966 0.268634
33.8559 69.7337 1.49944
-23.3173 -14.9699 0.598313
8.03742 -12.6339 0.301979
10.0062 -9.46701 0.292313
12.6278 -10.8531 0.364785
18.5965 -8.30501 0.407631
-78.9202 33.9722 1.85153
8.26621 -12.5418 0.340716
-8.42034 -10.8678 0.355879
-10.908 -16.7445 0.490501
8.48882 -10.3349 0.304713
8.6822 -10.3826 0.314245
-22.8722 19.2255 0.766136
-25.995 -8.33509 0.694422
10.4985 -9.76752 0.368421
19.5069 -14.2494 0.609297
20.499 -14.7597 0.628584
-20.6862 18.1132 0.706634
-24.6064 19.449 0.809049
-26.0301 -7.81122 0.720544
-28.781 -15.3442 0.900941
-11.3861 -17.1938 0.561744
16.3145 -12.6756 0.551253
24.4362 -3.55407 0.688383
-69.039 23.9496 2.1476
-24.0277 -17.0885 0.853276
-10.4394 -16.2784 0.572404
27.1149 -5.13514 0.796989
18.1372 28.1535 0.979759
-24.212 -17.835 0.906022
8.33807 -13.0611 0.465636
7.97717 -12.2502 0.445332
16.234 26.4508 0.930368
-6.96689 -8.04962 0.331264
14.3336 -11.7279 0.565233
-57.2495 25.2753 1.87516
-6.64175 -8.63214 0.339776
-25.7645 -7.27092 0.899679
-10.2772 -15.0216 0.621692
8.71981 -10.3569 0.447488
16.8657 11.5245 0.717917
-8.77099 -7.89933 0.450735
11.8627 -10.3287 0.570582
13.0337 -11.0114 0.621017
30.0867 60.5963 2.49584
-53.8311 19.6562 2.12904
-6.84027 -7.4668 0.383977
10.5307 -9.77491 0.53547
32.0859 94.3053 3.73879
24.5122 -3.44009 0.943442
36.2771 75.0365 3.17225
-46.3641 18.5304 1.93659
-6.72881 -8.93018 0.444218
11.4169 -10.4121 0.605278
13.9864 -11.5506 0.732104
23.0461 -2.82292 0.939747
14.7942 20.0928 1.04436
-25.5097 -15.4752 1.23508
-10.6881 -16.9704 0.862672
9.54534 -9.50177 0.555492
-6.32001 -7.7264 0.434989
10.3025 -9.74524 0.591751
13.2751 15.2404 0.877697
-26.0377 -7.64045 1.20184
15.833 20.6235 1.15
16.8185 28.962 1.46893
27.1062 53.3221 2.60592
7.7521 -17.2721 0.843084
11.8527 -10.3977 0.711895
19.5295 -1.73182 0.890227
23.5223 44.7985 2.33955
16.7312 29.4862 1.56602
-10.7781 2.6749 0.533347
-6.55592 -8.64022 0.530035
10.0267 -9.82681 0.663603
12.3506 -9.47462 0.727349
21.384 -2.44908 1.03001
12.0194 12.2512 0.839413
20.2256 48.6533 2.55598
-26.5959 -11.7544 1.42622
8.53323 -10.1092 0.63746
12.7468 -9.51929 0.738796
8.61979 -10.5051 0.667592
11.1281 -10.1344 0.743956
16.1314 27.3597 1.56828
24.4527 47.4363 2.67388
22.4153 -2.79097 1.14165
-6.78199 -7.79079 0.542163
10.2485 -9.75695 0.735262
18.4801 27.1035 1.70079
18.9956 34.4429 2.02647
14.3155 -11.7989 0.984396
10.8999 12.7437 0.883998
15.2403 20.6902 1.36219
12.1104 -10.5002 0.865174
16.1303 21.0186 1.44255
-23.5786 18.0762 1.61397
-6.38639 -7.49164 0.550734
10.5818 12.7949 0.91702
-6.59349 -8.51109 0.610138
10.3227 12.8601 0.94363
-24.8763 17.5154 1.71865
7.49512 -15.8288 1.00036
11.5485 12.486 0.964656
-6.38557 -6.30103 0.525346
11.6545 12.429 0.990393
-6.22091 -7.68618 0.598302
7.57429 -15.2253 0.991338
15.7327 20.9347 1.5563
15.5173 25.3732 1.75367
15.7112 36.319 2.349
-6.0285 6.42228 0.535782
-7.55487 -7.15775 0.635504
-6.53089 -7.49127 0.6167
7.02453 -15.2759 1.01373
-6.95067 -6.39835 0.593036
8.08395 -12.8795 0.938287
7.97413 -12.0508 0.89987
12.4149 -10.7158 1.01103
13.3012 -11.1261 1.07283
16.8637 7.4701 1.1638
15.9654 20.6848 1.63492
-6.74873 -5.8803 0.585471
11.2268 -10.2528 0.979216
-6.88806 -5.84248 0.597361
11.8928 12.5499 1.16512
10.5133 23.6665 1.7456
-6.59153 -8.74927 0.739679
12.0601 13.0819 1.20729
-6.57347 -4.21112 0.540395
-6.18531 -7.51165 0.670195
-6.33305 -4.1898 0.527134
10.1256 -9.67983 0.972876
10.7807 -8.45714 0.962524
13.3843 16.871 1.54156
-6.20757 -6.20081 0.614832
10.6295 -8.97508 1.01463
12.1378 18.1504 1.62575
12.1156 19.3184 1.68709
10.2552 19.5193 1.64698
9.73642 21.0425 1.72761
8.20664 24.4593 1.92269
11.4981 19.8485 1.73119
10.7753 -8.17422 1.03115
-6.50424 -6.65228 0.718912
-15.9815 -5.7953 1.33592
10.2119 -8.27773 1.0275
16.1392 22.0928 2.10077
9.99589 19.966 1.7465
-6.03607 -4.02904 0.578781
-6.26055 -7.53436 0.783601
5.22997 -6.20092 0.641363
9.71189 21.3708 1.84548
8.37545 20.4792 1.76366
5.43227 -6.25982 0.664198
13.247 11.955 1.43292
12.2 12.2557 1.40315
7.55219 -10.5346 1.05038
12.6706 12.1207 1.42842
7.29545 21.4174 1.83692
-6.00929 -4.14715 0.598623
-6.49909 -8.60115 0.893122
11.9494 12.5205 1.41906
10.7393 9.39556 1.20397
-4.3734 -9.98005 0.931307
5.78692 -6.211 0.750941
6.57977 -6.49284 0.803264
9.89561 -7.70784 1.07546
-6.32089 -6.22548 0.759483
10.7839 12.7811 1.44709
9.46769 -7.88779 1.06788
11.1851 12.6105 1.46242
14.343 19.0604 2.08349
-6.74858 -7.16819 0.86996
8.83017 -7.85989 1.04621
10.5612 12.9098 1.48674
-6.5244 -7.14257 0.8646
-6.35837 -7.64312 0.899785
10.9653 12.7474 1.51411
10.9195 14.0864 1.60143
-6.52831 -7.63895 0.92289
11.5645 11.1718 1.46683
-5.97539 -4.00264 0.665025
-6.27007 -7.85266 0.927229
-5.98213 -4.1527 0.675104
11.3606 8.76874 1.33578
10.9084 9.56422 1.34147
6.83422 16.2337 1.64389
11.3755 11.312 1.48512
10.8293 11.6515 1.49301
-10.8292 2.77655 1.05524
6.60414 -6.39673 0.872644
8.57734 -7.10945 1.0663
11.0161 9.43456 1.39684
9.85099 12.9626 1.56395
10.0317 12.8752 1.59554
7.8913 12.6209 1.46682
8.18537 13.6842 1.57491
11.5098 8.2664 1.43348
7.36466 13.1054 1.50538
9.31286 11.6717 1.50756
7.25601 14.0476 1.60604
6.11434 14.5278 1.60639
9.42861 10.7499 1.46647
9.33615 12.719 1.62715
11.6836 7.85756 1.45824
9.46506 10.2374 1.44046
5.37879 -6.29278 0.884035
-6.46639 -4.39681 0.829303
5.80035 14.451 1.64121
-6.67604 -4.2609 0.848981
9.15784 10.9735 1.52322
-6.28834 -6.29692 0.958453
6.33694 -6.25336 0.957315
9.89436 8.71264 1.41046
9.13832 9.54625 1.41056
9.48633 10.5759 1.52904
4.99691 14.4801 1.64216
4.84668 -9.21384 1.12138
6.60689 11.0528 1.40635
-6.45626 -3.72437 0.8243
6.52587 12.2352 1.52753
-6.54922 -3.66791 0.835427
9.89787 7.34525 1.36839
6.83532 11.6653 1.49483
9.99665 7.16858 1.37206
5.58057 11.8947 1.47509
5.60488 12.4609 1.53255
4.87275 12.6762 1.52631
10.0245 6.81453 1.37171
-6.51423 -4.31232 0.89932
7.91515 -6.65604 1.17446
-7.0796 -0.756903 0.817667
-5.88807 -5.05739 0.899348
5.63744 -5.97836 0.943427
9.03664 8.03455 1.39868
4.93463 -8.01998 1.08493
10.6305 5.26402 1.38004
9.12391 7.93807 1.41158
5.5918 -6.03232 0.966883
8.75112 8.05609 1.40136
9.07389 9.23271 1.5039
-6.61326 -5.30174 1.0087
10.3423 4.84406 1.35179
-6.57293 -3.65799 0.910429
9.29339 6.24845 1.34889
5.33929 11.7025 1.54893
-6.58154 -2.92553 0.878484
-6.55899 -3.09954 0.880794
5.29245 -6.45253 1.01335
6.42793 -6.59317 1.11628
9.53715 5.72158 1.36569
8.59422 7.33814 1.38754
-6.58361 -4.08185 0.958823
-6.5069 -4.28669 0.965165
8.40331 8.73652 1.49365
5.15321 11.588 1.56452
-6.14148 -5.26638 1.01276
4.24848 -8.67056 1.19555
8.64443 7.87231 1.45303
6.49122 -5.99771 1.10321
9.32058 6.16389 1.40674
-5.75531 -5.07773 0.97422
8.67994 6.71576 1.39012
8.20852 7.62211 1.41519
-6.82856 -1.71297 0.902809
-6.72623 -2.21005 0.907009
-6.05671 -4.9971 1.00751
8.96553 5.74895 1.35628
8.28959 8.17891 1.49091
-7.00182 -1.20652 0.912982
-6.54197 -3.90514 0.989552
7.51052 6.28799 1.25964
8.19473 7.14309 1.4001
8.09584 8.25542 1.48834
-6.60757 -2.70091 0.932655
-6.6039 -2.83263 0.932439
4.63665 10.2651 1.47072
9.14292 4.17846 1.31475
-6.97485 -1.54416 0.941082
7.17997 -4.46967 1.11902
5.33433 -6.43097 1.10222
-7.07208 -1.07578 0.959434
-6.73093 -2.109 0.946373
-6.76384 -2.1746 0.952083
-5.66665 -4.15628 0.944061
5.65267 -7.1495 1.20902
7.24783 -4.37852 1.13492
8.19149 7.2757 1.47463
-6.87896 -1.65124 0.953493
-6.80504 -1.87753 0.952087
8.92799 4.93008 1.37643
8.44649 5.95487 1.39601
-6.5869 -3.44304 1.017
9.00716 4.22844 1.35634
3.42432 10.7571 1.53647
-7.05002 -1.15523 0.979971
-5.67996 -4.19643 0.976293
-5.65685 -4.2863 0.976758
7.4788 -4.11475 1.16806
8.1802 6.57375 1.44204
5.42169 9.16292 1.4647
-6.04332 -4.09101 1.00536
5.30586 -5.94137 1.10094
7.51162 -4.00218 1.17933
7.89186 -3.84683 1.20952
3.68787 10.2266 1.50468
3.50723 10.5484 1.54074
-7.10772 -1.04213 1.00489
-6.79473 -1.92324 0.986847
5.32734 -5.66307 1.08135
7.56976 -3.90272 1.19121
7.68679 -3.83221 1.21289
8.19858 -3.49401 1.26151
-6.87657 -1.80028 1.01364
-6.69522 -2.81278 1.05617
-5.68078 -4.13419 1.01561
8.20316 -2.88567 1.26665
8.34396 4.68424 1.39337
5.04369 8.63906 1.45686
8.48712 4.57148 1.41615
8.10093 -2.42009 1.24056
7.21893 5.74718 1.37297
3.01417 9.61407 1.498
-6.81401 -1.93833 1.06473
7.7822 -3.23217 1.26474
8.33894 4.60973 1.4357
5.83427 7.5031 1.43405
5.33075 7.68994 1.41668
5.16902 8.00765 1.43855
5.12179 8.11686 1.44339
7.6301 -3.29641 1.26386
7.96694 -2.85784 1.28317
-6.50619 -1.61923 1.01249
8.1002 -2.33273 1.28674
7.30849 5.48209 1.39411
-6.82565 -1.87452 1.10144
-6.62012 -2.66382 1.11292
6.87655 5.57819 1.38017
-7.09493 -1.05536 1.12266
-6.86881 -1.75226 1.11315
-6.76715 -1.98402 1.10809
-6.84529 -1.79847 1.11365
-6.59064 -2.80335 1.12833
4.83858 7.50158 1.41071
3.81861 -6.67741 1.2201
-7.01275 -1.25087 1.14367
3.87827 -6.26918 1.17974
3.90831 -6.14891 1.16513
7.14782 4.81892 1.39622
4.68976 7.42136 1.41989
-6.7928 -1.94235 1.15464
-6.81671 -1.86957 1.16306
7.04079 4.87958 1.40821
3.84302 7.98122 1.45782
6.30851 -3.45763 1.19259
6.69424 4.91857 1.37657
4.68728 7.20335 1.42473
4.16011 -5.74389 1.18467
7.18532 4.47525 1.41692
7.5803 2.89965 1.36375
6.37341 5.32845 1.3994
-7.01828 -1.20917 1.21542
6.82127 4.12495 1.3608
-6.17289 -2.65116 1.15033
5.76501 -3.79625 1.17982
5.94486 -3.67389 1.19397
2.77381 7.89913 1.43918
-7.11462 -1.00158 1.24813
5.59228 -3.96484 1.18896
-6.05906 -2.16811 1.11943
-6.0146 -2.31637 1.13227
4.56778 -4.97411 1.17423
4.77321 -4.75275 1.17507
4.87151 -4.71763 1.18325
-6.54656 -1.66623 1.19312
4.3475 6.52117 1.38951
-6.91458 -0.89486 1.24875
-5.89809 -2.16585 1.1228
6.70599 3.72983 1.36746
6.1467 4.39578 1.36242
3.92421 -5.78814 1.26366
5.17091 5.71078 1.40055
2.52688 7.22381 1.4296
6.5516 3.08442 1.36127
-1.50917 -5.12888 1.02331
6.59597 -1.42075 1.27381
6.33525 2.80633 1.32626
6.28355 2.40746 1.33483
-4.42 3.91267 1.3861
4.32953 3.53795 1.32918
4.21435 3.29473 1.31617
4.79233 -1.72166 1.27152
4.93663 -1.41292 1.27748
-2.17769 4.88116 1.334
3.89097 -3.07993 1.26783
3.8134 -2.64399 1.23106
3.56141 -3.09265 1.27259
4.00764 2.57168 1.32251
-2.43096 -3.31347 1.18087
-2.17249 -3.33835 1.14544
3.75975 2.06064 1.29523
3.73713 1.98331 1.29491
-2.84893 3.49566 1.39081
-2.17789 -2.29564 1.13409
2.05842 -2.9164 1.26289
-2.13007 2.77979 1.33154
-2.03585 2.76968 1.33879
2.32879 -1.92893 1.25611
2.96615 -2.10908 1.52155
2.4481 -1.53679 1.2463
-2.00685 1.873 1.29447
-1.98059 -1.38459 1.18653
1.50846 -2.13923 1.27887
-1.91928 -1.04747 1.17765
-1.86271 -0.683784 1.18819
-1.86482 -0.679907 1.21341
-1.90145 -0.333062 1.20185
-1.8349 -0.546148 1.19988
-1.83528 -0.513527 1.2053
8.56062 -9.04285 -7.74851
12.7886 -10.8378 -9.25771
-8.05171 14.374 -6.39165
16.5675 -12.8377 -7.88058
21.5947 26.3257 -12.2637
-8.38734 -2.40068 -2.46183
-17.7367 -44.9924 -10.5726
-29.0922 -19.4314 -6.4539
19.5245 -13.9293 -4.47969
-28.9023 -18.8992 -5.08515
-28.6126 -19.4427 -5.12705
-26.906 -17.2549 -2.39177
-24.588 -47.4723 -3.44065
10.1341 -9.65168 -0.425628
-7.04933 15.197 -0.4226
-26.273 -10.1651 0.659803
-6.33788 -7.57401 0.427629
18.3771 26.3952 1.72508
11.9999 16.8789 1.69785
-6.23491 -6.21016 0.828814
4.39496 12.7473 1.54382
8.91597 9.28804 1.49533
8.1738 -8.96286 -10.6061
8.38655 -8.27864 -10.1861
9.06673 -8.74734 -10.7443
7.07991 -12.0999 -11.6629
7.0086 -11.5306 -11.0605
8.38215 -8.47841 -9.7701
7.13056 -12.1655 -11.4479
7.22466 -11.1792 -10.6439
9.1541 -8.78033 -10.0563
8.2409 -8.60803 -9.44728
8.36937 -8.36462 -9.33572
6.87756 -11.492 -10.4688
6.58072 -11.8931 -10.3754
7.99584 -9.10021 -9.2153
6.27588 -14.4023 -11.8716
8.5718 -8.96795 -9.37029
6.42755 -12.0974 -10.3276
6.25685 -12.2463 -10.2373
7.74353 -9.73805 -9.26867
8.15391 -9.31275 -9.1703
10.8881 -9.81422 -10.8803
6.16491 -14.1398 -11.3863
6.12849 -13.6542 -10.99
6.23605 -12.7306 -10.4092
9.53616 -9.13526 -9.66714
9.62295 -9.38575 -9.78377
5.96947 -12.665 -10.1539
9.70527 -9.30341 -9.57486
7.0802 -11.4407 -9.52802
5.70136 -13.0969 -10.0937
10.0867 -9.43568 -9.76781
7.66216 -8.1116 -7.8541
7.87194 -9.6425 -8.73217
10.4059 -9.54705 -9.90062
11.3486 -9.85269 -10.5254
9.7785 -9.38066 -9.37423
11.9498 -10.116 -10.4943
8.70191 -8.91591 -8.22994
7.72392 -9.64214 -8.14326
8.50102 -9.05695 -8.1911
12.6662 -10.8397 -10.8898
7.93086 -9.70028 -8.17792
-8.54331 -1.90231 -5.71354
8.14785 -9.75246 -8.12574
8.65957 -8.86655 -7.90441
0.325579 15.0261 -9.58855
7.84147 -9.69026 -7.91327
11.4125 -10.0349 -9.6426
7.53075 -11.1217 -8.48011
8.49453 -8.83445 -7.71077
4.59649 -15.2289 -9.9945
9.03842 -9.00688 -7.87769
9.21389 -8.98303 -7.93482
10.8578 -9.97619 -9.15661
8.24938 -9.38642 -7.68962
3.97231 -17.5001 -11.0476
8.53988 -8.97043 -7.55382
3.98571 -16.713 -10.4797
0.124997 14.0951 -8.57547
6.92256 -11.6762 -8.24438
8.06107 -9.62722 -7.60035
10.6508 -9.78353 -8.75536
13.2947 -10.6969 -10.3834
7.09213 -11.6601 -8.17351
8.41371 -9.58813 -7.63851
11.8427 -10.1781 -9.31665
5.50443 -14.0398 -8.92855
8.07247 -9.64932 -7.44236
9.77444 -9.42741 -8.02867
7.19536 -11.5506 -8.03435
8.33684 -9.51268 -7.40375
10.2278 -9.62132 -8.16487
15.1852 7.59165 -9.86913
9.08692 -9.24407 -7.47172
7.23042 -11.3996 -7.73892
2.68736 -11.29 -6.66372
8.22247 -9.47122 -7.16521
7.72239 -9.17355 -6.79118
10.0919 -9.59023 -7.88974
11.3259 -9.9509 -8.48685
0.110338 14.494 -8.17469
3.09948 -19.1919 -10.9355
7.07987 -11.395 -7.50236
10.6213 -9.752 -8.0567
13.0709 -10.957 -9.54459
9.6902 -9.43179 -7.53841
4.69894 -14.4469 -8.45533
8.95781 -9.09805 -7.06806
8.40797 -9.6641 -7.09562
6.29186 -12.7351 -7.80154
15.1115 7.72963 -9.32806
10.1942 -9.56081 -7.65777
14.1839 -11.1477 -10.0342
0.770779 16.4648 -9.00144
2.57786 -18.364 -10.1166
11.7161 -10.1405 -8.39511
4.34558 -14.6916 -8.27738
15.0135 7.85557 -9.13652
15.4213 10.6541 -10.0771
14.3187 7.9033 -8.74842
11.5482 -10.131 -8.15119
14.0892 -11.463 -9.64228
2.86937 -17.9553 -9.56276
9.32436 -8.69602 -6.51313
11.9986 -10.3697 -8.05164
2.0329 -18.7117 -9.50547
8.87384 -8.59136 -6.2114
10.8711 -9.88758 -7.37151
15.1552 -11.9751 -9.6793
14.7384 -11.9114 -9.46708
11.6734 -10.2292 -7.71481
7.93109 -9.84511 -6.24265
3.71308 -8.77435 -4.68116
8.87893 -8.43177 -5.9695
-8.29775 -1.82056 -4.18323
2.05884 -18.2913 -9.03595
4.6934 -9.58364 -5.20521
0.371854 12.9569 -6.34539
8.0316 -9.76877 -6.15355
-7.80634 14.8921 -8.13976
-8.75002 -2.31209 -4.36711
8.80688 -8.66023 -5.99579
10.7873 -9.85816 -7.05641
16.0549 -12.3891 -9.72618
20.1148 5.75789 -10.0141
-9.78084 -2.42063 -4.77165
1.78393 -18.7554 -8.9646
17.7454 16.6904 -11.5592
1.88999 -15.6841 -7.45567
3.73503 -9.02742 -4.58675
8.03959 -11.8579 -6.74025
20.8404 5.62763 -10.1742
14.9302 -11.8095 -8.83478
2.89641 -16.9057 -7.9689
20.1113 5.95281 -9.69802
19.2287 -14.0033 -10.968
10.1536 -2.56301 -4.83364
21.1268 5.35721 -10.064
17.8892 16.8369 -11.3415
1.67436 -18.2514 -8.39603
10.2187 -9.54422 -6.38701
10.6505 -9.7205 -6.63397
-8.78359 -1.59295 -4.07703
9.76316 -3.58027 -4.72973
7.14987 -12.0208 -6.34148
10.2092 -2.69491 -4.78439
20.742 20.0734 -13.0347
20.0026 6.10171 -9.4237
18.3605 18.2276 -11.6539
2.23447 -18.2199 -8.2508
12.6132 -10.3228 -7.25325
9.66156 -3.18072 -4.5727
16.6213 -12.7825 -9.39061
7.49741 -12.2865 -6.41777
7.58683 -11.5533 -6.14213
9.87419 -3.51487 -4.66456
-9.19705 15.0706 -7.85811
19.0714 -13.9098 -10.47
20.3151 5.85463 -9.37936
16.5812 7.52403 -8.07289
18.4718 18.6745 -11.6403
12.9921 -10.9522 -7.45642
17.6713 -13.1335 -9.68557
-10.2495 15.5847 -8.19566
-6.05731 13.8386 -6.62024
-5.09908 4.78779 -3.05307
20.9775 5.6981 -9.45899
9.8755 -3.51601 -4.51813
18.9251 19.1988 -11.6111
17.0278 -13.0947 -9.22493
15.2419 7.62447 -7.28301
4.05485 -9.77575 -4.48073
-10.2024 15.5153 -7.85883
7.40074 -11.5953 -5.78173
-12.8721 3.15659 -5.58769
0.686618 -19.4876 -8.2296
16.9299 -12.8078 -8.8611
-5.0211 5.53466 -3.1316
0.908001 -19.3382 -8.12779
1.14834 -18.6941 -7.85335
14.4996 7.78046 -6.89207
19.3171 20.1493 -11.6882
3.99456 -9.40852 -4.24729
15.1414 7.92744 -7.1241
18.6 19.8843 -11.324
-9.08363 -1.04097 -3.77938
4.19982 -8.86873 -4.00718
14.3615 7.93396 -6.74511
7.31202 -11.7101 -5.62548
-12.9096 2.41344 -5.37632
-7.3333 14.2055 -6.49422
20.1628 21.9292 -12.0965
15.4861 7.4443 -6.93253
10.2639 -9.1601 -5.55243
-4.88474 13.3344 -5.69121
-9.65974 -77.2556 -31.1999
-22.3349 -116.296 -46.7528
18.7762 21.0271 -11.0698
15.0166 -11.8653 -7.47975
-11.7825 -83.4552 -32.8786
4.27747 -9.83645 -4.19105
1.42986 18.2238 -7.10546
-8.03673 14.5144 -6.44544
19.7399 6.02265 -8.00536
-1.62987 12.3028 -4.80351
-16.2133 -91.9837 -36.2442
-11.687 -76.8942 -30.1425
5.65631 -10.0053 -4.41577
-2.21544 12.5132 -4.87806
20.5871 23.8388 -12.1075
14.0697 -11.2976 -6.85399
3.19197 22.5784 -8.68547
-23.8175 -117.848 -45.8997
4.9536 -9.02184 -3.89383
20.2234 5.80406 -8.01495
-6.80386 -67.7971 -25.9718
0.748601 -21.4088 -8.16086
13.1615 -11.0229 -6.48229
16.0982 -12.3989 -7.63074
20.8331 5.64668 -8.0873
9.77126 -3.55817 -3.88296
0.471159 -18.4976 -6.91538
3.46601 -11.4351 -4.44739
21.2551 24.7538 -12.1471
-1.84153 -23.7641 -8.92681
0.879946 -8.18447 -3.0583
15.0913 -11.944 -7.0813
21.2948 5.4185 -8.08775
6.7982 -10.7776 -4.64844
-11.6202 -73.5458 -27.3605
18.6652 18.4569 -9.61579
-12.3907 2.17254 -4.57721
-17.5555 -77.0024 -28.798
22.0281 26.333 -12.4842
2.31894 -13.2508 -4.83848
-37.9492 -115.029 -43.5954
14.0059 -11.3196 -6.4654
0.733903 14.5122 -5.20132
-7.80723 -2.66309 -2.95542
-1.77236 -19.0265 -6.90811
0.373692 -18.0283 -6.46328
-3.89499 12.7779 -4.74904
0.571966 -18.3769 -6.5486
-33.7826 -98.3301 -36.8734
17.1952 -12.9807 -7.62028
-14.226 16.4477 -7.66324
6.30486 -12.0171 -4.75563
5.09334 -12.317 -4.71623
-10.0802 15.2132 -6.37345
0.109791 -15.5333 -5.47673
9.12612 -8.79046 -4.41343
15.3617 -12.1665 -6.83719
21.2444 5.59758 -7.67717
0.579638 -18.9953 -6.57911
-9.02071 -1.15616 -3.11176
-4.61142 13.3837 -4.84792
3.90458 -9.0248 -3.36987
5.22352 -9.64705 -3.74421
-13.1422 16.3178 -7.17118
-37.5826 -100.683 -36.7482
2.32206 -10.9704 -3.83539
8.03688 -8.41758 -3.92262
-8.14218 14.7713 -5.74851
3.19749 -14.3216 -4.98764
-13.5508 16.6332 -7.27275
-34.5484 -96.3406 -34.748
6.40928 -10.1387 -4.00377
21.0601 5.72838 -7.34487
23.7101 29.3578 -12.6491
41.4821 -23.4087 -15.8958
-4.89671 12.9881 -4.60853
1.77602 19.5024 -6.50452
1.24285 -9.81519 -3.27212
21.1146 -15.3441 -8.65105
37.2311 -23.3977 -14.4384
-4.83874 13.322 -4.60203
-11.4683 15.7022 -6.30783
15.5664 -11.9681 -6.38831
20.393 -14.5276 -8.11485
-39.9405 -103.657 -35.8925
3.77458 -9.14774 -3.16045
6.7089 -10.8848 -4.08186
13.2534 -10.7961 -5.47841
2.33689 -10.9755 -3.56537
-3.31714 -25.1086 -8.07221
-0.860641 -18.6346 -5.95834
15.5036 10.6815 -5.95507
1.82694 18.4151 -5.87933
-12.0134 15.9878 -6.32139
-16.1374 17.4075 -7.46177
3.33612 -10.6999 -3.51599
14.3467 -11.3093 -5.7348
7.5855 -12.0673 -4.38925
1.1876 -18.1498 -5.63982
-1.92149 -20.7356 -6.41331
6.81902 31.7021 -9.91474
0.70343 13.9829 -4.25395
-10.1673 15.3432 -5.54822
-33.7614 -93.4876 -30.0512
-2.00755 -19.9363 -6.05589
-13.0105 16.2695 -6.21657
-19.2868 -83.1665 -25.577
-3.86261 -25.485 -7.6943
0.687217 -19.4135 -5.82728
-4.93971 13.5861 -4.29889
1.9144 19.2863 -5.71616
-18.98 17.6992 -7.65726
18.9365 6.0285 -5.85865
-3.9375 13.2211 -4.05455
-7.28562 14.1371 -4.66635
3.58328 -10.4689 -3.22537
4.63876 -9.93464 -3.20689
5.03875 -12.5712 -3.94312
21.7169 -15.5192 -7.85247
-12.0241 2.11997 -3.51241
-24.6146 -34.8672 -12.2818
5.66835 -15.0683 -4.61415
-13.754 16.5483 -6.18681
7.66028 -12.1832 -4.12545
2.71698 -10.0253 -2.94003
13.9427 -11.2793 -5.09158
-8.05708 -2.3435 -2.38297
-32.0217 -89.884 -27.0942
-20.3336 -83.6752 -24.4632
22.4384 28.971 -10.4158
-8.18442 -2.15576 -2.39525
-1.85275 -19.1151 -5.41171
-12.3948 1.90104 -3.49518
55.2893 -17.781 -16.1507
4.83339 -12.4291 -3.68346
4.09011 -13.7722 -3.9374
-8.53292 14.6776 -4.66215
-11.8843 15.8527 -5.44338
-4.95201 13.2185 -3.85782
-5.88659 -28.6714 -8.02694
15.9329 -12.1427 -5.50006
20.7262 26.7889 -9.15436
-33.5554 -117.347 -32.9426
10.507 -9.57356 -3.85693
-19.1348 17.8584 -7.03766
-8.91512 14.7865 -4.62852
34.9104 -18.1068 -10.5775
-23.5546 18.0961 -7.9031
-55.4954 -84.333 -26.873
49.3205 -16.2176 -13.7578
11.6957 11.7778 -4.39316
-37.4829 -94.2485 -26.9024
4.79553 -12.4692 -3.52115
55.0974 -16.015 -15.1935
-39.7169 -96.2821 -27.3814
-5.65146 -26.7313 -7.20035
2.58132 -9.38741 -2.53055
4.54105 -9.59173 -2.77813
12.0627 -10.7238 -4.21079
-59.5123 -110.393 -32.7147
-13.0941 16.3979 -5.45832
-51.1667 -112.074 -32.0878
7.1245 -11.3417 -3.45221
-22.6829 -30.9885 -9.92664
3.4773 -10.494 -2.84324
-22.7189 -33.2746 -10.403
-3.10393 -20.4507 -5.37236
3.90758 -11.3881 -3.08813
4.5017 -10.3556 -2.88634
-47.3257 -99.7826 -28.2014
17.062 -12.8259 -5.43397
-6.55519 13.9694 -3.90666
-24.1804 -32.2476 -10.2182
4.78625 -12.323 -3.32842
4.71256 -8.52237 -2.46389
-38.4885 -101.408 -27.1981
-28.9273 -79.0969 -21.0994
41.9027 -13.5927 -11.0083
-56.914 -112.828 -31.4896
7.23697 -11.7895 -3.43388
52.1225 -15.757 -13.5699
-24.7881 18.7036 -7.6785
-10.5199 15.459 -4.61185
-21.1705 -30.8821 -9.20474
-47.6697 -109.02 -29.3815
-6.90776 -27.2276 -6.94385
-21.6733 18.206 -6.95765
4.81158 -11.39 -3.02194
-52.1637 -107.456 -29.1448
-6.41372 -27.7432 -6.99643
19.5728 26.1823 -7.94741
-10.9869 15.7407 -4.65656
-7.20667 14.0456 -3.80675
-47.5628 -100.112 -26.7741
-23.2233 -66.8647 -17.1299
-51.1304 -111.226 -29.4221
11.0653 -9.9758 -3.55718
46.2818 -15.3716 -11.6631
15.5823 7.7962 -4.1583
-4.31543 -24.7959 -6.01323
4.37984 -10.0056 -2.57365
54.8783 -14.6858 -13.479
-21.8902 -32.6973 -9.32263
-8.21896 -30.2944 -7.44942
4.76858 -10.1882 -2.6659
-45.0352 -100.275 -25.8773
-20.3665 -29.5452 -8.41148
4.46243 -12.7563 -3.16364
5.43436 -9.6119 -2.58346
42.5294 -16.2757 -10.6778
-11.6304 15.8528 -4.57838
-29.8541 -89.4763 -21.8965
3.5242 -10.3485 -2.50149
46.0222 -10.9218 -10.9711
25.9791 35.6273 -10.2113
-5.30165 -25.0536 -5.94101
-43.5887 -100.013 -24.9538
11.8929 -10.4178 -3.60361
-4.41628 -22.4541 -5.23634
15.2864 -11.8762 -4.42473
-23.9067 18.4664 -6.84973
-8.00411 -28.8361 -6.77595
47.3969 -10.3641 -11.0092
-26.5667 19.2906 -7.36273
-29.8046 -19.5294 -7.97677
-4.05195 -19.3446 -4.41945
46.7862 -14.4612 -10.99
6.03947 -10.4755 -2.68576
72.1 104.496 -28.2263
-11.8514 2.70594 -2.67043
46.6002 -13.6549 -10.7247
49.1196 -14.0135 -11.2339
31.9229 44.9888 -12.1364
-4.93309 12.9483 -3.03092
14.6047 -11.7495 -4.11536
43.3802 -13.939 -10.0118
-20.771 18.1055 -5.97963
-18.1129 -44.6624 -10.4613
4.86079 -10.9163 -2.57533
13.8975 -11.4567 -3.93632
5.10296 -10.3045 -2.46858
-13.208 16.4592 -4.51007
-26.8934 19.5369 -7.09992
-27.5988 19.5879 -7.23649
-16.8748 -44.78 -10.2622
-16.372 -44.8529 -10.2068
-14.1602 -44.6844 -10.0106
-9.75869 15.2529 -3.84256
-5.88008 -24.9957 -5.47261
3.63132 -10.9768 -2.44866
4.52914 -11.1968 -2.55803
53.1568 -12.3232 -11.6469
15.4137 7.72363 -3.6653
-13.6875 16.8526 -4.59987
5.74315 -10.0584 -2.42004
32.0499 -11.2299 -7.1945
29.9788 43.4213 -11.0752
46.5132 -15.4136 -10.2131
-33.9045 22.2749 -8.50573
-22.954 -22.4599 -6.66246
15.4711 8.09968 -3.63628
-25.564 -19.742 -6.69374
-18.9888 -48.6957 -10.8231
46.3742 -12.4787 -9.92927
-16.7362 -39.9015 -8.99109
-10.4488 15.3992 -3.78512
-14.122 16.7002 -4.456
-30.217 20.2858 -7.39738
51.2805 -11.1841 -10.7032
-9.1079 -29.32 -6.24782
4.70405 -11.047 -2.42685
4.91705 -11.1818 -2.4724
12.5919 -10.4651 -3.32217
-24.9001 -22.5537 -6.74216
-10.9256 15.6829 -3.81899
-12.8424 -36.8677 -7.80727
-6.10067 -23.6301 -4.89238
-5.59349 -22.8768 -4.73099
-9.11408 -28.3253 -5.8975
4.63527 -11.2721 -2.39719
5.40626 -8.88246 -2.02176
-28.7526 -19.6585 -6.85808
40.8044 -13.0878 -8.45318
-23.5575 18.4912 -5.89724
5.49315 -11.4911 -2.44064
-40.5682 25.4496 -9.37706
-27.9208 -19.9698 -6.68341
5.57144 -8.52107 -1.89509
-6.2956 13.917 -2.96744
-34.5783 22.2824 -8.06983
-11.2839 -25.209 -5.45467
-17.2142 -40.4502 -8.53861
-28.416 -18.9152 -6.57005
3.95814 -10.7548 -2.19657
53.348 -12.3592 -10.515
-11.5996 15.8411 -3.75728
4.56768 -10.6801 -2.20123
-30.7266 -18.6613 -6.79626
-16.6785 -27.0935 -6.04741
-55.1842 -118.403 -24.6896
-10.716 -30.9272 -6.19745
10.1685 -9.42859 -2.71472
43.3424 -14.2962 -8.62339
-30.7907 20.6819 -6.94401
-28.4297 -19.632 -6.48191
-27.5194 -20.1324 -6.3923
-14.3732 -35.6114 -7.2267
-11.6499 -31.6494 -6.25859
4.32025 -10.3853 -2.06381
49.1731 -13.2517 -9.45522
6.44368 -10.8603 -2.30161
-23.8053 -30.3916 -6.98775
-16.5838 -37.6071 -7.52284
-13.9059 -34.5173 -6.73089
10.1514 -9.74286 -2.63667
-49.6774 -104.651 -20.8161
-13.196 16.4528 -3.74417
-26.0916 -21.0411 -5.94961
-16.7409 -22.3065 -4.98301
-16.3142 -42.6293 -8.0992
-33.4227 21.0921 -6.97538
-43.9291 -85.3717 -16.8799
-23.5894 18.5246 -5.22421
-21.2642 -18.4925 -4.91141
-46.811 -94.3806 -18.3396
-29.3912 20.1143 -6.18673
4.51473 -11.5777 -2.13928
5.3589 -9.6639 -1.90852
14.4222 7.74776 -2.83385
14.5126 8.33059 -2.8767
-26.8314 19.5137 -5.69102
15.04 -12.0702 -3.27146
48.8828 -13.8287 -8.6469
48.4775 -12.554 -8.52387
51.2176 -11.8858 -9.00561
-26.2564 -20.8501 -5.67877
-14.9619 -24.4861 -4.87985
-18.805 17.9122 -4.36557
-24.0143 -19.7782 -5.29443
-13.8936 -34.5367 -6.28851
15.3379 7.69024 -2.88791
-45.7475 -87.517 -16.5364
-27.5528 19.5079 -5.64267
7.53478 -12.542 -2.44613
17.7577 -13.22 -3.64091
-15.6395 -37.2869 -6.67808
44.6969 -14.0924 -7.63565
-25.8387 -13.7211 -4.81162
65.6074 -22.9046 -11.2361
50.6157 -13.6343 -8.51924
-9.46003 15.0232 -2.86954
-17.1969 -29.4264 -5.52126
-23.742 -17.7949 -4.75434
-13.9999 -34.7324 -5.96984
-29.3114 -20.2314 -5.602
-20.2987 17.8369 -4.23595
-22.1147 -13.8636 -4.11581
-21.4437 18.3083 -4.37461
-34.0791 20.6357 -6.17639
-10.2402 15.3311 -2.85107
4.09229 -11.2069 -1.82979
4.55627 -12.0243 -1.97519
-6.96501 14.1328 -2.4109
-27.0248 19.6717 -5.11366
-26.7269 -20.6408 -5.12525
-23.3314 -21.8209 -4.83061
-15.0968 -35.0931 -5.81366
10.5589 -9.17314 -2.0333
48.8042 -12.6864 -7.66466
52.1157 -11.353 -8.12776
-5.99738 13.3651 -2.19604
-23.4196 -20.8262 -4.65107
10.3416 -5.41938 -1.73077
43.2505 -10.6112 -6.69289
-28.1807 -20.323 -5.16381
-16.3367 -41.304 -6.58204
10.0578 -9.6489 -2.06726
11.076 -9.95665 -2.2126
52.4031 -12.1217 -7.989
-30.6922 -20.4288 -5.415
-26.3112 -21.6996 -4.97876
-51.4733 -98.0614 -16.1789
-8.56461 -28.3829 -4.36363
18.6752 -13.509 -3.36831
-22.4594 18.4941 -4.23285
-34.4058 21.2218 -5.90095
-16.6252 -37.2488 -5.87083
-58.6104 -106.735 -17.398
-6.97541 13.9772 -2.23838
-11.574 15.7849 -2.79609
6.98152 -13.3277 -2.13599
7.92553 -12.3023 -2.07505
-12.1681 16.2679 -2.85915
-29.9125 20.2087 -5.07921
-24.065 -22.2808 -4.61077
7.68309 -12.5432 -2.04401
43.1433 -14.237 -6.38749
-26.1686 -20.9664 -4.66951
-24.328 -22.0718 -4.56178
-28.5057 20.4881 -4.86747
-24.7367 -20.9363 -4.50133
-14.0585 -33.8808 -5.06091
52.6053 -11.7673 -7.43512
-14.513 2.71788 -2.03432
-6.26689 13.8664 -2.08402
-14.4698 -37.7619 -5.48756
8.52802 -10.3168 -1.78842
10.0394 -9.8826 -1.93615
-12.7171 16.2416 -2.78647
14.4775 -11.5457 -2.49872
-19.821 18.0323 -3.60865
48.7622 -12.6064 -6.68714
52.2214 -11.4375 -7.07829
-7.3565 14.3325 -2.08538
-7.86855 14.6268 -2.14826
-20.1754 17.7574 -3.51991
-27.4946 -20.5712 -4.47416
-13.4995 16.5344 -2.76581
-29.4591 19.6646 -4.60268
-32.9419 -13.9075 -4.60684
-27.6708 -14.8154 -4.0255
7.90017 -11.7448 -1.80615
9.65473 -9.92511 -1.80592
10.983 8.99633 -1.83347
-28.565 -19.6829 -4.42815
-27.322 19.9482 -4.28416
-30.1239 -18.7953 -4.43907
-21.3745 -43.6742 -6.05909
48.6021 -12.5681 -6.28326
-31.2385 -17.5108 -4.37683
-48.3599 -91.8895 -12.8915
7.67775 -11.7089 -1.73961
-7.01072 14.0289 -1.94724
-22.152 18.6032 -3.54768
-28.8631 20.3442 -4.3607
7.30945 -14.0069 -1.9119
52.1627 -11.1277 -6.53591
15.5176 8.13256 -2.11729
-12.6605 -30.6601 -3.99332
7.98846 -11.8683 -1.71298
-0.437884 -0.5449 -0.14585
-19.0611 8.44945 -2.47094
-9.69772 -29.3343 -3.62894
-33.236 -13.2719 -4.21046
-26.8257 -20.6799 -3.94904
-26.3098 -21.0383 -3.93057
48.7981 -13.0704 -5.93834
12.2451 -10.5435 -1.86638
-26.0866 19.7825 -3.77209
7.55854 -12.3099 -1.64366
8.25843 -10.1649 -1.49114
-15.8653 -38.1186 -4.63874
12.6342 -10.6046 -1.86793
9.91685 -4.83693 -1.24863
15.4927 7.96404 -1.97402
-9.46501 15.073 -2.01486
-24.4131 -10.7773 -2.93513
-27.8915 20.383 -3.87543
-14.1362 2.02024 -1.56532
44.9485 -14.7954 -5.30549
-32.9051 -20.9533 -4.33129
-46.7395 -85.4337 -10.7325
10.1988 -9.83341 -1.56183
-10.1289 15.1957 -1.99165
7.96162 -14.9797 -1.82487
52.4402 -11.396 -5.82104
11.0066 9.04794 -1.54626
18.5995 -13.8144 -2.48012
49.0528 -12.7211 -5.4316
10.4763 -9.77757 -1.51303
-22.4256 11.5494 -2.57648
-17.0175 8.38637 -1.95981
9.11617 -9.20706 -1.35227
-34.5155 18.7943 -4.00666
-26.0384 -20.8346 -3.46045
-20.1615 -40.4369 -4.69815
-20.5143 -42.6427 -4.81808
15.499 7.77541 -1.78231
-26.7663 -20.6357 -3.45551
-11.7089 15.9658 -2.0171
-51.3695 -96.881 -11.0583
-11.6775 15.6488 -1.94759
11.1059 -9.88629 -1.4519
-13.7696 -34.9641 -3.67324
-24.5681 -22.0694 -3.18177
7.47406 -14.3091 -1.55066
10.3098 -9.73102 -1.33636
-44.8086 24.9609 -4.9581
18.4359 -13.4866 -2.18997
48.9962 -13.1648 -4.86482
-20.2524 -40.9322 -4.32444
-13.523 -35.4825 -3.59506
-20.7737 18.1733 -2.5868
53.4872 -11.8977 -5.12173
10.5841 -9.78819 -1.32996
46.1198 -15.2126 -4.52494
-13.633 16.715 -1.96055
-26.2061 -11.9466 -2.61676
-21.4753 -41.8618 -4.31836
17.5338 -13.1224 -1.98685
-22.852 -41.869 -4.31198
9.42415 -9.52212 -1.2085
-30.8923 -17.5184 -3.09851
14.1567 -11.6843 -1.59348
52.9886 -12.2805 -4.66323
10.26 -9.85065 -1.19125
11.9613 -10.5319 -1.33517
-29.5537 20.2982 -2.98956
18.6688 -13.6122 -1.90856
47.5527 -12.2532 -4.21019
-27.6019 -49.565 -4.54795
-11.7059 -30.4563 -2.60242
16.2079 -12.6721 -1.63573
-26.3964 -51.5803 -4.57626
-8.65233 -24.2247 -2.02273
-26.0772 19.8305 -2.54022
-28.6879 20.2803 -2.71853
-15.3266 -35.0016 -2.93506
8.44814 -10.338 -1.06012
-42.228 22.9844 -3.64545
-19.1544 18.0299 -1.92093
-28.9017 20.445 -2.57229
18.1821 -13.5845 -1.65553
49.1037 -13.139 -3.70598
-24.8721 -47.0562 -3.81646
15.4031 -12.1861 -1.40128
-24.2661 -15.053 -1.9569
-10.915 -28.9514 -2.12392
8.95453 -16.4686 -1.24288
11.7771 -10.5166 -1.07796
-20.8257 18.2374 -1.87696
14.1501 -11.6749 -1.22398
20.025 -14.5223 -1.64439
-15.8407 -36.4969 -2.6122
17.8119 -13.4718 -1.47043
-20.8555 -41.2117 -2.88369
-10.2329 -28.3682 -1.93924
51.5008 -13.393 -3.32969
-20.8001 -42.1398 -2.84511
40.6915 -9.8706 -2.57339
50.1771 -11.4836 -3.16473
-25.3682 -11.9223 -1.69248
-24.1626 -46.6598 -3.21632
7.41855 -16.0324 -1.04547
36.6019 -24.2181 -2.61846
-9.00485 15.0374 -1.03829
-11.0761 -28.8937 -1.74862
18.4731 -13.8046 -1.29076
-8.62336 -11.177 -0.768855
15.5129 7.96091 -0.953758
15.3215 -12.1275 -1.04289
-11.709 15.8704 -1.03846
-11.687 -28.9617 -1.64455
15.3984 8.09926 -0.863823
-11.5304 -29.472 -1.53799
-12.8832 16.3332 -1.0032
-19.8594 -39.9523 -2.14006
10.4542 -9.86037 -0.656428
-15.9905 -36.6747 -1.7899
13.6763 -11.2426 -0.817838
-10.7897 -30.0685 -1.40301
-12.106 -29.8209 -1.3619
8.22657 -15.192 -0.758723
-53.8256 19.6477 -2.3759
-9.49408 -28.9425 -1.28292
-43.2978 23.5488 -2.0027
20.5365 -14.7532 -1.02269
-18.6063 -32.8542 -1.4672
18.7223 -13.9154 -0.905217
-101.04 44.7797 -4.17425
-24.9926 -48.4947 -2.02742
-12.2579 -32.137 -1.24872
-29.2504 20.0997 -1.30546
49.8356 -12.8397 -1.8577
-80.3835 30.1345 -3.10525
-32.0568 -18.0549 -1.25532
-21.9028 -43.5574 -1.60332
-17.2321 -37.7578 -1.37422
22.1903 25.6708 -1.15212
-19.2341 18.0268 -0.867392
9.79263 -17.2834 -0.659447
10.3018 -9.83383 -0.459557
12.4032 -10.9184 -0.53477
20.8185 -14.7193 -0.834902
40.1095 -15.1268 -1.42358
24.6495 29.8455 -1.27025
-24.2649 -12.1691 -0.840802
-20.4773 18.2377 -0.844085
-27.717 19.6328 -1.06764
-16.2614 -37.3739 -1.23927
-9.79949 -27.7258 -0.890086
-7.94536 -23.9099 -0.724669
-14.2277 -36.295 -1.15837
-11.2506 -30.4832 -0.912911
-29.1233 -17.6559 -0.89239
12.5414 -10.6387 -0.43867
18.1624 -13.5079 -0.594185
-34.9145 21.6017 -1.08999
-26.505 20.1701 -0.832329
-27.3589 19.4424 -0.866257
-26.985 19.7789 -0.799008
10.4589 -9.84493 -0.331081
-36.0917 12.4757 -0.845962
-16.6313 -26.747 -0.721907
-22.5232 -37.7149 -0.963416
24.0279 -16.0689 -0.632725
35.7824 -21.6965 -0.940727
-83.5204 36.6261 -1.98306
14.7144 4.06816 -0.319716
-77.0547 30.6688 -1.73473
-42.1774 15.2072 -0.877963
34.5187 60.3627 -1.33078
26.1758 -12.1852 -0.508986
55.9455 -12.8808 -1.07449
-26.2724 -18.8798 -0.574756
-24.4046 -23.9671 -0.524162
-13.174 -32.3248 -0.560027
-9.73029 -27.5529 -0.405199
13.9964 -11.5088 -0.296469
-23.0924 -10.9218 -0.382572
20.8004 -15.0295 -0.389816
-80.9895 36.2928 -1.2483
-98.1815 41.8598 -1.4626
-25.9349 -11.5255 -0.36197
-27.725 -20.7468 -0.464854
-21.2614 -42.8499 -0.615475
-18.3631 -39.0764 -0.564454
-28.8089 -19.6732 -0.438936
-26.5247 20.1822 -0.401063
18.9789 -14.1719 -0.279207
34.2543 -21.2379 -0.471173
-26.9931 19.8186 -0.381254
-32.2345 -18.0087 -0.399378
-13.5429 -31.0559 -0.341212
-8.58949 -25.8578 -0.257445
-22.9486 -40.431 -0.398799
-13.0731 16.5856 -0.171621
-23.7752 -11.9856 -0.204397
-13.6649 16.6608 -0.156808
-20.2681 18.1029 -0.148874
-22.8303 -43.6139 -0.240119
-18.9161 17.745 -0.127083
-26.568 -12.5857 -0.0859768
-9.36633 -12.0398 -0.0457248
15.2767 8.02724 -0.0319901
9.48648 -9.20708 -0.0682898
12.1972 -10.7249 -0.00766994
-81.8881 35.4341 0.0506034
-25.8747 -7.82017 0.0693794
-29.857 -16.3534 0.0670778
-8.13604 -24.1763 0.100606
18.904 -13.7336 0.102455
-13.3738 -30.6991 0.171817
21.0744 -14.8475 0.138109
8.49114 -14.5968 0.125864
29.0487 -11.9168 0.190965
53.5513 116.211 0.871634
37.3792 115.356 0.988134
-46.362 16.5559 0.466915
18.0877 -13.4043 0.215734
42.7871 -8.7341 0.404861
-26.1556 -7.37375 0.326442
-30.9133 -18.6573 0.415618
-8.25999 -23.6625 0.286888
-44.8017 24.5548 0.616754
-9.20298 -25.5007 0.342397
-7.46615 -22.9479 0.307201
7.78253 -15.9093 0.22853
8.32519 -12.826 0.202565
-24.9233 19.5658 0.475798
12.4298 -10.8547 0.248297
-21.5767 18.4542 0.4592
11.9761 -10.6927 0.252158
14.3188 -11.7871 0.292534
41.4332 -8.86534 0.697901
-29.3419 -19.6567 0.660542
16.6624 27.1166 0.573737
-27.4448 19.6252 0.653549
7.57926 -15.8373 0.342325
8.11875 -12.777 0.292675
8.91354 -10.4591 0.268563
8.71932 -9.05072 0.300006
23.0273 36.1223 0.913984
-83.3994 35.8339 1.83902
37.5998 77.3738 1.8113
8.61242 -10.523 0.307525
11.0904 -10.0444 0.360608
-25.9053 -8.30576 0.664726
-20.9304 18.2709 0.741998
-24.451 19.2817 0.826161
-26.039 -7.81735 0.725599
10.0668 -9.74391 0.37795
10.5288 -9.78502 0.391234
-22.7758 19.1977 0.799439
27.7396 -5.61055 0.781796
-82.5128 28.4537 2.4593
-7.08952 -8.98236 0.325229
14.3297 -11.7548 0.551788
16.4188 26.754 0.945625
-30.1366 21.3711 1.10136
-18.2651 -13.4605 0.724541
7.59235 -15.663 0.548061
8.6543 -13.4909 0.503357
-58.4575 25.8538 1.98377
-25.684 -7.2424 0.884413
-10.7683 -16.4866 0.662277
-25.3584 -7.92422 0.927885
16.9105 11.5756 0.726871
-25.9956 -16.1075 1.08445
17.7138 30.7834 1.24213
-26.6264 -14.5215 1.13849
25.5232 -4.60759 0.9306
-24.1595 -17.1813 1.11463
-6.71136 -7.31651 0.380103
9.91488 -9.66787 0.513783
13.0119 14.2353 0.729204
35.1628 72.5883 3.00085
35.2184 75.0097 3.06553
34.3546 100.59 4.00413
-10.635 -8.41684 0.541669
9.55189 -9.49176 0.53156
-22.9066 18.8715 1.19485
23.4522 -3.17669 0.951986
15.2783 24.9528 1.1873
-25.2333 -15.3257 1.22446
10.3079 -9.77326 0.581252
13.1008 15.0891 0.844842
7.91348 -14.9867 0.719042
16.0607 20.87 1.13887
23.6798 32.7155 1.74126
-8.39396 -12.2052 0.661218
-8.69459 -13.598 0.727951
8.69176 -12.5272 0.671097
9.45171 -9.54896 0.605779
26.2445 -4.01912 1.19163
19.2976 51.8593 2.43505
-26.8427 -7.82122 1.286
7.83625 -12.8825 0.692743
-7.62291 -7.50037 0.509283
27.107 54.7152 2.88118
-25.0151 -15.4591 1.40536
-8.66065 -12.1486 0.720355
10.5718 -9.80803 0.677781
18.6449 22.7924 1.36558
20.2607 56.3438 2.85949
-26.8599 -11.8964 1.41506
-6.19255 -7.54881 0.486448
17.8854 41.5973 2.28054
-26.5601 -10.4001 1.44324
-7.05482 -6.48617 0.489513
-6.17144 -6.99515 0.47743
18.6399 33.7716 1.97671
22.9589 32.5927 2.09559
10.9259 12.7774 0.895561
15.3278 20.8612 1.37144
10.2345 -9.77425 0.756536
15.9715 20.7834 1.42872
16.9354 26.1595 1.69429
-24.6733 17.3741 1.64521
-6.39471 -7.51421 0.553381
-23.6878 18.1773 1.65038
7.51618 -15.8699 0.980104
-6.46666 -8.33329 0.608576
10.3096 12.8786 0.957343
16.6698 28.0913 1.88589
7.90021 -15.867 1.01787
15.2275 24.8463 1.70093
-7.61287 -7.48169 0.649537
11.9199 12.0047 0.996033
15.8271 21.0527 1.56389
-6.68007 -9.04176 0.707174
8.11646 -12.9338 0.92854
12.359 -10.6595 0.98752
6.89817 -12.6451 0.891077
-6.69816 -6.19028 0.57507
15.6322 22.1806 1.69788
16.8146 7.46551 1.18307
-6.57073 -5.73964 0.577312
7.95562 -16.5489 1.22057
10.4095 23.5114 1.71688
10.7663 12.9795 1.13984
14.4817 19.4757 1.67556
13.4237 22.2602 1.78042
11.7543 12.4182 1.18726
7.49504 -11.1769 0.950139
11.9299 12.2058 1.22235
10.5015 -7.41185 0.911539
12.8538 12.4443 1.3008
10.7795 -9.10216 1.0308
-6.04975 6.55817 0.661001
10.6861 9.41097 1.05855
12.682 18.9647 1.7002
12.2515 19.5217 1.72014
-6.39502 -7.08711 0.746811
11.6336 20.0818 1.7642
10.4094 -9.79942 1.10207
10.9124 14.6503 1.41837
-6.07082 -4.0665 0.579791
9.84473 19.7257 1.74608
10.7902 -7.38241 1.04344
12.918 11.9871 1.41164
9.67908 10.6934 1.11573
10.4735 20.3376 1.82592
-6.59056 -8.74141 0.900165
7.5472 -10.5371 1.05133
12.6966 12.1477 1.42683
12.5876 12.3818 1.45313
11.8289 12.3655 1.40382
-4.39073 -10.024 0.931412
10.6916 13.3782 1.44414
-6.50223 -5.68058 0.749041
-6.34425 -6.23122 0.756923
-4.55603 -9.99586 0.944865
-6.74119 -7.15268 0.853272
9.98352 -7.80102 1.09122
-6.55203 -7.41379 0.873071
-6.47663 -7.09783 0.851898
9.68861 12.9346 1.4202
-6.37441 -7.67604 0.89898
11.0991 9.31398 1.30935
10.8912 14.0283 1.59125
10.781 9.47018 1.3024
8.05313 14.6178 1.52244
-5.95431 -7.45438 0.881618
-6.28891 -8.21592 0.963297
11.5496 11.1407 1.46848
11.567 9.4384 1.3857
11.2093 11.1428 1.46954
6.82565 15.7726 1.60238
-11.0181 2.82423 1.06561
-6.0241 -3.94835 0.678525
-6.35896 -5.88066 0.808827
9.78219 13.7973 1.61868
-5.93262 6.44759 0.85785
8.53304 -7.0833 1.07694
8.21968 13.7062 1.57521
-6.52829 -7.03462 0.974081
9.58516 11.9863 1.53601
7.22533 12.8293 1.48267
7.31598 13.4781 1.55153
9.74892 9.29912 1.38347
6.12712 14.6055 1.62991
9.47021 12.8799 1.65449
-5.76826 -4.20803 0.752649
6.21242 14.2743 1.62816
6.45876 14.1486 1.62331
-6.59642 -4.18889 0.840117
8.93381 9.19054 1.35583
9.36076 10.429 1.51286
7.51345 11.2815 1.46202
5.988 11.7926 1.42724
-5.81072 -6.83557 0.987955
10.4792 6.58697 1.35973
9.15593 8.28795 1.35113
7.50841 12.0027 1.55192
7.04009 11.9649 1.5237
5.5297 12.2766 1.48747
5.0469 12.541 1.50206
4.89538 14.2385 1.64529
10.0599 7.19403 1.37101
8.94215 9.50617 1.44764
5.53425 11.8397 1.46125
-6.36461 -6.25438 0.999847
7.02563 10.9657 1.4563
4.53645 13.833 1.63505
10.1629 -3.32867 1.18712
-5.71841 -5.07052 0.89038
7.78771 -6.53687 1.14972
10.6232 5.83019 1.38038
-7.12172 -0.949548 0.824748
-5.87417 -5.02729 0.89535
5.63169 -5.96124 0.940007
5.21204 11.9532 1.50442
-6.50788 -4.30952 0.909148
4.97633 -8.11126 1.09451
10.6191 5.25448 1.38114
9.04347 8.02732 1.40942
-5.67494 -4.12907 0.82233
-6.09754 -4.95696 0.933713
4.67819 -8.98853 1.19783
5.36845 -6.32172 0.989833
10.3629 4.84696 1.36248
11.152 11.2855 1.88426
8.66324 8.41332 1.4525
-5.39465 -3.52939 0.800417
5.41175 11.7892 1.57303
9.18791 6.36608 1.35917
8.13888 8.47103 1.46145
-6.08168 -5.38494 1.01723
4.24316 -8.66317 1.20035
8.80315 6.78878 1.38838
-6.07541 -5.0192 1.00308
9.23579 6.11007 1.40448
8.29892 7.24217 1.39567
8.23008 7.61568 1.42193
6.1598 -5.69816 1.0722
-6.60042 -4.20526 1.00943
8.22917 8.12563 1.49003
-7.09801 -1.00403 0.927966
-6.62077 -2.7015 0.937171
9.11529 4.16609 1.30407
8.52333 6.72506 1.41578
5.41139 -6.52374 1.10853
5.34223 -6.72633 1.13167
7.21187 -4.49418 1.12601
-6.86295 -1.65159 0.948691
-6.72697 -2.12899 0.946148
-5.69673 -4.18013 0.949521
8.24628 6.7502 1.43527
8.73272 4.504 1.33109
8.75498 5.24201 1.38489
8.13868 7.237 1.47276
-6.47555 -3.54974 1.00701
8.99718 4.2244 1.35204
8.37399 5.91129 1.39456
7.76264 5.90983 1.32085
-6.05721 -4.0974 1.00557
-5.6272 -4.27327 0.970064
5.42413 9.13975 1.45834
3.71345 10.2688 1.50733
-7.10663 -1.05263 0.996837
-6.55738 -3.72849 1.05142
5.32085 -5.95801 1.09827
5.5947 -5.77449 1.11038
7.78261 -3.68673 1.19891
3.4576 10.3643 1.52198
8.51778 4.66273 1.36501
7.69879 -3.83809 1.21493
7.89835 -3.4702 1.22444
8.07836 -3.43888 1.2403
9.09178 2.86402 1.36403
5.20902 -6.07043 1.14378
7.62995 -2.95885 1.1858
-6.63664 -3.14617 1.07465
8.21378 -2.8819 1.2634
8.94892 -1.87838 1.33604
5.05923 8.66096 1.47121
3.0062 9.60184 1.48836
7.97376 -1.94545 1.20371
7.30227 5.81599 1.38201
3.50503 9.69297 1.51462
3.24645 9.97491 1.54591
-7.11107 -1.00508 1.06691
-6.79631 -1.942 1.05633
7.01712 6.35238 1.41999
-6.01228 -2.17927 0.96277
-6.97688 -1.32374 1.07436
8.03506 4.87678 1.42323
5.75377 7.41376 1.41472
5.33145 7.68664 1.41455
5.09509 8.07373 1.43414
7.02909 -3.35264 1.17218
7.53317 -3.24696 1.2505
7.91815 -2.85577 1.27687
-7.06985 -0.706609 1.08687
-6.82073 -1.87681 1.09483
7.05438 -3.21215 1.19304
4.10794 -6.3344 1.16014
-6.77428 -1.99243 1.11015
-7.0871 -1.05278 1.12728
7.43437 4.823 1.39103
-6.93599 -1.38936 1.12802
-7.00942 -1.25262 1.14496
-6.81901 -1.93829 1.15601
7.13294 4.80656 1.39548
-6.82536 -1.86838 1.16559
7.07308 4.90973 1.42154
6.6617 4.88703 1.37023
5.22305 6.26311 1.3498
4.69164 7.19957 1.42625
3.84127 7.97038 1.46183
-6.98622 -1.32212 1.1896
3.12714 -6.45984 1.2002
7.20909 4.47106 1.42058
6.56171 5.27741 1.41191
4.20191 -5.81588 1.20229
4.24003 -5.40431 1.15574
-7.01247 -1.20611 1.20963
-6.31931 -2.51275 1.15766
7.50483 2.88284 1.35567
7.09519 3.92815 1.37379
-6.13992 -2.63391 1.14064
6.8294 4.13262 1.36205
5.93408 -3.67369 1.19528
-7.13683 -1.00154 1.24876
-6.1028 -2.18789 1.11808
5.79007 -3.81398 1.1891
5.57438 -3.95329 1.19176
3.60413 7.17364 1.40362
-6.54598 -1.66901 1.18945
4.75778 -4.74182 1.17554
-6.85095 -0.881856 1.23287
5.00757 -4.7216 1.21147
4.33473 6.50074 1.38557
6.63866 3.50247 1.34742
6.67746 3.7122 1.36431
-6.21093 -1.44533 1.14978
3.92351 -5.78555 1.26352
5.08774 5.62381 1.37997
-5.91289 -2.09588 1.15331
3.70798 -5.59834 1.24054
3.38802 6.76853 1.40761
-1.50138 -5.12847 1.02638
6.49991 2.7563 1.33571
-1.92537 -5.15503 1.06823
6.35962 2.81932 1.3314
-2.54791 -4.9181 1.09452
-3.53131 5.36285 1.3883
4.46832 3.89124 1.34399
4.32186 -2.99468 1.21789
4.77756 -2.25468 1.26936
4.19573 3.28869 1.31231
3.86998 -3.05573 1.26907
-3.78993 6.71335 1.95915
4.01848 2.57476 1.32504
-1.31774 -3.77674 1.1307
-2.16748 -3.34626 1.14161
3.85999 2.36445 1.30314
-2.86716 3.53557 1.36432
-2.34059 -2.75304 1.13018
-2.24447 -2.7749 1.13547
1.94513 -2.95531 1.23311
1.96619 -2.92752 1.2626
2.08742 -2.63796 1.24239
-2.05056 2.82087 1.32763
2.84969 -0.562876 1.27004
2.82264 -0.34001 1.24889
-2.00058 -1.55081 1.16926
-1.99365 -1.39321 1.19614
-1.77659 -1.71516 1.23403
-1.92116 -1.08942 1.16761
-1.91465 -1.03145 1.19465
-1.88013 -0.849892 1.19746
-1.86888 -0.684832 1.19029
-1.86821 -0.678336 1.21711
-1.85006 -0.454503 1.19343
-1.81885 -0.334314 1.19224
-1.80283 -0.388077 1.19812
10.2014 -9.27606 -9.30741
2.23258 -18.1471 -9.23129
-6.92716 -8.17665 0.430059
8.22463 -9.00416 -10.7012
8.4464 -8.79776 -10.7012
8.41476 -8.47099 -10.0939
7.08927 -12.1351 -11.5711
8.774 -9.22443 -10.0039
8.0764 -9.17141 -9.36555
5.93517 -12.9183 -10.8221
9.74383 -9.11363 -10.0431
6.20701 -14.1554 -11.6194
8.55477 -8.93966 -9.28324
8.27593 -9.44157 -9.3688
7.5246 -9.51506 -9.01788
5.98405 -14.2513 -11.2607
7.98303 -9.60147 -8.99007
8.11825 -9.39899 -8.9268
7.33304 -10.8481 -9.3034
7.01941 -11.3562 -9.44471
10.4674 -9.5566 -9.93403
6.73925 -11.474 -9.09036
8.32685 -8.92437 -8.1095
7.64435 -9.61496 -8.14333
8.83365 -8.98733 -8.35798
12.3263 -10.5599 -10.5967
8.03482 -9.83619 -8.3239
6.67081 -13.0799 -9.56872
8.24656 -9.52244 -8.19666
4.96415 -15.796 -10.6401
-0.459905 13.2359 -8.4674
8.03234 -9.58689 -8.00117
7.62577 -11.2611 -8.63907
8.72044 -8.90012 -7.91995
11.3766 -10.05 -9.60873
9.34564 -9.15154 -8.18557
12.373 -10.5387 -10.1651
8.42991 -8.89779 -7.5222
3.95177 -16.3079 -10.2795
4.22664 -15.1654 -9.65773
0.092358 13.5096 -8.20574
8.19442 -9.75579 -7.61628
3.89138 -15.2405 -9.37389
12.0807 -10.3304 -9.50025
7.15234 -11.5054 -8.02444
8.07326 -9.14075 -7.2075
5.59374 -14.186 -8.99424
6.70139 -13.0685 -8.5767
8.72156 -8.94782 -7.26446
10.1519 -9.50254 -8.08979
2.84098 -11.8821 -6.99163
5.69299 -14.3659 -8.72951
10.0807 -9.55367 -7.83284
6.89744 -11.4996 -7.5316
3.13677 -19.1238 -10.8659
9.29458 -9.3425 -7.37006
12.8728 -10.7885 -9.39015
7.11409 -11.4379 -7.48534
4.76396 -14.7588 -8.55696
6.46369 -13.0575 -7.99632
0.830193 17.599 -9.59342
14.9322 7.89472 -9.18604
4.28211 -14.3957 -8.09801
15.6761 -12.3937 -10.7517
15.3226 7.61805 -9.12338
14.2988 7.88235 -8.684
4.81561 -14.8959 -8.30609
12.753 -10.7008 -8.74284
1.69775 -18.7188 -9.6768
12.0629 -10.3991 -8.14179
0.149173 10.377 -5.21342
1.95231 -18.5642 -9.47805
14.9019 -11.8194 -9.60113
-0.00656913 13.4908 -6.77082
-6.72661 13.9793 -7.77195
11.1936 -10.1322 -7.56911
7.94694 -9.94986 -6.32589
8.96985 -8.51167 -6.06815
18.2752 5.68896 -9.34381
-7.80316 14.7899 -8.07941
12.372 -10.382 -7.79977
11.0991 -10.1257 -7.1975
15.7964 -12.1013 -9.57941
17.1692 16.2789 -11.2593
7.96138 -11.7414 -6.73857
15.3919 7.60859 -8.06482
14.8129 -11.7187 -8.81045
-10.8598 15.551 -8.68865
16.9668 -12.846 -9.70418
10.0663 -2.52233 -4.76186
-8.68739 -1.57797 -4.02118
19.5221 18.8522 -12.2689
4.13185 -9.5607 -4.7108
-9.31726 15.2198 -8.01231
-5.2051 4.33342 -3.05194
2.46844 -20.1601 -9.13272
7.31633 -12.0148 -6.31272
9.96509 -9.59267 -6.08528
13.5698 -10.7698 -7.59327
16.4797 7.5211 -8.00072
10.5834 -9.33158 -6.17263
-6.10052 13.8537 -6.60977
-12.5408 -92.8882 -41.0906
1.42793 -17.356 -7.53537
-10.1637 15.4645 -7.96651
9.90589 -3.48234 -4.49147
-8.92855 -1.66559 -3.90504
7.50178 -11.7809 -5.88503
