ply
format ascii 1.0 
element vertex 1870
comment /media/mkaihara/Seagate Backup Plus Drive/model_iterations/model_12.ply
property float32 x 
property float32 y 
property float32 z 
end_header 
-7.36536 14.3435 -3.88041
10.664 -9.61805 -3.43611
44.0581 -14.6348 -11.1068
15.6294 7.81717 -4.16495
-5.32207 -30.5402 -7.39834
4.13236 -9.46178 -2.44271
52.0191 -13.9226 -12.7787
-25.018 -37.3715 -10.6651
-10.0548 -37.0518 -9.10875
4.41884 -9.45228 -2.48443
-23.2202 -33.6914 -9.59938
4.12426 -11.8185 -2.94331
5.11358 -9.05411 -2.44269
-11.9469 16.2779 -4.69379
3.39884 -10.0248 -2.4299
43.9966 -10.4425 -10.4891
-6.44607 -30.4367 -7.21217
11.4472 -10.0309 -3.4763
-5.35123 -27.1807 -6.33203
-25.0166 19.3206 -7.16039
-9.661 -34.7935 -8.17486
45.301 -9.90739 -10.5227
-27.9199 20.2704 -7.73064
-32.414 -21.2417 -8.68476
-4.80429 -22.9122 -5.22868
44.538 -13.7681 -10.4649
5.69377 -9.88645 -2.54365
-12.0931 2.75953 -2.72144
44.3763 -13.0048 -10.2153
46.6981 -13.3244 -10.6823
31.4011 44.2332 -11.9028
-5.02458 13.1717 -3.0762
14.0186 -11.2804 -3.95795
41.3901 -13.3013 -9.55562
-21.6139 18.837 -6.21442
-22.5481 -55.6028 -13.0341
4.53134 -10.1934 -2.41472
13.318 -10.9807 -3.77987
4.75765 -9.61892 -2.31402
-13.5851 16.9238 -4.62985
-28.2579 20.5256 -7.453
-29.0107 20.5877 -7.59964
-21.1314 -56.0769 -12.8609
-20.3844 -55.8398 -12.7173
-9.97966 15.591 -3.92011
-7.14903 -30.3768 -6.64724
3.3739 -10.2311 -2.29236
4.19288 -10.3849 -2.38308
50.4545 -11.6983 -11.0551
15.4545 7.74157 -3.66893
-14.1038 17.3597 -4.73082
5.39106 -9.45062 -2.28257
30.2192 43.7366 -11.1294
44.2466 -14.6649 -9.71874
-36.1156 23.7248 -9.05364
-25.2583 -24.7188 -7.34056
15.5094 8.11742 -3.63895
-27.7214 -21.4094 -7.26754
-23.9981 -61.5431 -13.6918
44.1848 -11.8909 -9.46191
-10.6819 15.7364 -3.86028
-14.54 17.1896 -4.57911
-31.8689 21.3929 -7.79494
48.7739 -10.639 -10.1797
-10.9504 -35.2462 -7.51259
4.36163 -10.2602 -2.26397
4.50868 -10.2645 -2.28065
12.0895 -10.0496 -3.1965
-11.188 16.0533 -3.9015
-15.7752 -45.2874 -9.59665
-7.28 -28.186 -5.83411
-6.69696 -27.3769 -5.65915
-10.9305 -33.969 -7.07451
4.29698 -10.4687 -2.23622
-31.242 -21.363 -7.46192
-24.593 19.3011 -6.14898
-30.3625 -21.7187 -7.27791
-6.41136 14.1604 -3.01185
-21.0428 -49.4524 -10.4497
-30.8128 -20.513 -7.134
3.63801 -9.90642 -2.03342
50.5535 -11.7132 -9.96408
-11.8733 16.2094 -3.83685
4.20972 -9.85751 -2.04153
-33.3683 -20.2689 -7.39095
-18.8394 -30.6055 -6.83957
-12.8664 -37.1327 -7.44565
41.245 -13.6059 -8.20882
-32.4909 21.822 -7.32052
-30.8725 -21.3212 -7.04905
-29.9041 -21.879 -6.95639
-17.3328 -42.9475 -8.72387
-13.9836 -37.9916 -7.51847
4.01189 -9.66253 -1.92902
46.6849 -12.5827 -8.97776
6.03289 -10.1753 -2.16487
-19.836 -44.9829 -9.00962
-16.7915 -41.6864 -8.13696
-13.5253 16.859 -3.82872
-28.4476 -22.9437 -6.4973
-18.5105 -24.6668 -5.51761
-20.4347 -53.4036 -10.1582
-35.4054 22.3413 -7.38258
-24.5843 19.3034 -5.43705
-23.0274 -20.0281 -5.32684
-30.9288 21.1644 -6.50339
4.14924 -10.6598 -1.97938
4.98843 -9.00217 -1.78591
14.4659 7.76907 -2.83618
14.5594 8.35531 -2.87935
-28.1318 20.4568 -5.95959
14.3917 -11.5518 -3.13697
46.3436 -13.1119 -8.19882
46.032 -11.9222 -8.09423
48.602 -11.2805 -8.54523
-28.6057 -22.7183 -6.19755
-16.7062 -27.3397 -5.45665
-19.4582 18.5312 -4.509
-16.6573 -41.4088 -7.54944
15.367 7.70243 -2.88694
-28.9131 20.4684 -5.91412
6.96568 -11.598 -2.27161
17.0311 -12.6823 -3.49843
-18.9912 -45.2851 -8.12193
42.4733 -13.393 -7.25758
47.9152 -12.9083 -8.06519
-9.62946 15.2858 -2.91175
-16.8409 -41.7846 -7.19236
-31.8723 -22.0015 -6.10293
-21.0321 18.4784 -4.38115
-23.54 -14.7576 -4.38792
-22.2628 19.0049 -4.53389
-36.0807 21.8457 -6.53279
-10.4357 15.6179 -2.89645
3.70329 -10.1585 -1.66833
4.13632 -10.933 -1.80581
-7.04144 14.2796 -2.42772
-28.3112 20.6057 -5.34975
-29.0714 -22.4538 -5.58603
-25.5422 -23.8919 -5.29922
-17.9246 -41.6665 -6.91486
46.2756 -12.0306 -7.26755
49.3667 -10.7556 -7.69769
-6.05328 13.4793 -2.20681
10.0832 -5.28528 -1.68983
-30.6313 -22.0928 -5.62436
-20.4975 -51.8383 -8.27483
10.6016 -9.53203 -2.12334
49.5752 -11.469 -7.55687
-33.4018 -22.2351 -5.90527
-28.7474 -23.712 -5.45151
-10.4576 -34.6604 -5.33393
17.8577 -12.9199 -3.22685
-23.3385 19.2154 -4.39083
-36.4793 22.4982 -6.24998
-20.0284 -44.8803 -7.08753
-7.05282 14.1238 -2.25377
-11.8127 16.1054 -2.8449
6.4238 -12.2707 -1.9757
7.32408 -11.3695 -1.92623
-12.4364 16.622 -2.91332
-31.4388 21.2379 -5.33134
-26.3819 -24.4296 -5.06632
7.14273 -11.6663 -1.90915
40.9539 -13.5159 -6.065
-28.4978 -22.8352 -5.09669
-29.9258 21.5064 -5.10253
-26.8142 -22.6947 -4.89043
-16.9073 -40.7536 -6.09921
49.7462 -11.1292 -7.02955
-14.8468 2.7791 -2.0791
-6.32872 13.9934 -2.09496
-17.8167 -46.5043 -6.77149
8.07653 -9.77358 -1.70002
9.55381 -9.40526 -1.848
-12.9973 16.5953 -2.83915
13.8428 -11.041 -2.39454
-20.495 18.6429 -3.72335
46.1949 -11.9441 -6.33463
49.4013 -10.8213 -6.69434
-7.35554 14.3278 -2.07567
-20.8775 18.3724 -3.63458
-29.8978 -22.3719 -4.87719
-13.8137 16.9153 -2.82152
-30.9157 20.6347 -4.82336
-35.3348 -14.9196 -4.95143
7.3787 -10.9732 -1.69451
9.16259 -9.41944 -1.71933
11.1106 9.09755 -1.84802
-30.9658 -21.3394 -4.81216
-28.6038 20.8816 -4.47772
-32.5997 -20.3423 -4.81575
-26.4114 -53.982 -7.5091
46.0259 -11.9034 -5.94961
7.15198 -10.9104 -1.62802
-7.07234 14.1446 -1.95508
-22.9844 19.2998 -3.67318
-30.2909 21.3483 -4.5691
6.72172 -12.8893 -1.76786
49.3348 -10.5259 -6.1795
15.535 8.13934 -2.11246
-15.0562 -36.4686 -4.76112
7.45638 -11.0814 -1.60621
-19.5606 8.66928 -2.53199
-11.7896 -35.6689 -4.42174
-35.4419 -14.1523 -4.49971
-29.1483 -22.4727 -4.30319
-28.6533 -22.9152 -4.293
46.1552 -12.3639 -5.61621
11.7105 -10.0849 -1.78958
-27.2351 20.6512 -3.93056
7.01482 -11.429 -1.53311
7.80081 -9.60382 -1.41413
-19.7346 -47.4348 -5.78847
12.0839 -10.1443 -1.79115
9.67752 -4.72121 -1.21984
15.5079 7.96946 -1.96878
-9.59238 15.2707 -2.03309
-29.2231 21.3536 -4.05291
-14.4662 2.06596 -1.60049
42.5209 -13.9978 -5.01995
9.72852 -9.38161 -1.49443
-10.2689 15.4013 -2.01043
7.28446 -13.7125 -1.67905
49.5268 -10.7643 -5.49538
11.1179 9.13687 -1.55491
17.7276 -13.1687 -2.36898
46.3802 -12.0294 -5.1347
10.0002 -9.33457 -1.44863
8.69139 -8.77968 -1.29357
-28.2909 -22.6392 -3.77231
-24.1614 -48.4645 -5.65121
15.503 7.77524 -1.77559
-29.0986 -22.4367 -3.76925
-11.9176 16.2463 -2.04438
-11.8649 15.8965 -1.97033
10.6172 -9.45282 -1.39206
-16.7699 -42.5919 -4.49016
6.77795 -12.9798 -1.41475
9.85923 -9.3082 -1.28199
-48.1616 26.8267 -5.32251
17.574 -12.8576 -2.09222
46.2775 -12.4358 -4.59392
-24.4418 -49.4075 -5.24121
-16.5763 -43.5039 -4.42378
-21.4724 18.782 -2.66596
50.4038 -11.2133 -4.82402
10.1027 -9.34431 -1.27343
43.5168 -14.3553 -4.27016
-13.9022 17.0423 -1.99071
-27.8227 -12.685 -2.78648
-25.7363 -50.1723 -5.19827
16.7183 -12.5136 -1.8989
8.97083 -9.06543 -1.15441
-33.3131 -18.8936 -3.35363
13.5061 -11.1488 -1.52443
49.9293 -11.5731 -4.39167
9.77819 -9.38943 -1.13915
11.4196 -10.0565 -1.27858
-30.946 21.2526 -3.12317
17.7933 -12.9756 -1.82335
-14.024 -36.4944 -3.13257
15.4466 -12.0784 -1.56305
-32.5812 -63.6706 -5.67998
-10.1108 -28.3077 -2.37383
-27.1716 20.6606 -2.63919
-30.0284 21.2256 -2.83818
-18.5049 -42.2715 -3.56272
7.93187 -9.70614 -0.999881
-45.0436 24.5153 -3.8823
-19.719 18.5591 -1.96951
-30.2011 21.3628 -2.68051
17.3031 -12.9291 -1.5796
46.3221 -12.3963 -3.49454
-30.27 -57.2751 -4.67367
14.6768 -11.6126 -1.33901
-26.0155 -16.1418 -2.10812
-12.9986 -34.4831 -2.54386
11.2274 -10.027 -1.03112
-21.4858 18.8134 -1.92863
13.4856 -11.1279 -1.17012
19.0356 -13.8065 -1.56725
-18.9036 -43.5551 -3.1376
16.9377 -12.8117 -1.40218
-12.2329 -33.9183 -2.33261
48.4418 -12.599 -3.12992
-25.1212 -50.9006 -3.46195
38.7737 -9.40683 -2.44997
47.3535 -10.8388 -2.9838
6.59282 -14.2513 -0.936767
34.0431 -22.5267 -2.44159
-9.08705 15.17 -1.03923
-13.0693 -34.094 -2.07855
17.5618 -13.125 -1.23078
-9.25588 -11.9987 -0.830368
15.5037 7.95413 -0.945417
14.5968 -11.555 -0.996831
-11.8491 16.0581 -1.04256
-13.8577 -34.3481 -1.9661
15.395 8.09537 -0.855754
-13.6419 -34.8719 -1.8361
-13.1057 16.6121 -1.01223
9.94932 -9.38496 -0.627454
-19.2834 -44.2345 -2.1811
13.0258 -10.7085 -0.78184
-13.1149 -36.5599 -1.72294
-14.3951 -35.4673 -1.63697
7.38928 -13.6453 -0.687534
-11.4242 -34.8273 -1.55995
-46.143 25.095 -2.12787
19.4713 -13.9891 -0.973033
17.7762 -13.2133 -0.862681
-31.1489 -60.457 -2.56068
-14.8398 -38.9156 -1.5315
-30.5158 20.9678 -1.35474
46.8895 -12.082 -1.74524
-26.8179 -53.3454 -1.99293
-20.7616 -45.4996 -1.68026
21.9512 25.3887 -1.12097
-19.7627 18.5202 -0.883317
8.80936 -15.5487 -0.599477
9.80106 -9.35682 -0.439565
11.8042 -10.3921 -0.511494
19.7449 -13.9614 -0.794934
37.8842 -14.289 -1.34467
24.2342 29.3362 -1.22749
-25.7339 -12.9077 -0.901027
-21.0818 18.7741 -0.861212
-28.8578 20.4392 -1.10436
-19.883 -45.7119 -1.54009
-11.5919 -32.7961 -1.06925
-17.1654 -43.79 -1.42061
-13.6249 -36.9268 -1.12482
-31.3265 -18.9937 -0.973463
11.9487 -10.1367 -0.420167
17.2594 -12.8376 -0.567378
-36.7687 22.747 -1.14091
-27.5474 20.9617 -0.857344
-28.4378 20.2077 -0.893236
-28.052 20.5594 -0.823177
9.95345 -9.3702 -0.317137
-37.8283 13.0749 -0.884806
-18.4985 -29.7454 -0.819719
-26.1716 -43.8264 -1.14505
22.7269 -15.2001 -0.601383
33.3879 -20.2459 -0.881557
14.6479 4.04817 -0.312362
-44.5707 16.0692 -0.925593
33.4528 58.4639 -1.25069
25.0071 -11.6424 -0.48677
52.3596 -12.0571 -1.00162
-28.2516 -20.3028 -0.631964
-26.7826 -26.3056 -0.592176
-15.6598 -38.427 -0.687006
13.3229 -10.9561 -0.284332
19.6867 -14.2258 -0.371679
-27.4683 -12.2088 -0.393027
-30.0221 -22.4677 -0.518882
-26.0184 -52.4507 -0.784121
-22.1402 -47.1223 -0.707907
-31.0941 -21.2355 -0.488822
-27.5648 20.9717 -0.409081
18.0021 -13.4438 -0.267342
32.0123 -19.8496 -0.443789
-28.0235 20.5738 -0.388376
-34.757 -19.4207 -0.445441
-15.9867 -36.6655 -0.423737
-10.1628 -30.5925 -0.321317
-27.1468 -47.8334 -0.500634
-13.2508 16.8091 -0.165808
-25.1499 -12.6798 -0.225815
-13.8924 16.9356 -0.151343
-20.8014 18.5781 -0.145109
-19.3903 18.1882 -0.122545
-28.1525 -13.3373 -0.101676
-10.0586 -12.9313 -0.0564736
15.2581 8.01558 -0.0236265
11.5955 -10.1964 -0.0088755
-31.8774 -17.4602 0.0580759
-9.66797 -28.7342 0.102691
17.9359 -13.0313 0.0953671
-15.7819 -36.2329 0.180891
19.9525 -14.0582 0.128764
7.68711 -13.2145 0.110793
27.712 -11.3696 0.182844
-49.21 17.572 0.497675
17.16 -12.7176 0.203003
40.6355 -8.29651 0.389052
-27.4536 -7.74108 0.334919
-33.2576 -20.0735 0.431646
-9.74368 -27.9178 0.321462
-47.5958 26.0859 0.662112
-10.8484 -30.0631 0.38524
-8.83546 -27.16 0.346974
6.87499 -14.0531 0.198672
7.6395 -11.7695 0.183591
-25.7621 20.2231 0.499423
11.8169 -10.3204 0.2349
-22.1929 18.9796 0.479887
11.3765 -10.158 0.238404
13.6007 -11.1968 0.276566
39.4069 -8.43373 0.668177
-31.6549 -21.2081 0.696537
-28.4733 20.3592 0.685239
6.67601 -13.9489 0.29876
7.43923 -11.7075 0.266173
8.37817 -9.83138 0.251236
35.8046 73.628 1.77029
8.07229 -9.86332 0.287101
10.5457 -9.55175 0.342174
-27.1974 -8.721 0.689442
-21.4824 18.7515 0.769112
-25.2513 19.9113 0.86071
-27.326 -8.20493 0.753246
9.55561 -9.24973 0.358137
10.0101 -9.30376 0.371382
-23.4621 19.7748 0.831277
26.7847 -5.41872 0.758836
13.6097 -11.1649 0.523182
16.2911 26.5402 0.956568
-31.4347 22.2897 1.15651
6.71672 -13.8566 0.482812
7.92143 -12.3485 0.459018
-26.9163 -7.59107 0.918923
-11.7602 -18.0065 0.71134
-26.6112 -8.31713 0.965406
16.8376 11.5244 0.734557
-27.7437 -17.1917 1.14377
17.5931 30.5624 1.25412
-28.378 -15.4791 1.20059
24.7274 -4.46524 0.905798
-25.8736 -18.4018 1.17963
-7.09192 -7.73263 0.396576
9.40788 -9.17411 0.4872
13.0504 14.2758 0.742941
33.3594 68.8226 2.88874
32.0903 68.3252 2.8349
-11.1746 -8.84513 0.562885
9.06113 -9.00475 0.504052
-23.5793 19.4243 1.23744
22.8324 -3.0944 0.931442
-26.8724 -16.3223 1.29088
9.78891 -9.28184 0.55178
13.1176 15.1077 0.857997
7.07723 -13.4028 0.641668
15.9543 20.7301 1.14671
23.1651 31.9979 1.72563
-9.03691 -13.1402 0.702873
-9.42799 -14.7454 0.779229
8.01463 -11.5511 0.617868
8.96141 -9.05443 0.57431
25.4315 -3.89601 1.1595
-28.168 -8.2085 1.34077
7.15154 -11.757 0.631395
-8.03745 -7.90976 0.53146
25.8338 52.1253 2.77806
-26.649 -16.4701 1.48382
-9.30526 -13.0528 0.764906
10.0456 -9.32057 0.644024
19.4719 54.1151 2.77959
-28.377 -12.5691 1.48366
-6.56705 -8.00628 0.51032
17.0764 39.7124 2.20215
-27.9775 -10.956 1.5099
-7.40528 -6.80943 0.509042
-6.52223 -7.39373 0.499413
18.1922 32.9554 1.95097
22.3463 31.7196 2.06162
11.0091 12.8732 0.913057
15.2662 20.7749 1.38126
9.71626 -9.28011 0.718391
15.8857 20.6695 1.43643
16.7199 25.8238 1.69078
-25.4076 17.8901 1.70046
-6.77336 -7.9602 0.580455
-24.3704 18.6999 1.70484
6.60891 -13.9535 0.861199
-6.87874 -8.86503 0.64097
10.3971 12.9867 0.97616
16.4519 27.7198 1.88013
6.98809 -14.0343 0.899685
15.0938 24.6254 1.70319
-8.02532 -7.88852 0.678894
12.0025 12.0855 1.01342
15.7417 20.9368 1.57097
-7.13681 -9.66128 0.748376
7.42179 -11.8269 0.848843
11.7457 -10.1313 0.938726
6.23354 -11.4269 0.805433
-7.02669 -6.49489 0.598458
15.5954 22.1237 1.70992
16.7216 7.42252 1.18555
-6.88217 -6.01297 0.600121
7.01066 -14.5837 1.07537
10.317 23.3046 1.71747
10.8713 13.1035 1.16185
14.4589 19.4425 1.68753
13.3988 22.2156 1.79286
11.8193 12.4854 1.2046
6.92584 -10.3287 0.878561
11.9681 12.2445 1.237
10.1053 -7.13319 0.878553
12.8792 12.4681 1.31437
10.2891 -8.68906 0.984867
-6.00233 6.50547 0.658687
10.7627 9.47695 1.0753
12.7128 19.008 1.71848
12.2736 19.5544 1.73758
-6.75915 -7.49208 0.783379
11.6525 20.1123 1.78159
9.88483 -9.30652 1.04739
10.9938 14.7577 1.44081
-6.30802 -4.22676 0.598942
9.89089 19.8165 1.76839
10.391 -7.11039 1.00649
12.9581 12.0227 1.42686
10.5049 20.3967 1.8459
-7.02165 -9.31382 0.951579
7.01725 -9.79796 0.978549
12.7413 12.1888 1.44276
12.6481 12.4391 1.47112
11.8922 12.4301 1.42223
-4.81291 -10.986 1.01137
10.7757 13.4819 1.46677
-6.80978 -5.95064 0.779501
-6.65965 -6.5415 0.789206
-4.97504 -10.9128 1.02229
-7.10651 -7.54104 0.893328
9.57604 -7.48367 1.0483
-6.92398 -7.83536 0.916174
-6.83209 -7.48799 0.892462
9.79855 13.0793 1.44727
-6.75229 -8.13167 0.945515
11.1566 9.36108 1.32549
10.9585 14.1139 1.61276
10.8568 9.53512 1.32095
8.13975 14.7756 1.55049
-6.31522 -7.90692 0.928377
-6.68778 -8.73753 1.01704
11.613 11.2004 1.48689
11.6123 9.47441 1.40065
11.2703 11.2025 1.48786
6.91487 15.9798 1.63549
-11.1741 2.86279 1.08059
-6.25632 -4.102 0.700982
-6.65767 -6.15721 0.841586
9.87791 13.9309 1.646
-5.88182 6.39117 0.852937
8.18493 -6.79542 1.03503
8.3233 13.8784 1.6064
-6.88364 -7.4183 1.02063
9.67986 12.1036 1.5618
7.33763 13.0286 1.51657
7.421 13.6718 1.58499
9.8267 9.37241 1.40383
6.22694 14.8449 1.6682
9.54137 12.977 1.67804
-6.00353 -4.38104 0.779232
6.31668 14.515 1.66708
6.58084 14.4154 1.6655
-6.84684 -4.34919 0.867832
9.03082 9.28902 1.37974
9.45045 10.5281 1.53726
7.61667 11.4367 1.4923
6.09059 11.9966 1.46213
-6.13826 -7.22127 1.03706
10.5191 6.61099 1.37303
9.23795 8.36114 1.37204
7.62366 12.1862 1.58631
7.14421 12.1425 1.55679
5.62665 12.4949 1.52429
5.1333 12.7606 1.53873
5.02615 14.618 1.70089
10.1165 7.23334 1.3871
9.0316 9.6005 1.47155
5.63884 12.0657 1.4994
-6.68178 -6.56668 1.04364
7.13211 11.1322 1.48843
4.60713 14.056 1.67225
9.95897 -3.2633 1.16687
-5.98467 -5.308 0.926707
7.47684 -6.27713 1.10636
10.6565 5.847 1.3925
-7.2768 -0.971745 0.840718
-6.13638 -5.2526 0.930285
5.36941 -5.6848 0.899091
5.32078 12.2047 1.54647
-6.75948 -4.47734 0.939856
4.61178 -7.51886 1.01763
10.6396 5.26336 1.39136
9.12033 8.09473 1.43015
-5.90211 -4.29548 0.850984
-6.36116 -5.17215 0.969055
4.2694 -8.20555 1.0971
5.09104 -5.99636 0.941763
10.383 4.85499 1.37246
8.75264 8.49912 1.47644
5.52817 12.0439 1.61751
9.24815 6.4067 1.37606
8.23216 8.56735 1.48719
-6.35757 -5.6298 1.05783
3.86102 -7.88644 1.09681
8.87581 6.84364 1.40802
-6.34216 -5.24059 1.04185
9.2905 6.14519 1.42072
8.37888 7.31112 1.41751
8.31615 7.69443 1.44538
5.90564 -5.46427 1.03111
-6.84853 -4.36446 1.04277
8.31645 8.21115 1.51471
-7.25374 -1.0276 0.946087
-6.81988 -2.78417 0.961931
9.14182 4.17702 1.31481
8.59364 6.77969 1.43565
5.12644 -6.18182 1.05355
5.04796 -6.35748 1.07281
7.00152 -4.36435 1.09651
-7.03304 -1.69401 0.969479
-6.90929 -2.18814 0.968741
-5.92477 -4.34851 0.982879
8.31946 6.80935 1.45624
8.7694 4.52185 1.34382
8.8025 5.26947 1.39992
8.22007 7.30857 1.49597
-6.69833 -3.67309 1.03747
9.0253 4.23647 1.36331
8.43669 5.95462 1.41282
7.83685 5.96523 1.34122
-6.29003 -4.25601 1.03957
-5.85685 -4.44866 1.00485
5.53415 9.32594 1.49742
3.80921 10.5392 1.55682
-7.2636 -1.07742 1.01644
-6.78894 -3.86145 1.08415
5.06355 -5.67146 1.04873
5.34432 -5.5176 1.06418
7.59898 -3.60104 1.17431
3.55064 10.6497 1.57377
8.55827 4.68395 1.37876
7.51009 -3.74533 1.18883
7.72231 -3.39419 1.20095
7.90172 -3.36507 1.21698
9.09164 2.86275 1.37049
4.94812 -5.76811 1.09028
7.47562 -2.90022 1.16578
-6.84932 -3.24831 1.10505
8.05559 -2.82772 1.24312
8.81504 -1.85156 1.32055
5.16503 8.84335 1.51141
3.08803 9.87238 1.53984
7.85357 -1.91743 1.18988
7.37272 5.87155 1.40317
3.60667 9.97855 1.56909
3.33699 10.2603 1.59997
-7.26608 -1.02853 1.08764
-6.97338 -1.99406 1.08069
7.09402 6.42178 1.44368
-6.18031 -2.24157 0.986427
-7.13818 -1.35584 1.09643
8.08648 4.90701 1.43978
5.85117 7.5396 1.44738
5.43217 7.83252 1.45018
5.20075 8.24191 1.47302
6.86927 -3.27781 1.14942
7.36924 -3.17758 1.22731
7.76491 -2.80183 1.2563
-7.21482 -0.722655 1.10678
-6.99594 -1.92648 1.11975
6.89868 -3.14259 1.1707
3.84783 -5.93637 1.09155
-6.95205 -2.04617 1.13596
-7.24239 -1.07737 1.1493
7.49185 4.85939 1.4092
-7.09739 -1.42313 1.15134
-7.16898 -1.28265 1.16816
-6.99572 -1.98998 1.18259
7.19265 4.84598 1.41461
-6.9998 -1.91759 1.19202
7.13259 4.95041 1.44105
6.72797 4.93485 1.39135
5.31338 6.37163 1.38143
4.78978 7.3512 1.46503
3.94011 8.17827 1.50915
-7.14701 -1.35405 1.21397
2.87603 -5.94732 1.11076
7.26194 4.50301 1.43834
6.63045 5.3323 1.43445
3.96446 -5.48997 1.1394
4.02021 -5.1266 1.1007
-7.17006 -1.23472 1.23385
-6.50426 -2.58773 1.18766
7.52591 2.88984 1.36605
7.14004 3.9521 1.38954
-6.32369 -2.71405 1.17081
6.88059 4.16277 1.37942
5.77223 -3.57495 1.1669
-7.29137 -1.02479 1.2729
-6.27163 -2.24977 1.14538
5.62384 -3.70596 1.15919
5.40478 -3.83457 1.1598
3.69316 7.35435 1.4478
-6.70718 -1.71152 1.21541
4.56214 -4.54875 1.13179
-6.99604 -0.902141 1.25613
4.81142 -4.53853 1.16854
4.4244 6.63666 1.42302
6.68006 3.52346 1.36275
6.72283 3.73655 1.3806
-6.3591 -1.4813 1.17404
3.69319 -5.44945 1.19507
5.17039 5.71535 1.41054
-6.07533 -2.15488 1.18128
3.48954 -5.27248 1.17343
3.47264 6.94144 1.45235
-1.6497 -5.62155 1.11487
6.52822 2.76734 1.34817
-2.08945 -5.58594 1.14825
6.38992 2.83185 1.34443
-2.72823 -5.26302 1.16303
-3.45837 5.24998 1.3588
4.52727 3.94272 1.36949
4.2011 -2.91294 1.18941
4.67968 -2.21009 1.2489
4.24517 3.32755 1.33544
3.75102 -2.96416 1.23634
4.05499 2.5981 1.34471
-1.41852 -4.05 1.20288
-2.29074 -3.53335 1.19746
3.89287 2.38453 1.32187
-2.83282 3.48965 1.34486
-2.45455 -2.88588 1.17724
-2.35356 -2.90755 1.1824
1.85874 -2.83368 1.18961
1.88152 -2.8111 1.21961
2.00691 -2.5437 1.20505
-2.03077 2.78739 1.30898
2.8172 -0.558074 1.2639
2.79587 -0.338156 1.24537
-2.07611 -1.60881 1.20498
-2.06485 -1.44259 1.23034
-1.8499 -1.78391 1.27479
-1.98452 -1.12547 1.19776
-1.97634 -1.06487 1.22458
-1.93717 -0.876174 1.2252
-1.92223 -0.705236 1.21582
-1.92112 -0.698369 1.24293
-1.89833 -0.467745 1.21619
-1.86428 -0.344341 1.2136
-1.84911 -0.399574 1.22028
2.36341 -19.418 -9.87234
-7.35821 -8.68724 0.45101
8.19086 -8.98302 -10.6821
8.43001 -8.79656 -10.7043
8.38287 -8.45352 -10.078
7.10495 -12.1935 -11.6317
8.71488 -9.17702 -9.95877
8.02297 -9.12717 -9.3264
5.96455 -13.0252 -10.9161
9.66422 -9.05153 -9.98114
6.26528 -14.3364 -11.7714
8.4813 -8.8769 -9.22469
8.20719 -9.37916 -9.31361
7.46008 -9.45162 -8.96469
6.03174 -14.4147 -11.3939
7.905 -9.52435 -8.92504
8.04186 -9.32659 -8.86491
7.2921 -10.8119 -9.27847
6.98153 -11.3222 -9.42289
10.3409 -9.45196 -9.83303
6.69697 -11.4308 -9.06283
8.22688 -8.83089 -8.03156
7.54564 -9.50763 -8.06017
8.72775 -8.89235 -8.27664
7.92448 -9.71712 -8.2312
6.65133 -13.0785 -9.57397
8.13713 -9.41097 -8.10834
5.07002 -16.2081 -10.9187
-0.484036 13.8152 -8.83968
7.9245 -9.47381 -7.91437
7.53654 -11.1518 -8.56305
8.59424 -8.78319 -7.82351
11.2126 -9.91521 -9.48774
9.22283 -9.04327 -8.09569
12.169 -10.3739 -10.0149
8.28805 -8.75962 -7.41364
4.07277 -16.9078 -10.6566
4.30932 -15.5448 -9.90064
0.0935617 14.1406 -8.59115
8.05924 -9.60949 -7.51026
3.98947 -15.717 -9.66689
11.8689 -10.158 -9.35036
7.05694 -11.3768 -7.94277
7.96029 -9.02738 -7.12498
5.61462 -14.2921 -9.06636
6.66145 -13.0267 -8.55589
8.58079 -8.81509 -7.16415
9.97596 -9.34777 -7.96612
2.84838 -11.9966 -7.06284
5.65305 -14.3138 -8.70573
9.88845 -9.38087 -7.69966
6.80194 -11.3664 -7.4522
3.3205 -20.4071 -11.5893
9.12969 -9.18775 -7.25582
12.6286 -10.5922 -9.22786
7.01369 -11.3013 -7.4037
4.79586 -14.9251 -8.65784
6.40254 -12.9703 -7.95029
0.879652 18.625 -10.1542
15.0614 7.96042 -9.26211
4.30538 -14.546 -8.18725
15.3507 -12.1443 -10.5444
15.436 7.67204 -9.18754
14.4261 7.95006 -8.75797
4.86602 -15.1213 -8.43532
12.5068 -10.5028 -8.58907
1.80114 -20.1343 -10.4023
11.8105 -10.1897 -7.98617
2.06951 -19.9192 -10.1642
14.5471 -11.5445 -9.38727
-0.010237 14.1798 -7.11845
-6.96632 14.4629 -8.03712
10.9496 -9.91978 -7.41885
7.74859 -9.71442 -6.18556
18.2711 5.68642 -9.33884
-8.09557 15.3312 -8.37119
12.0698 -10.1349 -7.62316
10.8471 -9.90417 -7.04834
15.4211 -11.8204 -9.36592
17.4494 16.5361 -11.4314
7.75148 -11.4497 -6.58117
15.4863 7.65295 -8.11043
14.4836 -11.4659 -8.62838
-11.2713 16.1314 -9.00815
16.5553 -12.5416 -9.48264
9.9698 -2.49976 -4.72138
-8.9391 -1.62505 -4.13231
19.7531 19.0668 -12.3996
4.02454 -9.34524 -4.61314
-9.66034 15.7696 -8.29708
-5.25283 4.3675 -3.07056
7.11192 -11.7 -6.1574
9.72561 -9.37073 -5.95237
16.5518 7.55167 -8.03148
-6.30868 14.3102 -6.82337
1.50721 -18.6147 -8.07761
-10.5348 16.0197 -8.24745
9.78031 -3.44013 -4.4402
-9.19129 -1.71603 -4.01496
7.2777 -11.4477 -5.72848
16.5329 -12.4949 -8.6696
15.1085 7.988 -7.17366
19.8237 20.6322 -11.9699
1.00248 -21.7926 -9.08751
-4.36034 13.3082 -5.765
-9.73417 -1.08868 -4.0598
14.5217 8.01983 -6.7786
21.8544 23.7799 -13.1785
-12.7135 2.38261 -5.26845
15.601 7.41328 -6.99058
-4.98221 13.6303 -5.83045
3.75382 -9.07659 -3.90466
12.8543 -10.6501 -6.53541
14.5481 -11.4855 -7.23902
20.4922 22.9444 -11.9459
19.5092 6.01649 -7.92074
1.54168 19.5084 -7.59322
-8.24348 14.8433 -6.53882
11.8207 -10.42 -6.05704
20.4952 23.7708 -12.1031
0.669 15.4148 -5.9119
-1.62448 12.3784 -4.7999
2.75346 -12.3745 -4.86176
-8.61386 -1.23022 -3.30793
3.44325 24.2323 -9.29049
0.685624 -22.4169 -8.46995
15.8991 -12.1829 -7.54924
9.68928 -3.53549 -3.89039
-13.6821 16.8608 -8.08657
-7.74877 -3.44223 -3.111
1.09198 -10.3295 -3.82197
7.30384 -11.6698 -5.02913
14.6458 8.17884 -6.06114
-8.14438 -2.79627 -3.09742
0.777328 15.3457 -5.48219
-3.75906 12.6861 -4.67504
5.96239 -11.4081 -4.52459
16.6041 -12.547 -7.36658
19.8099 6.11877 -7.29837
2.18321 21.4855 -7.58391
23.4399 28.3452 -12.7977
-9.16925 -1.32838 -3.16606
-13.8831 17.133 -7.56312
3.06907 -13.7279 -4.83689
-8.34589 15.068 -5.88019
19.509 -13.8169 -8.18877
-4.77675 13.702 -4.92861
14.5227 -11.7013 -6.25436
1.3106 -21.1234 -7.01941
1.77316 19.9731 -6.63001
1.45757 -10.3181 -3.44382
43.1609 -22.0621 -15.9007
-3.10236 -22.9608 -7.48073
6.39242 -10.4049 -3.9047
18.4984 -13.0608 -7.24857
2.13927 21.0695 -6.74603
-12.4672 16.6396 -6.55012
1.37869 -21.2911 -6.65518
-4.06982 13.9017 -4.49599
-10.2387 15.5091 -5.62699
-2.42289 -24.7936 -7.58167
3.17653 -9.79893 -3.12629
0.753678 -22.4549 -6.76525
18.9947 10.9793 -6.49406
20.2578 -14.3786 -7.367
18.2257 5.76623 -5.6129
-7.39785 14.3136 -4.68549
4.40574 -10.9198 -3.4174
3.78571 -11.0335 -3.31482
4.4428 -11.4519 -3.44284
-12.3857 16.5521 -5.74578
-8.67149 14.8192 -4.66611
-12.8875 1.93196 -3.57295
-15.6738 18.0054 -6.47725
28.3369 -18.6535 -9.18748
-3.36238 -24.0318 -6.52251
3.93511 -9.50405 -2.74819
-9.15218 15.2091 -4.72015
32.9477 -15.6577 -9.73232
52.3483 -15.2844 -14.4586
10.9372 -9.75415 -3.87663
-6.01239 13.9117 -3.95388
-13.4093 16.8095 -5.63829
-6.7716 -32.0853 -8.55565
5.17152 -9.97831 -2.90497
6.83697 -10.9374 -3.32376
-6.70664 14.2274 -3.99306
-9.84875 15.3361 -4.65268
-8.28518 -32.8594 -8.4412
49.8226 -12.6254 -12.7483
-7.48207 -32.3263 -8.11714
11.3825 -10.0336 -3.7286
-7.4308 14.4161 -3.92837
-10.9132 15.8596 -4.65618
15.1018 7.97769 -4.05818
-25.4358 -38.2432 -10.9721
4.21884 -9.63864 -2.48647
15.7222 7.78726 -4.13909
3.91215 -9.29496 -2.36682
-5.61305 -28.0084 -6.62581
5.86954 -10.3075 -2.74567
49.2043 -11.9075 -11.7657
-11.9087 16.2192 -4.62789
15.3675 7.87079 -3.91054
47.9961 -10.3831 -11.124
-9.10916 15.17 -3.95666
-27.1847 -66.8069 -15.6834
3.91079 -9.73614 -2.27839
47.0939 -12.0816 -10.6107
15.6397 7.75936 -3.74283
-9.88904 15.4343 -3.92263
-19.4315 -30.5501 -7.78359
-15.3132 -47.869 -10.8403
5.05594 -10.2222 -2.4565
9.79184 -9.25683 -2.83953
49.5584 -11.6042 -10.8898
-13.7048 16.9784 -4.58721
-29.5041 -21.7768 -7.77401
45.7426 -15.305 -10.2029
15.3598 8.1169 -3.62736
-32.0322 21.6616 -7.90315
-7.02819 -28.7619 -6.00677
4.19943 -12.213 -2.59112
48.9527 -10.5622 -10.1859
12.2751 -10.1608 -3.19383
47.1335 -12.1339 -9.69826
-24.7874 18.7048 -6.16058
-31.7271 -20.0741 -7.42365
6.44795 -10.7904 -2.49923
50.6499 -11.8446 -10.1593
-11.8664 16.1898 -3.87598
-24.6226 19.296 -6.07563
16.7644 12.6819 -4.02355
-6.36689 14.0106 -2.95025
-30.2871 -21.9069 -7.15556
-28.9071 -22.6363 -7.05701
-32.2497 21.4897 -7.29409
-30.8489 -20.3498 -6.9844
18.6914 5.87662 -3.6606
-31.4077 -18.9503 -6.85076
-12.4691 -35.9565 -7.09892
3.99625 -10.4027 -2.09406
-19.3413 -48.1597 -9.66224
-13.9141 -37.4918 -7.32324
4.19315 -10.1577 -1.97858
13.6421 -10.6597 -3.12066
50.0002 -11.1268 -9.2012
-13.6458 16.9238 -3.8816
-24.7396 19.4034 -5.54809
15.6137 8.26572 -3.08114
-27.6146 -24.0643 -6.38535
-16.6061 17.9124 -4.20234
46.9806 -12.0343 -8.32647
-7.35873 14.1732 -2.70204
-8.94854 16.4772 -3.16384
49.1584 -11.5723 -8.54007
-28.0217 20.4105 -5.83359
-27.8047 -21.3915 -5.86404
-18.1427 -30.6405 -5.98308
-19.1845 18.3435 -4.41343
-29.4006 20.7633 -6.00173
16.7512 -12.4982 -3.4232
-9.58916 15.2225 -2.85956
-38.7402 22.7959 -7.1281
-28.9968 -21.7835 -5.80647
-30.6715 -21.1561 -5.86861
3.65073 -10.091 -1.67463
-21.8821 18.6926 -4.4423
-13.1354 -14.7392 -3.05227
17.8374 -12.6101 -3.38219
-10.3677 15.5157 -2.83265
50.8523 -11.9183 -7.928
-18.5867 -43.0763 -7.09514
-26.9085 20.1808 -5.02685
-34.6025 21.5755 -6.04995
-28.9607 -22.4804 -5.46979
49.1159 -10.5256 -7.4801
-30.8308 -22.297 -5.55945
-44.0634 24.6025 -7.25322
-32.4666 -21.6555 -5.61729
7.21525 -13.8441 -2.26308
-33.2313 -19.3141 -5.43926
-6.37179 14.0464 -2.13895
-12.1451 16.3947 -2.83671
-29.2208 21.0378 -5.03049
-25.0963 -21.5219 -4.559
-19.9473 -44.4261 -6.72016
-13.1141 -38.3422 -5.57918
39.8932 -13.2671 -5.76562
-21.3352 18.7486 -3.77739
-29.5497 -22.1292 -4.8195
-28.0229 -22.989 -4.79214
-31.0489 -21.3834 -4.82869
7.76548 -9.83557 -1.61903
47.0693 -12.0491 -6.23503
-30.4315 20.7083 -4.67786
-27.7975 -14.8329 -4.01581
6.26028 -8.10747 -1.30741
49.3623 -11.6025 -6.42952
-28.2878 20.7901 -4.37876
18.6419 -13.5229 -2.87551
15.2381 -11.8719 -2.37217
-14.8199 16.9538 -2.69143
-27.337 20.5899 -4.13826
-29.6152 20.9355 -4.36482
-9.58458 15.244 -2.0787
-28.9744 -20.8386 -4.19844
-18.5584 -44.6803 -5.63194
13.5958 -10.9962 -2.0461
38.8492 -12.8377 -4.73456
6.6863 -10.9034 -1.46828
11.6711 -10.1139 -1.73929
17.3589 -12.9246 -2.43776
-10.2602 15.3849 -2.04606
7.2372 -13.4831 -1.67429
12.1008 -10.1056 -1.74528
46.884 -12.0228 -5.31469
-35.1388 21.9098 -4.44264
49.4447 -11.5542 -5.46822
15.6849 -12.0443 -2.10312
-12 16.2125 -2.07052
15.2868 8.09145 -1.73201
-16.3267 -41.4042 -4.51091
14.7001 -11.5967 -1.8697
-12.9736 16.5929 -2.04185
6.86759 -13.1604 -1.42669
9.77304 -9.2702 -1.30151
17.9829 -13.1494 -2.17345
-27.0921 -12.9459 -2.82785
-13.8621 16.9753 -2.04206
-28.7052 -55.9248 -5.85218
-31.2529 -19.5562 -3.26325
17.0256 -12.758 -1.91391
42.0568 -13.9939 -3.9675
11.5984 -10.3102 -1.28209
47.3877 -12.112 -4.08055
-13.5513 -35.2663 -3.03581
-30.3696 -59.3848 -5.1951
18.6603 -13.598 -1.823
-27.4989 20.8125 -2.63722
7.76936 -9.57092 -0.953685
-29.8417 21.1246 -2.71535
-13.9775 -34.5791 -2.78811
-19.779 -45.2454 -3.56886
-28.8497 -54.2892 -4.37095
-27.5971 -55.2734 -4.23095
13.1607 -10.9527 -1.15234
18.0423 -13.1411 -1.50863
-35.5111 22.1073 -2.73445
47.7097 -12.2152 -3.23416
-26.9271 -12.6617 -1.78085
-30.7385 -59.3872 -4.04738
15.2513 -11.8901 -1.16516
34.2834 -22.5846 -2.2428
34.1472 -21.5219 -2.20577
15.8924 7.84914 -0.922826
15.3056 8.11617 -0.893932
-11.9148 16.26 -1.02306
-20.0213 -44.1821 -2.49045
-11.462 -31.199 -1.64688
-25.4501 -14.6985 -1.39353
-32.0724 -60.4464 -3.33804
10.0469 -9.46241 -0.690438
14.0998 -11.2131 -0.884955
16.6321 10.5809 -0.934934
17.0037 11.9181 -0.970711
7.34629 -13.4745 -0.728937
-19.2487 -5.67951 -0.861307
-24.7981 -44.1941 -2.23309
10.9353 -14.7638 -0.750407
19.1453 -13.8068 -0.964817
46.7807 -11.95 -1.92316
-8.98271 -11.8807 -0.574289
48.5626 -11.372 -1.96317
24.4187 29.3577 -1.30978
-29.8351 20.3957 -1.25301
-33.5644 -18.8214 -1.25046
-15.1269 -37.7019 -1.30279
17.4109 -12.9896 -0.709073
18.8925 -13.2961 -0.724771
14.8124 4.01222 -0.454988
-20.5514 -47.2255 -1.54066
-21.0399 18.7428 -0.805761
-10.358 -31.4096 -0.887306
47.1754 -10.0218 -1.35078
-37.6559 23.4227 -1.19937
-48.6607 17.498 -1.23857
-20.5669 -34.2991 -0.869442
48.054 -11.1589 -1.06324
-28.233 21.3376 -0.708239
-28.5979 9.09643 -0.627707
39.5043 69.1705 -1.47829
-27.6692 20.4214 -0.659555
13.5924 -11.1375 -0.305042
-31.8827 -19.8413 -0.579523
-24.4332 -49.138 -0.811414
18.511 -13.3499 -0.332201
-14.9174 1.88116 -0.195024
-10.565 -31.9421 -0.431078
-13.2158 16.7775 -0.219065
-16.7179 -38.4218 -0.451188
33.1103 -20.7386 -0.353023
-21.0362 18.7695 -0.192658
-9.48645 -12.1755 -0.045744
7.47656 -12.4722 -0.0257145
15.1202 7.90725 -0.00218948
-32.7602 -20.2293 0.208233
-20.6564 -35.3047 0.306372
-47.1194 25.8129 0.548106
7.1516 -12.6895 0.149986
8.33975 -9.48241 0.125338
-37.6222 -20.0019 0.471751
-9.91111 -28.069 0.336085
11.5784 -10.0932 0.200422
-21.4329 18.3139 0.369378
-11.581 -17.9693 0.312978
-28.5809 20.3386 0.623271
-32.355 -21.6913 0.700654
-31.7854 -23.4814 0.693299
11.0818 -9.95884 0.242146
8.13941 -10.0332 0.276597
8.23025 -9.60634 0.271921
-61.7781 21.3929 1.52804
19.2006 -13.9381 0.576508
-27.2051 -8.17302 0.761777
-25.7162 20.1672 0.939445
-54.5523 20.6569 1.58896
12.0939 -10.3617 0.433242
18.0046 -7.80461 0.55731
-23.0621 19.5601 0.898356
-7.65868 -8.981 0.376488
13.3196 14.4815 0.696908
-25.9294 -18.447 1.10192
6.64836 -13.6987 0.533934
9.25293 -9.10514 0.442412
25.7882 -4.56981 0.873899
19.7019 18.8152 0.980253
15.1823 26.2827 1.13783
-81.5017 29.0868 3.17779
-50.8839 16.7259 1.92791
25.5912 -4.97144 0.985617
-23.5284 19.2205 1.14634
9.74648 -9.27212 0.518837
23.3865 -3.22201 0.889862
12.8154 14.843 0.800107
15.7886 20.4005 1.05323
-28.9998 -15.9575 1.3307
6.99922 -13.2705 0.614025
21.5161 49.7361 2.25757
8.0661 -11.6235 0.59494
-7.36494 -7.24994 0.457223
-7.96021 -11.0133 0.608646
-27.9137 -11.0501 1.43199
17.0653 11.0782 1.01143
-7.54166 -7.01719 0.493954
16.6672 25.8943 1.58812
-6.76536 -7.96428 0.575335
15.5885 21.3465 1.44574
-24.173 18.6144 1.6846
15.7141 25.592 1.73629
-6.91171 -8.91015 0.645501
7.38611 -14.6367 0.938534
10.3197 12.9808 0.979501
15.7313 20.9009 1.63759
16.6204 29.5808 2.08661
11.8912 33.3503 2.25037
-7.05999 -9.63609 0.765612
10.4009 23.7031 1.73589
11.8107 10.389 1.11927
11.9166 12.6015 1.22238
14.4434 16.6895 1.57738
8.709 -13.4244 1.12731
11.0869 9.25473 1.06077
13.5147 15.1582 1.51757
-13.8825 8.18694 1.21708
-10.9094 2.05529 0.839057
13.1213 17.0802 1.66968
12.3494 19.6816 1.80274
10.3987 -7.1163 0.982295
-7.46874 -7.9009 0.870875
13.2387 11.9839 1.45468
12.3034 12.0364 1.42699
-6.86459 -6.0399 0.743598
-6.90066 -6.74789 0.801374
-12.9237 1.82985 1.07792
-6.83332 -8.65324 0.95125
11.9119 12.4342 1.48315
9.34562 -7.3438 1.03319
10.9593 9.65417 1.3261
-11.1627 2.8585 1.058
-7.44679 -6.93629 0.915181
11.9904 9.25192 1.44854
9.60858 13.5877 1.59681
7.52768 13.8514 1.54434
8.78636 13.6612 1.62789
-6.59762 -6.57466 0.926708
8.07508 -6.71193 1.02607
10.0543 12.5934 1.61378
10.2493 10.4697 1.51183
-6.75543 -5.303 0.89428
9.88713 9.41483 1.45412
8.48172 11.5315 1.49944
7.07829 13.7251 1.64481
9.83582 8.58301 1.38038
9.47092 10.5486 1.54311
5.95706 13.1223 1.55976
-6.23101 -7.33849 1.04155
6.94024 11.8122 1.50667
5.52271 13.8384 1.64389
-6.72078 -3.91969 0.85939
-6.56249 -5.95605 0.97719
4.08904 -8.1023 1.00199
5.5817 -6.25326 0.939899
9.57651 7.70933 1.38039
9.32902 9.92809 1.53506
8.20135 11.6814 1.59458
9.37039 -7.68219 1.32768
7.00667 11.0578 1.49207
-6.76472 -4.49324 0.921415
4.88383 -7.96741 1.07731
-10.3527 6.9402 1.44461
-6.99589 -2.10474 0.850001
9.19011 6.20821 1.31813
6.14189 12.5357 1.64952
5.19165 12.0066 1.54276
-6.57536 -5.05606 1.00127
4.88972 -6.00527 0.909657
9.10964 9.23763 1.54259
4.28607 -8.21618 1.12396
8.46444 3.92054 1.1679
11.1948 5.58379 1.53607
4.79865 13.3526 1.76675
-6.0467 -5.29034 0.98609
-8.99585 1.28241 1.13179
8.43871 7.71811 1.4462
-6.32109 -5.22416 1.0379
7.97489 8.37611 1.48587
-6.78508 -3.52009 0.989947
5.09187 -6.11452 1.0253
5.13328 -5.5454 0.983458
8.57338 7.05376 1.46949
8.12159 8.03081 1.51859
-7.11021 -1.70156 0.984858
-6.93894 -2.1804 0.974544
-6.38372 -4.3042 1.02323
4.95541 -6.24581 1.05889
8.54605 6.477 1.45734
-6.74118 -4.15107 1.06714
-5.95463 -4.37537 0.994248
5.06177 -5.66238 1.04098
7.53851 -3.58041 1.15997
8.49153 4.31114 1.35137
8.458 4.64771 1.36814
-6.84404 -2.86689 1.06107
7.61164 -3.79883 1.21309
7.12671 -3.10277 1.09493
5.05926 -5.92677 1.12278
8.31565 -1.75939 1.22944
-6.85932 -3.21095 1.12351
7.50757 5.65714 1.4108
5.86928 7.57776 1.44711
8.09921 3.96871 1.3769
8.02141 4.25398 1.37923
5.55037 7.97007 1.47616
5.20849 8.89715 1.55749
3.62262 9.90991 1.59255
-6.91162 -2.78767 1.13629
7.80365 -2.83876 1.27039
7.96574 -2.26994 1.2767
7.91166 -2.04667 1.26122
7.56689 4.26199 1.39923
7.16744 4.81951 1.41822
6.83597 4.98235 1.40555
5.47347 6.55907 1.42107
-7.11607 -1.34376 1.19885
5.08998 7.47502 1.50901
4.81577 7.3708 1.47775
-7.13271 -0.79444 1.20136
2.95442 -6.11021 1.14131
6.78393 4.13967 1.35678
6.59988 5.30156 1.43671
3.92752 8.12846 1.51539
-6.30191 -2.27278 1.13658
-6.20666 -2.64835 1.15094
3.85663 -5.35609 1.12152
-6.88731 -1.77349 1.24269
4.31549 -4.72937 1.12317
6.74488 3.55173 1.37557
5.13186 5.67637 1.39795
3.71706 -5.48438 1.20416
3.42474 6.86779 1.43103
6.56929 3.08266 1.37752
6.4985 2.74404 1.34566
-1.60369 -5.55348 1.11172
-2.1173 -5.62282 1.17326
6.31892 2.40239 1.35014
4.01122 -4.66335 1.22142
-2.93179 5.47053 1.32007
-3.5512 5.10713 1.35273
4.26004 -2.96285 1.21804
4.82044 4.00582 1.47534
-4.21745 3.87314 1.39287
4.63685 -2.21065 1.2452
4.51972 -1.2807 1.1667
3.75205 -2.9693 1.24471
3.71689 -2.61098 1.20349
3.46422 -3.01122 1.237
-2.28994 -3.56862 1.19184
-2.47201 -2.89531 1.18478
1.88661 -2.50911 1.13805
1.94923 -2.66884 1.20344
-2.02723 2.7803 1.30151
-2.05877 -1.45459 1.1894
-1.81174 -1.81755 1.29341
-1.96531 -1.16523 1.20255
7.00513 -7.01124 -9.00126
9.92509 -9.27983 -9.61189
9.48225 -9.15637 -7.85012
2.43428 -19.8109 -10.6014
3.76104 -9.50943 -4.60687
29.2326 36.3308 -15.6796
2.08499 20.8478 -6.2182
-20.1709 -28.099 -6.46156
-25.9436 -24.1292 -5.4632
9.86092 -9.09764 -1.67636
9.08523 -8.95225 -1.2784
9.24766 -9.12111 -0.962685
20.3415 -14.403 -1.36278
47.7771 -12.8332 -2.56284
-29.4533 -12.4566 0.324562
10.3127 7.09778 1.32769
-3.42628 5.21162 1.33654
8.13014 -8.38804 -10.4739
7.99197 -8.41848 -10.2128
8.55041 -8.63733 -10.0594
6.96759 -12.0143 -11.4039
8.13917 -8.40001 -9.24699
8.1834 -8.89226 -9.28171
9.72445 -9.07374 -10.0403
6.31604 -14.3532 -11.7927
5.97163 -14.4001 -11.4088
9.29921 -9.03546 -9.49986
7.79647 -9.40336 -8.84758
8.02956 -9.30403 -8.78052
7.37581 -10.9184 -9.36955
10.5101 -9.56455 -9.95564
6.56993 -11.311 -8.93112
8.37496 -9.29483 -8.38396
7.50903 -9.53791 -8.09676
8.14637 -9.41388 -8.17949
5.08791 -16.093 -10.8845
-0.53409 14.2148 -9.13091
7.48438 -11.046 -8.55301
10.613 -9.74212 -9.3324
7.7888 -9.3468 -7.77931
11.3155 -10.0927 -9.62067
7.22908 -11.1853 -8.29492
8.39257 -8.80636 -7.5526
0.0955905 14.2134 -8.6619
7.93959 -8.92426 -7.19217
11.8529 -10.0598 -9.37571
9.22695 -9.15016 -7.67464
6.73829 -13.1401 -8.70521
5.62439 -14.2298 -8.98694
8.44115 -9.13668 -7.19189
7.23581 -11.3751 -7.73271
5.20588 -13.0445 -7.8824
9.12271 -9.26206 -7.28981
3.17745 -19.3012 -10.9669
6.79297 -11.3884 -7.42453
8.0558 -9.28083 -6.88671
12.6103 -10.56 -9.1923
-0.503328 14.3636 -7.89153
9.99451 -9.78741 -7.66569
13.7791 -11.0438 -9.51905
15.5871 10.6787 -10.1596
15.5035 7.61901 -9.23792
14.2636 7.86602 -8.62177
11.7968 -10.1779 -8.00073
-0.0797834 15.309 -7.74926
2.35362 -19.2412 -9.79395
11.0178 -9.87423 -7.43838
7.55678 -9.53982 -6.10047
14.6938 -11.6522 -9.43697
18.9243 -13.5287 -11.3117
19.2968 5.95885 -9.8183
2.63324 -19.2006 -9.41434
13.308 -10.9904 -8.34022
16.093 -12.2508 -9.80559
7.53918 -11.1066 -6.45935
15.4789 7.58907 -8.02907
7.31723 -11.2482 -6.24868
6.42559 -10.9669 -5.88084
10.2006 -2.55965 -4.83524
18.225 -13.314 -10.3645
-11.1223 15.9554 -8.85555
3.62936 -9.24141 -4.49362
-9.64477 15.7558 -8.29232
16.5201 7.47306 -8.11937
-10.585 16.0932 -8.29821
-6.87646 6.667 -4.12197
-6.31771 6.29998 -3.79509
1.21603 -15.4908 -6.60398
21.1956 21.9678 -12.8259
16.9792 -12.8298 -8.94321
15.6469 7.69071 -7.29183
13.4406 -10.6458 -7.14919
-9.85794 -1.07564 -4.11828
21.2758 23.1671 -12.9317
14.5407 8.03541 -6.76826
16.9656 7.64282 -7.48137
15.4959 7.97497 -6.99687
18.2577 16.9352 -9.80847
1.4925 -17.7756 -6.9663
19.3732 5.97809 -7.85177
20.6758 23.0833 -12.0003
0.754898 16.3402 -6.28881
-9.05927 -1.31384 -3.54712
3.49382 24.5034 -9.3804
0.692043 -22.8253 -8.69291
17.7414 -13.1202 -8.24903
14.6105 8.15977 -6.05532
0.523095 -21.2453 -7.49847
-3.85549 12.9355 -4.72948
-9.95897 15.2978 -6.38132
-0.77403 -20.9262 -7.37324
-13.9665 17.2303 -7.6626
-8.34708 15.0687 -5.90337
-4.75923 13.5328 -4.82908
17.0873 7.67093 -6.23105
1.27396 17.8767 -5.97812
-5.0445 13.4218 -4.71947
42.5917 -21.8834 -15.8013
12.9977 -10.7501 -5.43229
8.29368 -9.4997 -4.03719
15.2838 -11.962 -6.21374
18.9212 17.5076 -7.99615
7.64672 -9.08015 -3.67157
-3.96305 13.3138 -4.17179
11.9968 -10.174 -4.74483
25.5006 32.3769 -12.435
15.6796 9.86974 -5.31203
14.2744 -11.1457 -5.19325
-5.1412 13.6906 -4.10856
-12.4826 16.7489 -5.88802
16.3095 11.0252 -5.42886
49.0516 -15.6947 -13.8994
-8.99148 15.1028 -4.66517
-24.8208 19.2226 -8.19225
-22.0051 18.483 -7.42842
-6.64846 14.1046 -3.98032
-7.39732 14.3458 -3.9299
-23.9066 18.8653 -7.41582
-3.09547 12.629 -3.10779
-10.9152 15.8334 -4.5906
3.25104 -9.96985 -2.4758
15.2742 8.14844 -4.09142
-30.2657 -23.7606 -9.02554
5.6895 -12.2595 -3.17928
54.9626 -13.2561 -13.139
-6.04736 -29.6158 -6.95973
-9.039 15.1556 -4.0281
15.5824 7.63594 -3.93562
-27.4628 19.9656 -7.53273
-10.0366 -35.9379 -8.20827
3.92596 -9.9126 -2.3437
46.6828 -11.8288 -10.4029
-31.7982 -20.8847 -8.10968
-13.6915 16.9879 -4.5262
15.1412 8.08786 -3.56974
-29.1774 -22.0783 -7.5337
9.65692 -9.55949 -2.81595
47.5837 -12.0972 -10.0709
50.8079 -10.7755 -10.4821
-25.9983 19.5132 -6.40738
-18.7412 -30.4672 -7.03673
5.78626 -10.8802 -2.35747
-30.2797 -21.8766 -7.06399
-31.6306 -20.8718 -7.07782
19.5285 6.06073 -3.76763
-18.9333 -47.1417 -9.43661
-13.6506 16.968 -3.95118
14.2802 -11.1196 -3.23364
15.8646 7.77927 -3.11742
-4.8398 12.9071 -2.42001
-17.0808 18.2758 -4.41877
-17.7674 -42.3085 -8.00997
-19.6598 -31.7161 -6.44364
-30.6968 20.7968 -6.28583
9.4868 -9.33108 -2.25681
-28.2631 20.5879 -5.6873
-29.2772 -21.9974 -5.84846
-16.1773 -43.0645 -7.35511
46.8381 -11.8925 -7.70837
-39.4725 23.3138 -7.22025
-33.7381 -21.1223 -6.17237
6.80782 -11.4895 -2.08332
-26.6291 -23.7378 -5.39034
-27.9114 -22.9012 -5.41224
-16.5362 -40.7459 -6.53863
6.93288 -13.2768 -2.2329
-30.2207 -21.7342 -5.32796
-28.3991 -22.3559 -5.12928
-29.1864 20.8956 -5.01761
-28.5925 -16.072 -4.58959
-12.0544 16.2743 -2.75399
-29.9528 -22.3933 -5.06379
-27.5016 -23.6601 -4.92478
-29.3179 -18.2329 -4.53327
-30.8232 -21.2466 -4.9379
-30.2901 20.5451 -4.60995
-27.7595 20.6611 -4.22947
-36.4884 21.5528 -5.20657
13.5567 -10.9611 -2.0436
10.0959 -9.45278 -1.58985
-26.6794 -12.1727 -3.19874
10.9755 -9.60211 -1.60574
-12.0668 16.3152 -2.13577
-17.2727 -38.2567 -4.48738
15.9043 -12.2302 -2.14101
-28.2589 -22.3484 -3.653
50.6802 -10.7715 -5.18073
18.1196 -13.2211 -2.20738
46.5735 -12.518 -4.54888
-25.9767 -53.2916 -5.259
-21.4295 18.7505 -2.49414
-27.1272 -12.1739 -2.58269
7.33996 -11.2824 -1.18086
18.0174 -13.019 -1.92458
-26.7025 -23.8245 -3.01831
10.2373 -9.29534 -1.14121
14.4014 -11.4506 -1.48024
-31.013 21.026 -2.86476
-27.2388 20.4095 -2.51703
17.6918 -12.9051 -1.6001
-14.504 -35.5635 -2.75492
7.6594 -9.50258 -0.889599
-20.3354 -46.6759 -3.50469
9.95494 -9.37739 -0.907662
9.95914 -4.84982 -0.699708
11.8078 -10.2304 -0.984069
-12.3795 -33.9904 -2.12961
15.7678 7.74525 -0.96543
15.18 8.12772 -0.939642
12.3179 -10.459 -0.834518
17.8911 -13.4001 -1.06889
-11.6044 15.8968 -0.947166
-28.8341 -51.5191 -2.83319
-22.0147 -44.0771 -2.35966
-23.0409 19.4794 -1.36819
-32.2189 -18.1803 -1.24227
-14.9817 -37.0813 -1.33184
-19.8451 -45.8956 -1.44367
-17.1451 -46.2494 -1.42787
-46.3175 16.663 -1.15736
16.2216 14.1533 -0.419518
12.0236 11.6982 -0.318128
26.4807 32.3348 -0.720162
13.8894 -11.4291 -0.332362
-27.8976 -14.8234 -0.486457
-18.1174 -39.7881 -0.713958
-18.7038 5.42132 -0.102842
-27.1913 -52.1912 -0.308951
32.6395 -20.5893 -0.257015
19.7425 -13.7192 -0.0266347
15.3177 7.92646 0.0322437
-47.3315 25.9158 0.338973
-29.4752 -12.3655 0.224487
6.99658 -13.0721 0.168537
11.8937 -10.3933 0.171717
-11.4622 -17.7028 0.281112
27.5016 -5.33771 0.792193
26.4462 54.1873 1.88587
-7.59377 -8.95984 0.406846
-28.6048 -13.637 1.19539
18.1683 32.7841 1.6158
-10.1631 -15.8749 0.7985
15.8863 21.0826 1.20604
22.1642 43.3183 2.19573
19.2023 36.8167 1.94343
7.04952 -13.3476 0.710163
-6.75352 -8.20788 0.546777
17.1774 28.4113 1.77292
6.87069 -14.9638 0.85105
8.79257 -7.9091 0.69145
-6.61679 -4.46705 0.472406
-11.2492 -8.58765 0.838551
-7.25606 -10.0189 0.824371
11.3361 9.39152 1.04585
6.77305 -14.0494 1.09257
-7.00024 -6.20252 0.666839
7.46166 -11.4068 0.968852
9.3354 -8.02447 0.902003
13.9097 21.708 1.97435
-14.4468 8.07505 1.27103
11.2921 -5.05079 0.938982
9.83488 -9.2301 1.07497
10.8566 13.0678 1.53046
-6.56095 -7.33199 0.878777
6.68305 -6.35866 0.852845
11.3797 9.40499 1.3856
6.81985 14.1914 1.50088
10.3811 7.59863 1.2589
4.86589 13.4644 1.39855
10.1614 12.7578 1.6395
7.91334 10.8324 1.39777
6.95358 13.4761 1.61418
8.44674 -6.81728 1.13933
10.4623 9.89451 1.53747
7.39594 11.1583 1.44026
9.07329 9.64136 1.49598
4.86431 -6.00498 0.868558
10.1289 5.58612 1.31978
7.3167 11.621 1.60035
6.16875 11.0805 1.50198
-6.92341 -2.06648 0.838847
8.71327 8.85404 1.47173
-7.0923 -0.806325 0.853908
-6.76137 -3.89748 0.928075
4.68458 12.9388 1.67551
-6.92592 -2.29742 0.879298
-7.34865 -0.972408 0.91171
-9.00434 1.31715 1.13694
8.55496 7.8101 1.46995
4.95165 -5.38577 0.953704
7.97412 8.41954 1.52465
5.84685 -5.71626 1.05567
-7.12905 -4.42613 1.13306
7.40274 -3.94408 1.16191
7.6035 -3.60542 1.172
7.60209 -3.32925 1.15752
8.29342 4.21842 1.32838
7.56292 -3.77593 1.2057
8.4985 4.66902 1.38698
7.84566 -3.07421 1.22092
8.05528 -1.95173 1.19049
5.84592 7.5572 1.44047
5.33079 -5.74498 1.19822
-7.03847 -1.8026 1.13781
-7.08294 -1.3111 1.1454
6.2179 4.52231 1.2758
5.40731 6.49724 1.39923
-6.32503 -2.28335 1.12248
6.93152 4.25932 1.38309
-7.23016 -0.943318 1.23625
3.07037 -6.34047 1.18315
-6.86638 -1.7428 1.24505
4.08301 -5.21813 1.15069
-6.67271 -2.54598 1.26348
4.79208 -4.55945 1.17024
3.63339 -5.35525 1.18558
5.10663 5.6516 1.39108
-7.14686 -1.14124 1.32074
3.93016 -5.33671 1.23211
-6.95923 -0.798297 1.32853
6.41387 2.86941 1.35073
3.76239 -4.65733 1.15485
-2.19773 -5.25299 1.1456
5.06981 -6.60164 1.63709
3.87957 -4.49909 1.17367
4.23112 -4.40246 1.24851
-6.33101 1.46058 1.3472
-2.83583 4.74603 1.15683
-1.30845 -4.86637 1.11904
4.09831 -3.81532 1.23832
4.51696 -2.79041 1.22661
-4.39656 3.86958 1.35983
4.85209 -1.95987 1.25781
-2.68549 4.61407 1.25623
4.39294 -2.70981 1.24362
-0.996123 -4.13607 1.14665
-1.40149 -3.9364 1.16114
-2.11794 -3.76201 1.20037
4.03608 2.57935 1.34385
1.86327 -3.21192 1.22911
-2.02564 -2.40982 1.26201
2.59433 -1.82776 1.32808
2.49061 -1.92847 1.32893
-2.1534 -1.76586 1.20474
2.37425 -1.30707 1.20064
-1.99163 -1.47984 1.19538
7.90455 -8.45648 -10.1919
8.31181 -8.33309 -9.72687
6.87524 -11.9954 -11.288
8.17346 -8.53016 -9.31206
8.22975 -9.11365 -9.28137
6.36856 -14.1308 -11.654
9.25454 -9.08493 -9.50722
7.43412 -9.67048 -8.93916
7.5399 -11.0896 -9.52788
8.35813 -9.09876 -8.37366
9.14387 -9.15418 -8.58075
6.51533 -12.7525 -9.32306
5.29857 -16.2393 -11.0666
7.43526 -10.8256 -8.45235
10.948 -9.94763 -9.48881
8.08193 -8.5434 -7.17011
0.0951007 15.4958 -9.33496
12.5764 -10.6223 -9.92264
8.4835 -9.37609 -7.55275
6.44779 -12.4351 -8.27021
-0.33402 13.1067 -7.63262
7.63158 -11.1485 -7.43678
8.03529 -9.23805 -6.76177
6.01393 -13.0119 -7.8068
15.5123 10.5279 -10.1345
14.2448 -11.3403 -9.82843
14.5778 8.08852 -8.75752
0.279687 14.6289 -7.67796
5.89706 -10.2748 -6.19386
10.9536 -9.93605 -7.45134
13.238 -11.0461 -8.40753
16.1047 -12.1488 -9.81134
10.2516 -2.57884 -4.81936
16.6489 7.64408 -8.11341
9.80934 -3.52609 -4.62812
15.1199 8.20805 -7.51273
21.1791 21.6791 -12.7522
1.27351 -16.8573 -7.10508
14.7689 -11.6798 -7.96564
16.1386 7.66859 -7.49517
9.87745 -3.33454 -4.33968
14.6146 8.14009 -6.72344
16.0343 8.23537 -7.18284
17.9028 16.6987 -9.77044
-9.23257 -1.33783 -3.6749
0.61031 -24.0613 -9.39505
0.862945 17.0901 -6.65763
16.7816 -12.6 -8.03487
15.6114 11.9948 -7.21025
10.8729 -9.81901 -5.30345
-0.34231 -22.2593 -7.90787
-0.77887 -23.6642 -8.2456
-3.87894 13.0279 -4.69416
-12.8326 16.7897 -7.28192
17.7889 8.0344 -6.44712
1.39366 17.9165 -5.95958
-4.89852 13.4835 -4.71456
7.62789 -8.69729 -3.79351
-17.6089 18.3832 -8.01251
-2.51673 -23.6317 -7.54156
-10.3881 15.944 -5.9612
-3.96842 13.372 -4.25295
4.00044 -13.145 -4.14801
-5.14265 14.1398 -4.35797
3.74694 -10.9199 -3.33709
17.1388 11.488 -5.78504
-3.33167 -23.7977 -6.50126
-21.678 18.1364 -7.5172
3.37589 -10.8774 -2.99233
5.27788 -10.1347 -2.95244
-24.7924 19.3565 -7.95603
-27.4689 20.0623 -8.63399
-31.1784 -77.3504 -20.3891
-27.1836 -38.3981 -11.3821
-8.9433 15.0942 -4.09315
-7.23049 -34.5399 -8.42487
-31.7685 -20.7726 -8.47075
-19.6316 18.6144 -5.92513
-12.3092 -34.944 -8.09833
-8.25986 -29.6624 -6.76351
10.7377 -9.62293 -3.17794
-21.3085 -55.0728 -12.3283
47.4878 -11.6493 -10.1356
-25.8574 19.1302 -6.20694
15.2378 8.29275 -3.2761
4.92404 -7.35787 -1.65168
-4.58359 12.5562 -2.43258
-23.916 -25.9247 -5.87671
-29.3122 -21.9981 -5.97429
7.21474 -13.6546 -2.3927
-25.768 -23.0525 -5.1392
-19.8597 17.7503 -3.86034
-28.7502 20.4881 -4.99996
-17.0586 -41.962 -6.33465
52.2102 -11.3322 -7.49164
-27.3428 -52.6235 -7.52673
-27.8252 20.8183 -4.19925
-33.7091 -66.2865 -8.02573
-31.7395 -20.6588 -3.95061
15.2696 8.33292 -1.73648
-37.6737 -70.2072 -7.23295
-18.2742 -49.3797 -4.68022
-21.5382 18.8462 -2.29012
-27.9756 21.0369 -2.50621
47.5559 -11.6688 -3.61934
-18.7923 -42.674 -3.25267
8.47115 -11.9451 -0.960145
7.50875 -9.4537 -0.785757
17.8979 -13.0944 -1.45144
15.4592 8.40612 -1.04487
32.1739 -20.737 -2.09752
-26.5949 -53.9344 -2.78642
-22.0458 18.5093 -1.24336
-8.55893 -11.5243 -0.546235
15.5601 7.99226 -0.613354
-19.1145 -42.6009 -1.07394
-14.8898 -40.5822 -0.981868
-21.1975 18.834 -0.502231
9.33757 -13.2688 -0.343857
-33.1428 -19.6039 -0.31441
-34.8804 -22.9982 -0.231813
9.94945 -9.35571 -0.112194
21.0266 -14.4343 -0.197078
16.2105 8.32873 0.136477
-28.8993 20.4441 0.341327
8.34086 -10.5202 0.278082
26.5971 -5.22539 0.921037
-6.11768 13.5205 0.585786
16.8801 10.6919 0.906377
11.3538 13.542 0.753013
15.1008 20.0487 1.14227
7.21505 -13.6681 0.694332
7.86542 -11.3106 0.595782
6.62622 -10.89 0.621245
17.624 28.457 1.75891
-7.09304 -7.80187 0.534836
-6.46619 -7.79639 0.522718
10.7397 -9.81421 0.789071
9.79811 19.5435 1.45946
-38.3879 -19.5781 3.00401
