ply
format ascii 1.0 
element vertex 1875
comment /media/mkaihara/Seagate Backup Plus Drive/model_iterations/model_8.ply
property float32 x 
property float32 y 
property float32 z 
end_header 
47.6621 -12.3617 -5.2783
10.1828 -9.50494 -1.47478
-17.2323 8.49139 -1.98024
8.85154 -8.94142 -1.31706
-27.5399 -22.0381 -3.67123
-22.7213 -45.5764 -5.31458
-23.9389 -49.7837 -5.64479
15.596 7.82225 -1.78731
-28.326 -21.8409 -3.66817
-11.8161 16.1078 -2.02674
-11.7667 15.7648 -1.95381
10.8085 -9.62309 -1.41695
-15.736 -39.9669 -4.21405
7.0235 -13.4499 -1.46483
10.0388 -9.47765 -1.30514
-46.8501 26.0955 -5.17541
17.9354 -13.1219 -2.13531
47.5666 -12.7819 -4.72362
-22.9531 -46.3989 -4.92196
-15.5188 -40.7293 -4.14226
-21.1819 18.5278 -2.62917
51.8705 -11.5393 -4.96643
10.2871 -9.51492 -1.29651
44.7205 -14.7522 -4.38978
-13.7653 16.8744 -1.97079
-27.2901 -12.4421 -2.73208
-24.1788 -47.1366 -4.88347
17.0576 -12.7675 -1.93751
-25.3007 -46.3529 -4.79534
9.13982 -9.2362 -1.17592
-32.4951 -18.4296 -3.26988
13.7671 -11.3641 -1.55387
51.3666 -11.9059 -4.52014
9.96097 -9.56494 -1.16031
11.6324 -10.2438 -1.30234
-30.3705 20.8573 -3.0639
18.1628 -13.245 -1.86141
-13.2318 -34.4335 -2.95592
15.7564 -12.3206 -1.59452
-30.2267 -59.0706 -5.26867
-9.60868 -26.9025 -2.25643
-26.7172 20.315 -2.59408
-29.4923 20.8463 -2.78639
-17.4247 -39.8044 -3.35464
8.1074 -9.921 -1.0217
-43.8899 23.8872 -3.78097
-19.4663 18.3213 -1.9437
-29.6426 20.9677 -2.62983
17.6632 -13.1981 -1.61271
47.6078 -12.74 -3.59344
-28.2707 -53.493 -4.36397
14.9649 -11.8405 -1.36545
-25.4569 -15.795 -2.06172
-12.283 -32.5853 -2.4039
8.55033 -15.7358 -1.19435
11.4383 -10.2153 -1.05055
-21.1933 18.5572 -1.90173
13.747 -11.3436 -1.19296
19.4499 -14.1069 -1.60172
-17.7882 -40.9862 -2.95207
17.2889 -13.0773 -1.43154
-11.5484 -32.0208 -2.20212
49.8422 -12.9629 -3.2225
-23.5427 -47.7027 -3.24341
39.6707 -9.62419 -2.50835
48.6646 -11.1387 -3.06854
6.88239 -14.8773 -0.977207
35.1281 -23.2445 -2.52028
-9.0284 15.072 -1.03254
-12.3652 -32.2579 -1.96633
17.9327 -13.4021 -1.25718
-9.07148 -11.7595 -0.813606
15.5974 8.00256 -0.952288
14.8836 -11.7821 -1.01675
-11.7508 15.9248 -1.03379
-13.1213 -32.5233 -1.8612
15.4867 8.14396 -0.862016
-12.901 -32.9784 -1.73588
-12.9882 16.463 -1.00298
10.1342 -9.55932 -0.639323
-18.1115 -41.5467 -2.04752
13.2715 -10.9104 -0.79692
-12.3319 -34.3775 -1.61951
-13.6145 -33.5441 -1.54747
7.66527 -14.1553 -0.712967
-10.7363 -32.731 -1.46556
-44.9293 24.4348 -2.07011
19.8986 -14.2959 -0.995008
18.153 -13.4933 -0.881541
-28.9293 -56.149 -2.37608
-13.9476 -36.5762 -1.4385
-29.9599 20.5858 -1.32905
48.2248 -12.426 -1.79718
-25.0644 -49.8575 -1.86069
-19.5025 -42.7406 -1.57689
22.2933 25.7852 -1.1407
-19.5125 18.2857 -0.871668
9.14744 -16.1457 -0.622446
9.98545 -9.53289 -0.448163
12.0305 -10.5914 -0.521704
20.1781 -14.2677 -0.813093
38.8665 -14.6593 -1.38123
24.6944 29.8943 -1.25336
-25.2481 -12.6639 -0.882686
-20.802 18.5249 -0.849257
-28.365 20.0899 -1.08459
-18.6327 -42.8377 -1.44176
-10.9536 -30.991 -1.00958
-9.03948 -27.2146 -0.837333
-16.0804 -41.0231 -1.32953
-12.8166 -34.7366 -1.05704
-30.5676 -18.5335 -0.948102
12.1706 -10.325 -0.428437
17.6194 -13.1053 -0.579889
-35.9966 22.269 -1.11569
-27.0802 20.6061 -0.841989
-27.9596 19.8678 -0.877344
-27.5779 20.2118 -0.808422
10.1399 -9.54573 -0.323497
-37.1178 12.8293 -0.866719
-17.8187 -28.6532 -0.78827
-24.8347 -41.5882 -1.08453
23.2582 -15.5554 -0.616388
34.3744 -20.844 -0.908974
14.7373 4.07312 -0.315314
-43.5608 15.7051 -0.902859
34.9758 61.1293 -1.31197
25.5066 -11.8748 -0.497693
53.939 -12.4202 -1.03451
-27.5625 -19.8076 -0.614834
-25.9709 -25.5083 -0.572415
-14.7699 -36.2441 -0.646457
13.5804 -11.1678 -0.290439
-23.9432 -11.3254 -0.403885
20.1252 -14.5426 -0.380827
-26.9507 -11.9786 -0.384103
-29.2244 -21.8707 -0.503193
-24.3202 -49.0274 -0.730488
-20.7791 -44.2256 -0.66226
-30.2959 -20.6903 -0.47434
-27.1014 20.619 -0.401429
18.3909 -13.7342 -0.273955
32.9484 -20.43 -0.458199
-27.5476 20.2244 -0.380977
-33.8747 -18.9275 -0.432043
-15.1346 -34.7116 -0.399509
-9.60689 -28.92 -0.302523
-25.6235 -45.1499 -0.470046
-13.1293 16.655 -0.164192
-24.687 -12.4464 -0.220218
-13.7626 16.7772 -0.149803
-20.5316 18.337 -0.142777
-19.153 17.9655 -0.120663
-27.605 -13.0779 -0.0980577
-9.85088 -12.664 -0.0545593
15.349 8.0636 -0.0250005
11.8142 -10.3887 -0.00971834
-31.1551 -17.0647 0.058741
-9.15375 -27.2062 0.0987261
18.3126 -13.3049 0.0963794
-14.9436 -34.3085 0.17328
20.3936 -14.3689 0.130523
7.95087 -13.6681 0.113944
28.2731 -11.5995 0.185018
-47.9788 17.1323 0.487136
17.5132 -12.9792 0.20618
41.5912 -8.4913 0.395886
-27.0048 -7.61445 0.330965
-32.4217 -19.569 0.423013
-9.24642 -26.4933 0.306698
-46.2862 25.3682 0.64549
-10.2832 -28.4972 0.366958
-8.37357 -25.7406 0.330465
7.16173 -14.6394 0.206179
7.86277 -12.1135 0.188252
-25.3545 19.9031 0.492137
12.0423 -10.5171 0.238551
-21.8892 18.7198 0.473779
11.5919 -10.3502 0.242106
13.8653 -11.4144 0.281042
40.2996 -8.62426 0.681026
-30.8382 -20.6609 0.680811
-27.9944 20.0168 0.674454
6.95898 -14.5402 0.31051
7.66022 -12.0554 0.273291
8.5608 -10.0457 0.255957
8.44415 -8.76684 0.289227
38.1634 78.4833 1.88284
8.25254 -10.0835 0.292734
10.7403 -9.72793 0.347635
-26.7469 -8.57654 0.679624
-21.1968 18.5021 0.759288
-24.8641 19.6059 0.848075
-26.8772 -8.07012 0.742474
9.73469 -9.42301 0.364006
10.1953 -9.4759 0.377391
-23.1193 19.4858 0.819605
27.2194 -5.50648 0.769441
-7.41095 -9.38994 0.334835
13.8735 -11.3812 0.532292
16.5428 26.9512 0.969628
-30.8542 21.8778 1.13595
6.99741 -14.4358 0.501837
8.16068 -12.7214 0.4719
-26.4863 -7.46975 0.90583
-11.4432 -17.5211 0.693611
-26.1768 -8.18126 0.951258
16.9624 11.6101 0.738547
-27.132 -16.8127 1.12059
17.9269 31.1438 1.27609
-27.774 -15.1494 1.17705
25.0939 -4.53124 0.917573
-25.2821 -17.9811 1.15469
-6.98599 -7.61695 0.391369
9.58328 -9.34504 0.495357
13.1309 14.3643 0.746231
35.3823 73 3.06056
34.1535 72.7203 3.01385
-11.016 -8.7195 0.555829
9.2308 -9.17328 0.512552
-23.2401 19.1449 1.2201
23.1295 -3.13436 0.941985
-26.3012 -15.9754 1.26545
9.97016 -9.45359 0.561022
13.2064 15.2102 0.862489
7.34073 -13.9017 0.664285
16.1321 20.9616 1.15794
23.6488 32.667 1.75953
-8.83983 -12.8537 0.688734
-9.1998 -14.3886 0.76169
8.22947 -11.8605 0.633339
9.1323 -9.22706 0.584267
25.8086 -3.95358 1.17495
-27.6978 -8.07144 1.32012
7.37131 -12.1183 0.649612
-7.92134 -7.79531 0.524602
26.9344 54.3485 2.89396
-26.0801 -16.1185 1.45419
-9.10716 -12.7751 0.749844
10.2298 -9.49136 0.654798
18.8516 23.0382 1.39598
20.4872 56.9399 2.92257
-27.8383 -12.3306 1.45745
-6.46219 -7.8783 0.502981
17.6283 40.9969 2.27158
-27.4761 -10.7597 1.48471
-7.30852 -6.72031 0.503131
-6.42524 -7.28367 0.492758
18.6039 33.7021 1.99334
22.8074 32.375 2.10213
11.0593 12.9322 0.916048
15.4317 21.0006 1.39473
9.89717 -9.4528 0.73068
16.0601 20.8968 1.45067
16.9765 26.2207 1.71511
-25.0435 17.6337 1.67667
-6.66738 -7.83551 0.572228
-24.022 18.4326 1.68097
6.8818 -14.5291 0.895125
-6.76113 -8.71339 0.630957
10.442 13.043 0.979237
16.7324 28.193 1.91058
7.26216 -14.5841 0.933359
15.3066 24.973 1.72569
-7.90961 -7.7746 0.670013
12.0577 12.1415 1.01686
15.9169 21.1702 1.58694
-7.00579 -9.48379 0.735705
7.64049 -12.1751 0.872478
11.9633 -10.3188 0.954893
6.43948 -11.8041 0.830566
-6.93663 -6.41151 0.591569
15.7758 22.3803 1.7282
16.8365 7.47381 1.19227
-6.79801 -5.93927 0.593544
7.29674 -15.1779 1.11739
10.4543 23.6151 1.73918
10.9186 13.161 1.16574
14.598 19.63 1.70236
13.5519 22.4701 1.812
11.8766 12.5462 1.20922
7.10865 -10.6012 0.90035
12.0282 12.3062 1.24198
10.2494 -7.23474 0.889934
12.9505 12.5373 1.32036
10.4644 -8.83701 1.00041
-6.00547 6.50896 0.659129
10.7992 9.50934 1.0778
12.8239 19.1747 1.73221
12.3856 19.7335 1.75218
-6.65836 -7.38017 0.772674
11.764 20.3052 1.79741
10.0673 -9.47815 1.06542
11.0509 14.835 1.44712
-6.24662 -4.18542 0.593779
9.98052 19.9966 1.78332
10.5374 -7.2104 1.01946
13.0265 12.0865 1.43311
9.83519 10.8632 1.14233
10.6065 20.5944 1.86261
-6.89738 -9.14894 0.935931
7.18605 -10.0333 1.00063
12.8078 12.2528 1.44901
12.713 12.5033 1.47739
11.9497 12.4906 1.42788
-4.68738 -10.7 0.986574
10.826 13.5452 1.47244
-6.72678 -5.87793 0.770877
-6.57275 -6.4561 0.779823
-4.84994 -10.639 0.99814
-7.00398 -7.43216 0.881475
9.72102 -7.5968 1.06291
-6.81924 -7.71677 0.903393
-6.7325 -7.37878 0.880494
9.83648 13.1303 1.45176
-6.64538 -8.00288 0.931671
11.1981 9.39616 1.32924
11.0152 14.1873 1.61992
10.894 9.56815 1.32431
8.17622 14.842 1.55641
-6.21399 -7.78011 0.914622
-6.57385 -8.58866 1.00094
11.6631 11.249 1.49208
11.6592 9.5129 1.40509
11.3177 11.2498 1.49291
6.94952 16.0602 1.64276
-11.1228 2.84977 1.07616
-6.19633 -4.06246 0.69499
-6.5757 -6.0814 0.83215
9.92167 13.9929 1.65217
-5.88562 6.3954 0.85365
8.30549 -6.8953 1.049
8.35448 13.9307 1.61138
-6.78426 -7.31113 1.00702
9.71381 12.1464 1.56616
7.35698 13.0632 1.51957
7.44523 13.7167 1.58918
9.85509 9.3997 1.40675
6.25006 14.9003 1.67348
9.58024 13.03 1.68375
-5.94255 -4.33635 0.772123
6.33844 14.5652 1.6719
6.60235 14.4629 1.67001
-6.78092 -4.30715 0.860309
9.05086 9.30992 1.3817
9.47763 10.5586 1.54056
7.6329 11.4613 1.49445
6.09956 12.0144 1.46333
-6.04718 -7.11411 1.02284
10.5534 6.63273 1.37633
9.2595 8.38086 1.37412
7.64148 12.215 1.589
7.15992 12.1694 1.5592
5.63576 12.5152 1.52584
5.1415 12.781 1.54029
5.04029 14.6596 1.70485
10.1461 7.25473 1.39
9.05336 9.62384 1.47399
5.64604 12.0812 1.50038
-6.59429 -6.48064 1.03107
7.14398 11.151 1.4899
4.61905 14.0925 1.67574
10.046 -3.29161 1.17584
-5.9142 -5.24531 0.916773
7.58278 -6.3658 1.12068
10.6923 5.86688 1.39599
-7.23765 -0.966322 0.836801
-6.06651 -5.1927 0.920652
5.45425 -5.77441 0.911935
5.32676 12.2186 1.54728
-6.69306 -4.43319 0.931507
4.72146 -7.69697 1.04004
10.677 5.28207 1.39506
9.14119 8.11343 1.4323
-5.84316 -4.25243 0.843337
-6.2908 -5.11485 0.959303
4.39093 -8.43816 1.1262
5.17942 -6.1002 0.956634
10.4185 4.87182 1.37597
8.77007 8.51627 1.47827
5.53406 12.0569 1.6183
9.27021 6.42218 1.3782
8.24591 8.58186 1.48858
-6.28297 -5.5637 1.04647
3.97132 -8.11024 1.12588
8.89403 6.8579 1.40978
-6.27092 -5.18161 1.03117
9.31342 6.16054 1.42307
8.39331 7.32389 1.41884
8.32992 7.70736 1.44667
5.99058 -5.54271 1.04453
-6.78289 -4.3225 1.03372
8.33079 8.22547 1.51621
-7.21433 -1.02182 0.941607
-6.76894 -2.76319 0.955536
9.16787 4.1891 1.3174
8.61022 6.79294 1.4373
5.21596 -6.28933 1.07036
5.13991 -6.47283 1.0907
7.07757 -4.41158 1.10712
-6.99001 -1.68345 0.964264
-6.86299 -2.17329 0.963001
-5.86536 -4.30477 0.97397
8.33391 6.82133 1.45765
8.79135 4.53333 1.34603
8.82293 5.28186 1.40202
8.23332 7.32052 1.49726
-6.64036 -3.64115 1.02939
9.05026 4.24835 1.36591
8.4528 5.96615 1.41439
7.84739 5.97347 1.34192
-6.22915 -4.21468 1.03047
-5.7969 -4.40302 0.995542
5.53277 9.32372 1.49604
3.80499 10.5273 1.55413
-7.22374 -1.07131 1.01156
-6.72837 -3.82683 1.07541
5.14537 -5.76274 1.06411
5.42493 -5.60047 1.07871
7.66992 -3.63449 1.18398
3.54638 10.6367 1.57092
8.57823 4.69502 1.38082
7.58187 -3.78094 1.19888
7.79135 -3.42435 1.21039
7.97164 -3.39464 1.22646
9.12244 2.87261 1.37394
5.03042 -5.86362 1.10677
7.53772 -2.92417 1.17419
-6.7942 -3.22201 1.09705
8.12108 -2.85053 1.25194
8.87721 -1.86446 1.32859
5.1615 8.83733 1.50935
3.08148 9.85096 1.53555
7.90786 -1.93052 1.19688
7.38135 5.87854 1.4037
3.60049 9.96127 1.5654
3.3314 10.2428 1.59629
-7.22666 -1.02275 1.08247
-6.92833 -1.981 1.07451
7.10039 6.42764 1.44387
-6.13842 -2.22619 0.980531
-7.09723 -1.34787 1.0909
8.10185 4.91649 1.44137
5.84972 7.5378 1.44596
5.42876 7.82766 1.44822
5.19645 8.23515 1.47076
6.9301 -3.30661 1.1583
7.43353 -3.20514 1.23669
7.82782 -2.82436 1.26517
-7.17805 -0.718775 1.10186
-6.95132 -1.91401 1.11342
6.95883 -3.16981 1.1796
3.9251 -6.05457 1.11147
-6.90675 -2.03265 1.12939
-7.2028 -1.07129 1.14378
7.50289 4.8667 1.41013
-7.05629 -1.41471 1.14547
-7.12834 -1.27518 1.16232
-6.95061 -1.97697 1.17581
7.20172 4.85221 1.41525
-6.95529 -1.90521 1.18529
7.14132 4.95658 1.44166
6.73367 4.93916 1.3914
5.30928 6.36678 1.37927
4.78358 7.34168 1.46205
3.9319 8.16107 1.50492
-7.106 -1.34609 1.20782
2.948 -6.0941 1.13591
7.27245 4.50965 1.43926
6.63522 5.33622 1.43434
4.03653 -5.589 1.15814
4.08753 -5.21177 1.11727
-7.12984 -1.22761 1.22774
-6.45725 -2.56884 1.17999
7.54387 2.89688 1.36813
7.15136 3.95849 1.39058
-6.27705 -2.69387 1.16311
6.88948 4.16827 1.38006
5.82971 -3.61032 1.1771
-7.25171 -1.01902 1.2668
-6.22926 -2.23441 1.13853
5.682 -3.74405 1.16973
5.46308 -3.87567 1.17082
3.68424 7.33635 1.44317
-6.6665 -1.70097 1.2089
4.62478 -4.61079 1.14566
-6.95932 -0.897195 1.25035
4.87488 -4.59798 1.1823
4.41722 6.62583 1.41959
6.68982 3.52872 1.36357
6.73203 3.74178 1.38133
-6.32233 -1.47254 1.16809
3.76217 -5.55018 1.21523
5.16665 5.71124 1.40839
-6.03485 -2.14034 1.17432
3.55446 -5.3694 1.19306
3.4633 6.92245 1.44726
-1.60957 -5.48807 1.09061
6.53997 2.77243 1.34941
-2.04525 -5.46981 1.12637
6.40062 2.8367 1.34549
-2.68052 -5.17179 1.14462
-3.47051 5.2689 1.36424
4.52475 3.94049 1.36749
4.24191 -2.94088 1.19928
4.71586 -2.22694 1.25698
4.24355 3.32623 1.33363
3.79006 -2.99455 1.24732
4.05546 2.59835 1.34349
-1.39262 -3.97988 1.18423
-2.25998 -3.48677 1.18347
3.89366 2.38495 1.32073
-2.84001 3.4993 1.34935
-2.42692 -2.85382 1.16585
-2.32712 -2.87554 1.17105
1.88419 -2.86999 1.20267
1.90656 -2.84602 1.23259
2.03115 -2.57257 1.21663
-2.0355 2.79531 1.31366
2.83083 -0.560561 1.26801
2.80801 -0.339473 1.24881
-2.05902 -1.59585 1.19712
-2.04891 -1.4317 1.22293
-1.83313 -1.76838 1.26569
-1.97066 -1.11774 1.19145
-1.9629 -1.05774 1.21837
-1.92494 -0.870683 1.2196
-1.91096 -0.701058 1.2108
-1.90996 -0.694276 1.23786
-1.88836 -0.465121 1.21191
-1.85502 -0.342393 1.20969
-1.83962 -0.397318 1.21617
2.35456 -19.2806 -9.80421
-7.23721 -8.54416 0.444402
8.26074 -9.05564 -10.7666
8.49648 -8.8619 -10.7824
8.4512 -8.51876 -10.1543
7.16371 -12.2858 -11.7182
8.79606 -9.25884 -10.0457
8.09596 -9.20608 -9.40529
6.01114 -13.115 -10.9899
9.75885 -9.13717 -10.0737
6.3114 -14.4284 -11.8458
8.56252 -8.95845 -9.30754
8.28693 -9.46629 -9.39819
7.53264 -9.53896 -9.04552
6.07939 -14.5145 -11.4715
7.98501 -9.61656 -9.00941
8.12174 -9.41524 -8.94721
7.36246 -10.9099 -9.36079
7.05062 -11.4271 -9.50827
10.4554 -9.55404 -9.93708
6.76525 -11.5398 -9.14725
8.31181 -8.91874 -8.10952
7.62788 -9.60708 -8.1423
8.81876 -8.98201 -8.35817
12.3434 -10.5838 -10.6252
8.01387 -9.82278 -8.31845
6.72024 -13.2041 -9.66404
8.22653 -9.51073 -8.19218
5.09588 -16.269 -10.9593
-0.483282 13.7758 -8.81416
8.01194 -9.57452 -7.9964
7.62411 -11.2757 -8.65595
8.68867 -8.87689 -7.90489
11.3465 -10.0313 -9.59677
9.32285 -9.13852 -8.17907
12.3254 -10.5052 -10.1394
8.38376 -8.85806 -7.49472
4.08382 -16.9238 -10.667
4.33243 -15.6041 -9.93791
0.0924583 14.0913 -8.56068
8.15533 -9.72053 -7.59482
4.00392 -15.7469 -9.68527
12.0223 -10.2874 -9.46716
7.14327 -11.5097 -8.03323
8.04696 -9.12219 -7.19796
5.66774 -14.4126 -9.14131
6.73697 -13.1648 -8.64467
8.6786 -8.91285 -7.24162
10.0973 -9.45923 -8.05898
2.87276 -12.0752 -7.10783
5.7252 -14.4831 -8.8063
10.013 -9.49694 -7.79271
6.88637 -11.5009 -7.53816
3.30732 -20.2756 -11.5165
9.23992 -9.29617 -7.33937
12.8001 -10.7342 -9.34944
7.10096 -11.4357 -7.48956
4.84107 -15.0467 -8.72695
6.48232 -13.1224 -8.04136
0.875404 18.5774 -10.1282
15.1443 8.00467 -9.31361
4.34659 -14.6647 -8.25257
15.5841 -12.3273 -10.7011
15.5252 7.71678 -9.24115
14.5015 7.99208 -8.80431
4.90696 -15.229 -8.49425
12.6764 -10.6435 -8.70207
1.79335 -19.959 -10.3138
11.9721 -10.3274 -8.09201
2.06142 -19.765 -10.0873
14.7707 -11.7207 -9.52824
-0.0109015 14.1314 -7.09382
-6.92424 14.3749 -7.98772
11.0992 -10.0535 -7.51675
7.85885 -9.84966 -6.26922
18.4132 5.73084 -9.41191
-8.04199 15.2288 -8.31473
12.2445 -10.2802 -7.73028
10.9974 -10.0396 -7.14266
15.6626 -12.0042 -9.50948
17.5757 16.6575 -11.5165
7.87489 -11.6277 -6.68085
15.5773 7.69831 -8.15868
14.7008 -11.6363 -8.75475
-11.1764 15.9948 -8.93108
16.8253 -12.7447 -9.63432
10.0425 -2.51775 -4.75462
-8.88105 -1.61433 -4.10669
19.9437 19.2525 -12.5222
4.08468 -9.47637 -4.67547
-9.58824 15.6511 -8.23412
-5.24758 4.36383 -3.06877
2.60533 -21.4266 -9.70502
7.23126 -11.8913 -6.25537
9.85977 -9.49821 -6.03141
16.6586 7.60079 -8.08397
-6.272 14.2266 -6.78305
1.50495 -18.4929 -8.02598
-10.4502 15.8903 -8.18013
9.86019 -3.46793 -4.4752
-9.12979 -1.70436 -3.98922
7.4023 -11.6393 -5.82176
16.8043 -12.6986 -8.80922
15.1924 8.03282 -7.21416
20.014 20.8325 -12.0879
19.6616 -14.0698 -10.1417
0.992902 -21.411 -8.93149
-4.34265 13.2539 -5.74134
-9.67208 -1.08154 -4.03489
14.5984 8.06258 -6.81501
22.1221 24.0735 -13.3437
-12.6355 2.36818 -5.23665
15.6948 7.45821 -7.03325
-4.95795 13.5636 -5.80169
3.81918 -9.22655 -3.96662
13.0458 -10.8073 -6.63026
14.7883 -11.6741 -7.35605
20.6988 23.1786 -12.0698
19.6682 6.06588 -7.98598
1.53475 19.4484 -7.56988
-8.18925 14.7453 -6.49519
12.0008 -10.5773 -6.14675
20.7194 24.0337 -12.2391
0.665238 15.3528 -5.88786
-1.61706 12.3225 -4.77786
2.77243 -12.4325 -4.88404
-8.56187 -1.22263 -3.28892
3.42426 24.1253 -9.2493
0.676911 -21.8758 -8.26943
16.1763 -12.3945 -7.67849
9.77101 -3.56505 -3.92213
-13.5592 16.7085 -8.01291
-7.68665 -3.41455 -3.08725
1.08957 -10.2514 -3.79444
7.43933 -11.8822 -5.11819
14.7244 8.22314 -6.09437
-8.08428 -2.77551 -3.07561
0.772894 15.2794 -5.4582
-3.74179 12.6284 -4.65357
6.07872 -11.6252 -4.60812
16.9008 -12.7703 -7.49601
19.975 6.17012 -7.35998
2.183 21.507 -7.59238
23.7984 28.7815 -12.9978
-9.11169 -1.31988 -3.14698
-13.7461 16.9633 -7.48745
3.11096 -13.8885 -4.89194
-8.28829 14.9636 -5.83904
19.889 -14.0855 -8.34626
-4.75365 13.6355 -4.90453
14.7636 -11.8943 -6.35603
17.6922 7.926 -6.42423
1.28592 -20.5972 -6.84817
1.76416 19.8982 -6.60513
1.46132 -10.3033 -3.43923
44.4885 -22.7401 -16.3884
-3.00859 -22.3092 -7.27185
6.51306 -10.5977 -3.97485
18.8491 -13.3079 -7.38418
2.12702 20.9757 -6.71593
-12.355 16.4894 -6.49037
1.34486 -20.6454 -6.45748
-4.04914 13.8308 -4.47285
-10.1591 15.3882 -5.58265
-2.30769 -23.6665 -7.24262
3.24226 -9.99001 -3.18493
0.734628 -21.6594 -6.53018
19.1503 11.0696 -6.54858
20.6776 -14.6762 -7.51798
18.3639 5.81029 -5.65621
-7.35495 14.2303 -4.65805
4.50567 -11.1597 -3.48998
3.87702 -11.2894 -3.38905
4.55301 -11.7279 -3.52315
-12.2722 16.4 -5.69241
-9.57796 -47.7268 -13.3862
-8.6125 14.7182 -4.63402
-12.8082 1.9202 -3.55122
-15.5014 17.8068 -6.40503
29.0554 -19.1259 -9.419
-3.18111 -22.7592 -6.18286
4.0286 -9.72372 -2.8093
49.8414 -16.1848 -14.0256
-9.08867 15.1032 -4.687
33.7374 -16.0327 -9.96495
53.9797 -15.7606 -14.9098
11.1206 -9.91715 -3.94006
-5.98002 13.8369 -3.93246
-13.2825 16.6501 -5.58423
-6.40421 -30.36 -8.10076
5.29539 -10.2141 -2.97123
6.98688 -11.1747 -3.39379
-6.66687 14.1431 -3.96919
-9.77711 15.2242 -4.61842
-7.82838 -31.057 -7.98307
51.2637 -12.9904 -13.1179
-7.04448 -30.445 -7.64998
11.58 -10.2074 -3.79188
-7.3878 14.3325 -3.90545
-10.825 15.7311 -4.61805
20.9736 5.76924 -5.26226
15.1892 8.02422 -4.08253
-24.3577 -36.6233 -10.5092
4.32607 -9.87884 -2.54614
15.8145 7.83344 -4.16426
4.01623 -9.53752 -2.42618
-5.32039 -26.5626 -6.2882
6.00969 -10.5513 -2.80851
50.5993 -12.2449 -12.1003
-11.8062 16.0792 -4.58752
-24.4119 -66.2012 -16.4178
15.4575 7.91727 -3.93433
49.2938 -10.6636 -11.4258
-9.04635 15.0652 -3.92908
-25.0054 -61.4546 -14.4314
4.03112 -10.0315 -2.34489
48.3875 -12.4133 -10.9032
15.7337 7.80639 -3.76624
-9.816 15.3201 -3.89333
-18.7155 -29.4252 -7.49858
-18.7947 -51.9408 -11.9891
-14.3458 -44.854 -10.1614
5.19444 -10.4996 -2.52087
9.95938 -9.41477 -2.88692
50.9666 -11.9337 -11.2003
-13.5706 16.8119 -4.54168
-28.7448 -21.2163 -7.57386
47.059 -15.7453 -10.4971
15.4501 8.16502 -3.64962
-31.4085 21.2395 -7.74752
-6.63299 -27.1504 -5.67426
4.33971 -12.613 -2.67335
50.3021 -10.853 -10.4679
7.95976 -9.06142 -2.37226
12.4918 -10.34 -3.24923
48.4346 -12.4687 -9.96704
-24.416 18.4243 -6.06708
-30.9492 -19.582 -7.2412
-9.174 -28.7055 -6.00079
6.61612 -11.0706 -2.56218
52.1232 -12.1889 -10.4561
-11.7634 16.049 -3.84188
-24.2483 19.0024 -5.98207
-17.0053 -40.0703 -8.42593
16.8845 12.7733 -4.05375
-6.33382 13.9378 -2.93491
-29.4992 -21.3369 -6.96909
-28.1435 -22.0383 -6.87044
-31.6246 21.0729 -7.15104
-30.0805 -19.8429 -6.80999
18.8393 5.92347 -3.69056
-30.6538 -18.4954 -6.68579
-11.7747 -33.9567 -6.70714
4.13331 -10.7553 -2.16253
-18.1145 -45.1075 -9.0528
-13.1457 -35.4238 -6.92209
4.32823 -10.4814 -2.0394
13.8853 -10.8495 -3.17555
51.4312 -11.445 -9.46597
-13.5112 16.7567 -3.84281
-24.3603 19.1057 -5.46187
15.7064 8.31522 -3.10043
-26.8521 -23.3999 -6.20888
-16.4184 17.7097 -4.15417
48.2725 -12.3649 -8.55669
-7.31893 14.0965 -2.6874
-8.87637 16.344 -3.13801
50.552 -11.9001 -8.78361
-27.5516 20.0677 -5.7344
-27.1013 -20.8503 -5.71533
-17.4462 -29.4649 -5.75459
-18.9397 18.1093 -4.35632
-28.8786 20.3943 -5.89376
17.0811 -12.7442 -3.49007
-9.52269 15.1168 -2.83955
-37.8662 22.2813 -6.96536
-28.2499 -21.2223 -5.65641
-29.8877 -20.6154 -5.718
3.7892 -10.4699 -1.73524
-21.5813 18.4354 -4.38031
-12.8661 -14.4371 -2.99012
18.192 -12.8607 -3.44902
-10.291 15.4008 -2.81148
52.3463 -12.2682 -8.16254
-24.8918 -22.1647 -5.00786
-17.513 -40.5894 -6.68725
-26.4628 19.8464 -4.94239
-33.9051 21.1403 -5.92637
-28.1954 -21.8862 -5.32467
50.4977 -10.8215 -7.69218
-30.0139 -21.7062 -5.41142
-42.9471 23.9789 -7.0673
-31.615 -21.0874 -5.46908
7.46596 -14.3239 -2.33966
-32.4038 -18.833 -5.30282
-6.3388 13.9738 -2.12793
-12.0385 16.2507 -2.81149
-28.7034 20.6649 -4.9401
-31.0196 -14.7379 -4.7581
-24.4627 -20.9787 -4.44348
-18.787 -41.8431 -6.33074
-12.3193 -36.0201 -5.2433
40.9138 -13.6063 -5.91416
-21.0457 18.494 -3.72529
-28.7764 -21.5501 -4.6926
-27.2721 -22.3731 -4.6631
-30.2479 -20.8316 -4.70319
7.93684 -10.0524 -1.65391
48.3796 -12.3842 -6.41016
-29.8797 20.3326 -4.59173
-27.2236 -14.5264 -3.93206
6.39089 -8.27655 -1.33389
50.7763 -11.9346 -6.61543
-27.8001 20.4314 -4.30207
19.0331 -13.8065 -2.93567
15.5365 -12.1042 -2.41837
-14.6666 16.7784 -2.66316
-26.8704 20.2384 -4.06649
-29.0856 20.5608 -4.2855
-9.51734 15.137 -2.06401
-28.242 -20.3117 -4.09142
-17.4298 -41.9647 -5.29056
13.8522 -11.2035 -2.08444
39.82 -13.1584 -4.85403
6.87629 -11.2129 -1.50893
11.886 -10.3 -1.77103
17.7166 -13.1909 -2.48789
-10.1857 15.273 -2.03107
-15.8091 -35.1161 -4.25318
7.48906 -13.9517 -1.7312
12.3209 -10.2894 -1.77679
48.1853 -12.3563 -5.4639
-34.4164 21.4592 -4.3498
50.8641 -11.8856 -5.62708
15.9954 -12.2827 -2.14466
-11.8973 16.0736 -2.05256
-14.6332 -23.3666 -2.76918
15.3758 8.13897 -1.74317
-15.3586 -38.9505 -4.24427
14.9865 -11.8226 -1.90604
-12.8567 16.4432 -2.02318
7.11653 -13.6372 -1.47724
9.95259 -9.44048 -1.32519
18.3584 -13.4239 -2.21888
-26.5737 -12.6981 -2.77273
-13.7272 16.81 -2.02186
-26.8233 -52.259 -5.46822
-30.4862 -19.0763 -3.18191
17.3758 -13.0203 -1.95336
43.184 -14.3687 -4.07531
11.8185 -10.5058 -1.30637
48.7164 -12.4513 -4.19687
-12.8071 -33.3304 -2.86944
-28.2657 -55.2716 -4.8344
19.0597 -13.8889 -1.86225
-27.0329 20.4596 -2.59153
7.94129 -9.7828 -0.974502
-29.3031 20.7431 -2.66524
-13.2376 -32.749 -2.64062
-18.5945 -42.5374 -3.35488
-27.021 -50.8485 -4.0929
-25.7594 -51.5932 -3.94827
13.4139 -11.1635 -1.17466
18.42 -13.4161 -1.54054
-34.7798 21.6518 -2.67678
49.0586 -12.5602 -3.32765
-26.4175 -12.422 -1.74594
-28.6157 -55.2866 -3.7665
15.5552 -12.1269 -1.18867
35.3812 -23.3077 -2.31557
35.2054 -22.1888 -2.27512
15.9914 7.8984 -0.929751
15.3961 8.16449 -0.900369
-11.8153 16.1242 -1.01441
-18.8357 -41.5663 -2.34205
-10.8572 -29.5529 -1.55965
-24.9397 -14.4036 -1.36434
-29.8383 -56.2362 -3.10368
10.2347 -9.63929 -0.703521
14.3721 -11.4296 -0.902401
16.7456 10.6535 -0.942644
17.1312 12.0078 -0.979398
7.61662 -13.9707 -0.755471
-19.0084 -5.60846 -0.849764
-23.4906 -41.8645 -2.1139
11.2613 -15.204 -0.77283
19.562 -14.1073 -0.986428
48.0898 -12.2841 -1.97919
-8.80238 -11.642 -0.562411
49.9361 -11.6933 -2.02102
24.8755 29.9081 -1.33686
-29.311 20.0373 -1.23003
-32.7437 -18.3612 -1.21804
-14.2734 -35.5753 -1.22823
17.7774 -13.263 -0.724623
19.2951 -13.5794 -0.740928
14.9052 4.03758 -0.458872
-19.2303 -44.19 -1.44005
-20.7617 18.4949 -0.794587
-9.77062 -29.6288 -0.836177
48.4569 -10.2937 -1.38985
-36.839 22.9143 -1.17204
-47.468 17.0688 -1.20626
-19.7029 -32.8589 -0.831355
49.4015 -11.4715 -1.0955
-4.02494 8.66089 -0.167754
-27.7473 20.9703 -0.695225
-28.2139 8.9742 -0.618226
41.8116 73.2141 -1.56982
-27.2111 20.0831 -0.647824
13.8577 -11.3549 -0.31161
-31.0916 -19.3489 -0.563227
-22.923 -46.1009 -0.759002
18.9079 -13.6361 -0.340167
-14.8138 1.86817 -0.193175
-9.96147 -30.1181 -0.405247
-13.0947 16.6236 -0.216957
-15.7931 -36.2967 -0.424507
34.1109 -21.3652 -0.365192
-20.7572 18.5206 -0.18964
-9.2962 -11.9311 -0.0441238
7.71982 -12.8782 -0.027055
15.2088 7.9539 -0.00342687
-31.9397 -19.7227 0.205164
-19.7288 -33.7193 0.294801
-45.8416 25.113 0.534832
7.40131 -13.1328 0.15452
8.51479 -9.68147 0.127316
-36.6381 -19.4787 0.461839
-9.41037 -26.6514 0.320762
11.7966 -10.2835 0.203396
-21.1535 18.0751 0.365009
-11.2721 -17.4902 0.305835
-28.0991 19.9957 0.613516
-31.511 -21.1256 0.684669
-30.9138 -22.8375 0.676614
11.2888 -10.1447 0.245866
8.32428 -10.2611 0.282106
8.40714 -9.81283 0.276996
-59.8615 20.7288 1.48304
19.6262 -14.247 0.588048
-26.7608 -8.03951 0.750931
-25.3127 19.8507 0.925281
-53.0648 20.0931 1.54768
12.3225 -10.5575 0.440486
18.2742 -7.92131 0.564431
-22.732 19.28 0.88595
-7.53199 -8.83226 0.371031
13.4058 14.5756 0.700101
-25.3296 -18.0202 1.07844
6.92373 -14.2661 0.554831
9.42604 -9.27541 0.449794
26.1793 -4.63886 0.885462
19.9198 19.0238 0.989344
15.4214 26.6972 1.15413
-78.0539 27.8563 3.04644
-49.5792 16.297 1.88045
25.9874 -5.04822 0.999171
26.7887 36.6851 1.79759
-23.192 18.9457 1.13042
9.92778 -9.44453 0.527534
23.7 -3.26495 0.900198
12.8982 14.9391 0.803978
15.9612 20.6239 1.06319
-28.3784 -15.6155 1.30426
-10.3603 -15.4589 0.768437
7.25872 -13.7624 0.635547
22.3733 51.7214 2.3453
8.28517 -11.939 0.610021
-7.26363 -7.15009 0.451662
-7.80368 -10.7967 0.597705
-27.4126 -10.8518 1.40814
17.1931 11.1615 1.01753
-7.44134 -6.9237 0.488126
16.9213 26.2899 1.61071
-6.65929 -7.83928 0.567168
15.7636 21.5869 1.46047
-23.8303 18.3505 1.6612
15.9468 25.9718 1.76047
-6.79524 -8.76007 0.635567
7.68365 -15.226 0.974697
10.364 13.0368 0.982573
15.9072 21.1351 1.65439
16.9316 30.1356 2.12409
-13.3999 1.83386 0.878371
12.1984 34.2133 2.30732
-6.92995 -9.45848 0.752591
10.5434 24.0285 1.75854
11.8628 10.435 1.123
11.9765 12.6651 1.22729
14.5633 16.8283 1.58908
8.97497 -13.834 1.16014
11.1272 9.28869 1.06348
13.606 15.261 1.52649
-13.8056 8.1417 1.21075
-10.857 2.04558 0.835546
13.2234 17.2135 1.68136
12.4612 19.8604 1.8178
10.5457 -7.21671 0.994975
-7.35835 -7.78401 0.859037
13.3101 12.0488 1.46122
12.365 12.0969 1.43288
-6.78145 -5.96667 0.735442
-6.80948 -6.65868 0.791715
-12.8488 1.8193 1.07231
-6.71654 -8.50511 0.936166
11.9707 12.4958 1.48923
9.48231 -7.45086 1.04706
10.9989 9.68924 1.3297
-11.1114 2.84551 1.05368
-7.35051 -6.84663 0.904343
12.0411 9.29121 1.45342
9.64794 13.6437 1.60224
7.55433 13.9006 1.54881
8.8202 13.7141 1.63309
-6.51096 -6.48829 0.915551
8.19221 -6.80902 1.03969
10.0936 12.6429 1.61894
10.2839 10.5054 1.51578
-6.68083 -5.24432 0.885314
9.91629 9.44281 1.45726
8.50402 11.562 1.50231
7.10093 13.7692 1.64909
9.86105 8.60536 1.38278
9.49872 10.5798 1.54651
5.96992 13.1508 1.5622
-6.13754 -7.22838 1.0271
6.95375 11.8354 1.5086
5.5371 13.8746 1.64728
-6.66 -3.88408 0.852421
-6.48222 -5.8831 0.966251
4.20781 -8.33658 1.02905
5.67813 -6.36118 0.954718
9.60118 7.72939 1.38281
9.35386 9.95475 1.53802
8.22193 11.7109 1.59752
9.50774 -7.79417 1.34572
7.01744 11.075 1.49335
-6.69811 -4.44884 0.913218
5.00286 -8.1609 1.10172
-10.3195 6.91807 1.44034
-6.94958 -2.09062 0.845056
9.21252 6.2235 1.32021
6.15267 12.5579 1.65146
5.1961 12.017 1.54317
-6.50377 -5.00083 0.991339
4.97536 -6.11002 0.924127
9.12881 9.25744 1.54472
4.40585 -8.44465 1.15322
8.48653 3.93088 1.16985
11.2391 5.606 1.5409
4.80838 13.3797 1.76946
-5.97671 -5.22898 0.975686
-8.9581 1.27721 1.12764
8.45326 7.73162 1.44758
-6.25033 -5.16557 1.0273
7.98672 8.3887 1.48698
-6.72774 -3.49017 0.982437
5.18043 -6.22044 1.04157
5.21328 -5.63144 0.997315
8.58929 7.06703 1.47109
8.13412 8.04339 1.51983
-7.06641 -1.69087 0.979518
-6.89245 -2.1656 0.96877
-6.32204 -4.26251 1.01429
5.04563 -6.35909 1.07652
8.56186 6.48918 1.4589
-6.67843 -4.1123 1.05815
-5.89483 -4.3313 0.985217
5.14332 -5.75323 1.0562
7.60852 -3.61348 1.16946
8.51196 4.32166 1.35347
8.47732 4.65847 1.37012
-6.7923 -2.84504 1.0539
7.68516 -3.83536 1.22349
7.18797 -3.12927 1.10311
5.14459 -6.02631 1.14005
8.37151 -1.771 1.23647
-6.80444 -3.18509 1.11543
7.51683 5.66428 1.41142
5.86791 7.57608 1.44571
8.11719 3.97768 1.3788
8.03781 4.26284 1.3809
5.54764 7.9662 1.47438
5.20509 8.89141 1.55544
3.61608 9.89189 1.58867
-6.86 -2.76666 1.12869
7.86731 -2.86174 1.27944
8.02451 -2.28651 1.28483
7.96778 -2.06102 1.26889
7.58089 4.26996 1.40066
7.17631 4.8256 1.41883
6.8425 4.98722 1.40576
5.47036 6.55539 1.41917
-7.07535 -1.33588 1.1928
5.085 7.46773 1.50645
4.8095 7.36122 1.47474
-7.09608 -0.790167 1.19596
3.02871 -6.26176 1.16734
6.79238 4.14494 1.35733
6.60411 5.30508 1.4365
3.91917 8.11103 1.51108
-6.25911 -2.25717 1.12974
-6.16125 -2.62881 1.14344
3.92548 -5.45084 1.13958
-6.84488 -1.76238 1.2359
4.37918 -4.79868 1.138
6.75497 3.55715 1.37646
5.12811 5.67223 1.39579
3.78635 -5.58554 1.22444
3.4153 6.84852 1.4259
6.58005 3.08782 1.37858
6.51019 2.74908 1.34689
-1.56438 -5.4207 1.08738
-2.07231 -5.50526 1.15076
6.3311 2.40712 1.35153
4.07076 -4.73182 1.2376
-2.94592 5.49756 1.32718
-3.56272 5.12415 1.35777
4.30167 -2.99145 1.22824
4.81844 4.0042 1.47346
-4.22244 3.8781 1.39522
4.67244 -2.22735 1.25319
4.54665 -1.28817 1.1722
3.79108 -2.99972 1.25576
3.75177 -2.63504 1.21297
3.50178 -3.04325 1.24842
-2.25905 -3.52139 1.17784
-2.44426 -2.86321 1.17334
1.91051 -2.53899 1.14948
1.97371 -2.7002 1.21548
-2.032 2.78824 1.3062
-2.04272 -1.4435 1.18215
-1.79511 -1.80161 1.28409
-1.95123 -1.15701 1.19604
7.0509 -7.05329 -9.05423
10.0316 -9.37676 -9.7102
9.59264 -9.26047 -7.93733
2.4264 -19.6821 -10.5342
3.81132 -9.62614 -4.66139
29.7986 37.0391 -15.9892
2.07014 20.7268 -6.18188
-19.4955 -27.1586 -6.2462
-25.2189 -23.4552 -5.31036
10.0356 -9.25874 -1.70562
9.25268 -9.11724 -1.30167
9.42088 -9.29198 -0.980652
20.7962 -14.7249 -1.39376
49.151 -13.2019 -2.63868
-28.883 -12.2154 0.320043
10.3431 7.119 1.33045
-3.43847 5.23066 1.34196
8.19542 -8.45167 -10.5518
8.05817 -8.48448 -10.2911
8.62769 -8.71202 -10.1445
7.0245 -12.1039 -11.4873
8.21405 -8.47396 -9.32646
8.26055 -8.97243 -9.36347
9.82601 -9.1658 -10.14
6.36023 -14.4401 -11.8631
6.01734 -14.4961 -11.4836
9.39322 -9.12381 -9.59078
7.87405 -9.49272 -8.92966
8.1091 -9.39221 -8.86181
7.44973 -11.0216 -9.45621
10.6296 -9.67077 -10.0639
6.6379 -11.4205 -9.01551
8.46907 -9.39603 -8.47294
7.59077 -9.63751 -8.17913
8.23428 -9.51177 -8.26248
5.11224 -16.1484 -10.9217
-0.533254 14.1728 -9.10363
7.56907 -11.1653 -8.64318
10.752 -9.86785 -9.45006
7.87488 -9.44632 -7.86002
11.4502 -10.2104 -9.73082
7.31205 -11.3075 -8.38341
8.48673 -8.90231 -7.63278
0.0944559 14.1636 -8.63103
8.0256 -9.01753 -7.26544
12.0035 -10.1856 -9.49079
9.33938 -9.2593 -7.76392
6.81286 -13.2758 -8.79328
5.67434 -14.3414 -9.05609
8.55402 -9.25663 -7.2836
7.32446 -11.5084 -7.82111
5.25164 -13.1452 -7.94199
9.22502 -9.36297 -7.36749
3.17979 -19.268 -10.9487
6.87986 -11.5276 -7.51294
8.15319 -9.38985 -6.96548
12.7828 -10.7027 -9.31427
-0.503364 14.3451 -7.88161
10.1249 -9.91291 -7.76174
13.9787 -11.2022 -9.65337
15.6796 10.7426 -10.2209
15.5936 7.66372 -9.29215
14.3363 7.90652 -8.66617
11.9581 -10.3153 -8.10667
-0.0806147 15.2907 -7.7403
2.34608 -19.1155 -9.73158
11.1662 -10.0054 -7.53517
7.66155 -9.66897 -6.18068
14.9195 -11.8297 -9.57853
19.2434 -13.7554 -11.4993
19.4526 6.00727 -9.89811
2.62012 -19.047 -9.34095
13.4944 -11.1425 -8.45383
16.3548 -12.4489 -9.96196
7.65326 -11.2702 -6.55203
15.5693 7.63379 -8.07653
7.42866 -11.4147 -6.33874
6.52674 -11.1341 -5.96792
10.2758 -2.57829 -4.86974
18.5388 -13.542 -10.54
-11.0324 15.8257 -8.78286
3.67854 -9.35632 -4.54742
-9.57163 15.6356 -8.2284
16.6256 7.52122 -8.17189
12.8235 -10.6395 -7.40079
-10.4998 15.963 -8.23038
-6.86325 6.65468 -4.11493
-6.30802 6.2909 -3.79024
1.21985 -15.4515 -6.58771
21.4218 22.2046 -12.9662
17.2662 -13.0453 -9.09166
15.7388 7.73632 -7.3353
13.6576 -10.8169 -7.26198
-9.79479 -1.06856 -4.09287
21.524 23.4396 -13.0862
14.6184 8.07875 -6.80507
17.0761 7.69308 -7.53084
15.5859 8.02175 -7.03822
18.4095 17.0773 -9.89222
1.48923 -17.6479 -6.91748
8.96004 -9.0597 -4.95635
19.5306 6.02699 -7.91625
20.8853 23.3202 -12.1254
0.750492 16.2737 -6.26295
-9.00217 -1.30537 -3.52572
3.47639 24.4078 -9.34372
0.683102 -22.2694 -8.48518
18.0558 -13.3516 -8.39291
4.91977 -9.37015 -3.80474
14.6883 8.20369 -6.08829
0.516413 -20.672 -7.3002
2.41917 23.1391 -8.1311
-3.83753 12.8756 -4.70739
-9.88578 15.185 -6.33378
-0.741323 -20.2074 -7.12507
5.18755 -6.49279 -2.90335
-13.8246 17.0547 -7.58367
-8.28871 14.9631 -5.86152
-4.73669 13.4687 -4.80603
17.2072 7.72505 -6.27562
1.26707 17.8049 -5.954
-5.01947 13.3553 -4.69591
43.8899 -22.5498 -16.2814
13.2148 -10.9289 -5.52106
8.43262 -9.65735 -4.10233
15.5498 -12.1694 -6.31999
19.1087 17.6819 -8.07758
7.77497 -9.23093 -3.73072
-3.94015 13.2375 -4.14755
12.1955 -10.3419 -4.82161
25.8886 32.8744 -12.6291
15.7768 9.93131 -5.34598
14.5242 -11.3403 -5.28251
-5.11343 13.6169 -4.08624
-12.3646 16.5902 -5.83158
16.4182 11.0991 -5.46624
50.512 -16.1616 -14.3136
-8.93256 15.0034 -4.63423
-24.4446 18.9307 -8.06661
-21.7098 18.2345 -7.3275
-6.61041 14.0239 -3.95737
-9.25108 -1.09107 -2.30255
-7.35479 14.2631 -3.90712
-23.5553 18.5877 -7.30553
-3.08274 12.5779 -3.09523
-10.8279 15.7066 -4.55344
3.33942 -10.2313 -2.53829
15.3624 8.19592 -4.11595
-29.4387 -23.1114 -8.7791
5.84812 -12.5968 -3.2642
56.7016 -13.6754 -13.5559
-5.70196 -27.9362 -6.5699
-8.97491 15.0479 -3.99922
15.6751 7.68175 -3.95991
8.88867 -7.88389 -2.71302
-27.0099 19.6359 -7.40703
-9.44549 -33.8279 -7.73069
4.04711 -10.214 -2.41229
47.96 -12.1523 -10.6884
-30.9906 -20.3543 -7.90343
-13.5577 16.8215 -4.48134
15.2258 8.13349 -3.59059
-28.4186 -21.5042 -7.3377
9.83129 -9.73175 -2.86555
8.20868 -9.00415 -2.43221
48.9079 -12.4336 -10.3522
52.2629 -11.0839 -10.7837
-25.5769 19.1969 -6.30225
-18.0451 -29.3365 -6.77695
5.93123 -11.1498 -2.41414
-29.4927 -21.308 -6.88007
-30.8264 -20.341 -6.89738
19.6942 6.11243 -3.80067
-17.7454 -44.1863 -8.8479
-8.13532 -32.973 -6.31163
-13.5156 16.8001 -3.9116
14.5411 -11.3225 -3.29199
15.9634 7.82809 -3.13782
-4.82054 12.8562 -2.41057
-16.8772 18.0577 -4.36535
-16.7536 -39.8962 -7.5556
-18.8954 -30.4834 -6.19426
-30.1305 20.4129 -6.16838
9.66134 -9.50264 -2.29742
-27.7772 20.2337 -5.58819
-28.5165 -21.4258 -5.69599
-15.1932 -40.4473 -6.91042
48.1234 -12.2185 -7.92124
-38.5636 22.7766 -7.05202
-32.8568 -20.5704 -6.01026
7.00518 -11.822 -2.14197
-25.8981 -23.0862 -5.24203
-27.1676 -22.291 -5.26754
-15.5965 -38.4321 -6.16909
7.16959 -13.729 -2.30707
-29.4361 -21.1698 -5.1889
-27.6518 -21.7675 -4.9937
-28.6741 20.5285 -4.92824
-27.9748 -15.7246 -4.48967
-11.9511 16.1347 -2.73008
-29.1608 -21.8011 -4.92914
-26.7492 -23.0128 -4.7895
-28.6411 -17.812 -4.42779
-30.0309 -20.7003 -4.8101
-29.7457 20.1756 -4.52581
-27.2853 20.3079 -4.15606
-35.728 21.1033 -5.09645
13.8119 -11.1674 -2.08181
10.2812 -9.62623 -1.61865
-26.179 -11.9442 -3.13783
11.1721 -9.77405 -1.63423
-11.9614 16.1726 -2.11688
-16.3704 -36.2593 -4.25362
16.2224 -12.4748 -2.18374
-57.3374 30.3604 -6.55026
-27.514 -21.7592 -3.55574
52.1474 -11.083 -5.33275
18.4991 -13.4979 -2.25366
47.8743 -12.8674 -4.6777
-24.2932 -49.8388 -4.91795
-21.1442 18.5007 -2.46024
-26.6189 -11.9457 -2.53324
7.54801 -11.6024 -1.21367
18.3916 -13.2893 -1.96471
-25.9605 -23.1624 -2.93342
10.4227 -9.46365 -1.1618
14.6814 -11.6732 -1.5091
-30.4391 20.6368 -2.81058
-26.7815 20.0667 -2.4738
18.0588 -13.1727 -1.63357
-13.7237 -33.6506 -2.60671
7.8288 -9.71281 -0.909043
-19.0596 -43.7482 -3.2844
10.1399 -9.55165 -0.924569
10.068 -4.90277 -0.707683
12.0291 -10.4221 -1.00265
-11.6865 -32.088 -2.01025
15.8653 7.79347 -0.972557
15.2688 8.17562 -0.946284
12.5507 -10.6567 -0.850551
18.2748 -13.6873 -1.0923
-11.5125 15.7708 -0.939569
-27.0968 -48.4151 -2.66083
-20.7801 -41.6057 -2.22616
-22.7141 19.2028 -1.34812
-31.4583 -17.7511 -1.21119
-14.145 -35.0108 -1.25645
-18.5968 -43.0091 -1.35132
-15.9754 -43.0951 -1.32911
-45.2044 16.2627 -1.1277
16.3389 14.2563 -0.424009
12.0782 11.7517 -0.320718
27.0514 33.0328 -0.738406
14.1643 -11.6553 -0.339549
-27.3132 -14.5126 -0.47467
-17.116 -37.5891 -0.672812
-83.6463 36.2495 -0.808726
-18.5466 5.37585 -0.101351
-25.4745 -48.8961 -0.286713
33.5931 -21.1904 -0.266015
20.1726 -14.018 -0.0282403
15.4061 7.97266 0.0311935
-46.0347 25.2059 0.3313
-28.8968 -12.1226 0.221831
7.25599 -13.557 0.174047
12.1214 -10.5922 0.174209
-11.1564 -17.2305 0.274788
27.95 -5.42445 0.803356
27.667 56.6907 1.97008
-7.46693 -8.80993 0.400846
-28.0412 -13.3684 1.17378
9.76791 -10.9524 0.582342
18.5725 33.5145 1.6499
-9.909 -15.4782 0.779922
16.0671 21.323 1.2182
22.9434 44.842 2.27072
19.727 37.8233 1.9946
7.30854 -13.8377 0.73491
-6.64481 -8.07563 0.53882
17.4792 28.9112 1.80239
7.16587 -15.6055 0.886
8.94071 -8.04234 0.70203
-6.55062 -4.42215 0.468281
-11.0962 -8.47081 0.82818
-7.12026 -9.83136 0.810078
11.38 9.42815 1.04874
7.0532 -14.6302 1.13583
-6.91352 -6.12554 0.659389
7.66857 -11.7227 0.994247
9.48527 -8.15302 0.915303
14.0641 21.9496 1.99491
-14.3614 8.02746 1.26396
11.4181 -5.10702 0.9483
10.0147 -9.39871 1.09331
10.9054 13.1268 1.53615
-6.46868 -7.22911 0.867438
6.78819 -6.45865 0.865033
11.4231 9.44116 1.38968
6.84334 14.2405 1.5051
10.4125 7.62185 1.26156
4.87542 13.491 1.40043
10.203 12.8103 1.64506
7.93017 10.8556 1.3997
6.97344 13.5148 1.61782
8.56766 -6.91455 1.15431
10.4962 9.92692 1.54128
7.40973 11.1793 1.44193
9.09566 9.66533 1.49855
4.9519 -6.11284 0.88276
10.161 5.60398 1.32279
7.3307 11.6435 1.60239
6.17572 11.0931 1.50269
-6.87808 -2.05277 0.834027
8.73077 8.87205 1.47358
-7.05537 -0.801907 0.850069
-6.70061 -3.8623 0.920577
4.69191 12.9591 1.67725
-6.87892 -2.28167 0.874037
-7.30894 -0.966954 0.907423
-8.9666 1.31181 1.13277
8.5708 7.82475 1.47156
5.03053 -5.47138 0.967418
7.98602 8.43227 1.52583
5.93075 -5.79778 1.0694
-7.06111 -4.38384 1.12325
7.47624 -3.98306 1.17214
7.67429 -3.63881 1.18163
7.66919 -3.35843 1.16647
8.31238 4.22821 1.33027
7.63564 -3.81206 1.21598
8.51769 4.67972 1.38896
7.91238 -3.10019 1.23001
8.11129 -1.96512 1.19754
5.84444 7.55536 1.43904
5.4152 -5.8356 1.21551
-6.99463 -1.79119 1.13153
-7.04266 -1.30345 1.13967
6.22127 4.5249 1.27539
5.40386 6.49315 1.39725
-6.28202 -2.26765 1.11571
6.94048 4.26494 1.38373
-7.19168 -0.938104 1.23047
3.14171 -6.4849 1.20802
-6.82381 -1.73177 1.23821
4.15011 -5.30302 1.1677
-6.62475 -2.52747 1.25535
4.85595 -4.61982 1.18418
3.70317 -5.45732 1.20616
5.10284 5.64742 1.38892
-7.10748 -1.13476 1.31432
3.99781 -5.42758 1.25124
-6.92376 -0.79403 1.32261
6.42457 2.8743 1.35179
3.82113 -4.72925 1.17091
-2.15357 -5.14873 1.12486
5.15552 -6.71186 1.66251
3.93672 -4.56463 1.18903
4.2888 -4.46186 1.26365
-6.31428 1.45695 1.34434
-2.84908 4.76875 1.16297
-1.27727 -4.75484 1.09577
4.14834 -3.86136 1.25158
4.5579 -2.81538 1.2361
-4.40086 3.87371 1.36182
4.88675 -1.97366 1.26527
-2.69808 4.6364 1.263
4.43245 -2.73385 1.25314
-0.975143 -4.05663 1.12691
-1.37466 -3.86412 1.14212
-2.08757 -3.70946 1.18542
4.03651 2.57957 1.34261
1.8908 -3.25627 1.24388
-2.00424 -2.38513 1.25098
2.61542 -1.84176 1.33644
2.51196 -1.94402 1.33778
-2.13519 -1.75126 1.19654
2.39152 -1.31601 1.20705
-1.97569 -1.46829 1.18791
7.97129 -8.52413 -10.2716
8.37879 -8.39658 -9.79959
6.93111 -12.0842 -11.37
8.24788 -8.60436 -9.3912
8.30946 -9.19818 -9.36549
6.413 -14.2163 -11.7236
9.3483 -9.17392 -9.59837
7.51257 -9.76803 -9.02701
7.61412 -11.1925 -9.61444
8.44506 -9.18996 -8.45561
9.24182 -9.24927 -8.66791
6.57584 -12.8608 -9.40073
5.32341 -16.2944 -11.104
7.51009 -10.9285 -8.53097
11.0857 -10.0706 -9.60364
8.17167 -8.63543 -7.24528
0.0935931 15.4389 -9.30018
12.7438 -10.7618 -10.0506
8.58306 -9.483 -7.63673
6.50783 -12.541 -8.33931
-0.333347 13.0642 -7.60743
7.72894 -11.2854 -7.52596
8.13492 -9.34957 -6.8412
6.09233 -13.1713 -7.90012
15.6042 10.5909 -10.1956
14.4599 -11.5102 -9.97321
14.6555 8.13204 -8.80474
0.27778 14.5755 -7.64947
5.97325 -10.4012 -6.26783
11.1056 -10.0722 -7.55127
13.4293 -11.204 -8.52575
16.3671 -12.3456 -9.96801
10.3276 -2.59769 -4.85389
16.7554 7.69342 -8.16597
9.89007 -3.5548 -4.66485
15.2038 8.2541 -7.55513
21.4071 21.9147 -12.8929
1.28077 -16.8576 -7.10515
15.014 -11.8726 -8.09507
16.2373 7.71596 -7.54171
9.95756 -3.3613 -4.37369
14.6916 8.18342 -6.75951
16.1302 8.28511 -7.22654
18.0487 16.8361 -9.85229
-9.17358 -1.32909 -3.6524
0.605479 -23.547 -9.19773
0.858705 17.0356 -6.63637
17.0751 -12.8194 -8.17297
15.706 12.0682 -7.25523
11.0463 -9.97478 -5.38567
-0.327549 -21.7819 -7.74135
-0.742635 -22.763 -7.93717
-3.85967 12.9636 -4.67073
-12.7101 16.629 -7.21148
17.9238 8.09553 -6.49693
1.38509 17.8302 -5.93062
-4.87539 13.4198 -4.69214
7.74308 -8.82681 -3.84835
-17.3988 18.1632 -7.91567
-2.41412 -22.7175 -7.25473
-10.3006 15.8095 -5.9103
-3.94555 13.2955 -4.22828
4.08793 -13.4172 -4.23141
-5.10957 14.0491 -4.32965
3.84101 -11.1842 -3.41505
17.2684 11.5751 -5.83006
52.8789 -16.5105 -15.2901
-3.15677 -22.5722 -6.17206
-21.3821 17.8885 -7.41336
13.3263 11.2079 -4.63111
3.46393 -11.1494 -3.06453
5.4081 -10.3817 -3.02194
-24.4175 19.0633 -7.83429
-26.9961 19.7168 -8.48376
-28.5655 -70.876 -18.6876
-26.0517 -36.8002 -10.9101
-8.87969 14.9868 -4.06372
-6.7628 -32.3168 -7.88833
-30.9667 -20.2484 -8.25677
-19.3782 18.3737 -5.84762
-11.6698 -33.1327 -7.68204
-7.81573 -28.0719 -6.405
10.9227 -9.78845 -3.23149
-22.7372 -53.966 -12.5441
-19.7979 -51.1719 -11.459
48.8001 -11.971 -10.4167
-25.4551 18.8322 -6.10912
15.3254 8.34081 -3.29588
5.02409 -7.50638 -1.68371
-4.56588 12.5084 -2.42342
-37.0114 23.7465 -8.03895
-23.2168 -25.1671 -5.70505
-28.5498 -21.4259 -5.81842
7.45799 -14.1136 -2.4712
-25.0769 -22.4342 -5.00105
-19.6145 17.5309 -3.81193
-28.2604 20.1386 -4.91351
-16.0758 -39.5465 -5.97152
53.7479 -11.6655 -7.71409
-25.6531 -49.3723 -7.06225
-27.3527 20.4645 -4.12678
-31.1696 -61.2936 -7.42117
-30.9432 -20.1406 -3.85033
15.3597 8.38241 -1.74781
-34.7793 -64.8142 -6.67648
-16.9757 -45.8722 -4.34823
-21.2496 18.5934 -2.25875
-27.4959 20.676 -2.46224
48.8925 -11.9965 -3.72308
-17.6979 -40.1894 -3.06292
8.70035 -12.2683 -0.985841
7.67599 -9.6643 -0.803104
18.2737 -13.3693 -1.48225
15.5517 8.45681 -1.05229
33.1356 -21.3568 -2.16114
-24.8228 -50.3406 -2.59921
-21.7551 18.265 -1.22636
-8.38847 -11.2945 -0.535032
15.6541 8.04089 -0.618249
-15.744 -38.811 -1.13575
-17.9915 -40.0982 -1.00922
-13.9572 -38.0412 -0.919039
-20.9162 18.5839 -0.495068
9.60618 -13.6505 -0.354013
-32.3206 -19.1176 -0.304576
-33.9178 -22.3635 -0.223176
10.1321 -9.52733 -0.114787
21.4893 -14.7516 -0.202413
16.3157 8.38309 0.136053
6.67954 -12.2203 0.108397
-28.4034 20.0932 0.336259
-9.31929 -14.4206 0.18538
8.54026 -10.7718 0.28393
27.0238 -5.30903 0.934076
-6.10108 13.4835 0.583943
16.9988 10.7675 0.9113
11.4088 13.6081 0.755474
15.2548 20.2536 1.15242
7.48277 -14.1749 0.718776
8.07635 -11.6138 0.610677
6.82061 -11.2093 0.638289
17.9375 28.9639 1.78849
-6.98719 -7.68534 0.527664
-6.36531 -7.67469 0.515369
10.9412 -9.99822 0.802741
9.88808 19.7233 1.47173
-37.4401 -19.0954 2.93276
-6.92235 -9.68294 0.855315
11.0056 -4.96138 0.861412
-13.7802 7.59304 1.22199
7.30869 -12.7949 1.15106
11.5814 10.4889 1.38035
-6.034 -4.14603 0.659113
-7.12165 -7.5514 0.893658
6.8256 14.1411 1.42677
9.97023 9.43039 1.30301
7.45077 11.3439 1.41431
7.78496 13.3912 1.59402
8.43069 -6.79521 1.14358
-8.83346 1.33665 1.08763
7.22343 -4.6563 1.02133
7.62491 12.2249 1.76327
5.73191 -5.6991 1.01725
-7.2316 -0.898473 0.923497
7.32126 5.76552 1.24418
5.16576 -5.72448 1.02361
9.54139 -3.21319 1.34391
-6.75224 -4.17368 1.09459
7.34426 -4.46676 1.16897
7.8577 -3.6527 1.1861
-6.84238 -1.69278 1.01318
9.03601 -2.13692 1.29669
7.75639 5.04072 1.31896
-6.29922 -2.11128 0.97805
5.39855 -5.69075 1.1948
6.0719 5.20289 1.27762
8.09247 -2.21615 1.31229
4.04129 -6.48105 1.23031
4.74538 7.26163 1.43823
-7.22418 -0.905055 1.19896
-6.23666 -2.27097 1.10758
-6.37953 -2.65527 1.16678
7.0297 4.33062 1.40759
4.34461 -4.79081 1.14656
-7.05783 -1.1232 1.32254
3.72748 -5.49774 1.23561
4.31076 -5.82409 1.38531
3.84651 -4.46427 1.19524
4.02454 -3.70062 1.19548
4.50276 3.81243 1.37054
3.72892 -2.92269 1.22256
-2.13741 -3.76615 1.17912
4.08136 2.56546 1.36336
-2.32273 -2.91524 1.15254
-2.22048 -2.48049 1.08859
18.6172 -13.5887 -10.5374
12.6989 -10.5852 -7.30321
0.515292 -20.3853 -7.18632
24.3532 30.745 -13.18
11.5069 -9.54119 -3.80729
-30.0419 -22.7755 -7.97534
49.591 -12.2052 -8.18382
31.9857 -10.7623 -4.24913
50.7483 -12.5254 -6.15444
-26.336 -10.8408 0.000108192
6.80496 -6.91901 0.298414
9.68118 8.59426 1.48502
5.9744 12.2013 1.72597
-6.94023 -1.89366 1.07256
-1.18016 -4.41913 0.96754
7.89247 -8.31007 -8.97283
6.51133 -14.2129 -11.7772
6.13148 -11.1163 -9.47116
6.95382 -11.0198 -9.64862
7.64796 -11.0801 -9.51603
10.3536 -9.52132 -9.93028
8.06643 -9.36823 -8.53727
8.04787 -9.80841 -8.67103
6.65163 -11.4038 -8.84103
7.51758 -9.88233 -8.24454
7.36136 -9.19044 -7.81417
5.80517 -12.8505 -9.30346
14.4241 8.16883 -10.042
5.09525 -14.6571 -9.27912
9.34482 -10.2193 -8.27791
9.97882 -9.54801 -8.31143
12.6984 -10.6391 -10.014
6.93113 -13.2901 -8.88954
5.55745 -13.501 -8.46417
10.0978 -9.58071 -7.88137
3.23424 -19.6763 -11.0948
5.9327 -12.7656 -7.73694
8.16147 -9.4119 -6.79927
0.211445 14.6988 -7.83185
4.84218 -15.594 -8.63586
14.921 8.0419 -8.90368
15.9625 10.7058 -10.0534
-0.782984 13.2315 -6.90329
7.83694 -9.74449 -6.23665
14.8482 7.48785 -8.14793
17.0424 -12.6516 -9.99244
15.9392 11.2507 -9.09038
6.24615 -10.5688 -5.63091
14.7636 8.21155 -7.53321
9.69268 -3.44855 -4.57319
16.1408 7.59657 -7.58266
15.5364 11.49 -8.16755
14.8635 8.04706 -6.80534
6.55858 -8.52143 -4.3282
13.4556 -11.0772 -6.68139
4.90323 -10.3467 -4.25964
15.9322 12.3813 -7.48207
-4.33963 13.0522 -4.99953
-8.24734 14.8528 -6.15879
1.55256 -19.8311 -7.3039
-0.511473 -25.6759 -9.10806
7.86355 -8.9913 -3.92081
19.3509 -13.2729 -7.48645
-2.24563 -22.5982 -7.05627
12.8404 52.4904 -15.8637
9.99229 -9.9276 -4.14651
-11.0853 16.0815 -5.43284
-5.1731 15.9609 -4.54479
-3.28067 -23.4985 -6.37636
-23.3211 18.5858 -7.62477
15.8083 8.03631 -4.4577
-27.1747 -42.1128 -12.5327
-27.7071 -68.5363 -18.041
-24.2016 -30.573 -9.31578
-5.37339 -26.5691 -6.50724
-11.1123 15.9842 -4.30796
-12.4877 -35.9308 -8.31812
-4.46393 12.3857 -2.60112
14.9919 8.33538 -3.34303
-9.51429 -29.1471 -5.4797
-12.4191 16.5105 -3.58818
-30.7245 20.2285 -6.46772
15.1295 11.8197 -3.32355
16.3947 8.34576 -2.8795
-11.9767 16.1338 -2.43067
9.35585 -9.27132 -1.6214
-29.0066 -56.1912 -7.29484
20.7568 -13.9166 -2.78051
15.4436 8.56327 -1.74472
-30.9124 -58.0827 -4.575
7.74606 -9.48074 -0.731526
9.32575 -9.17912 -0.651357
-30.8357 -58.1309 -3.26077
15.6596 8.01868 -0.609025
-15.4398 -38.0125 -0.897115
-14.0038 -38.7649 -0.740283
10.4051 -9.82447 -0.203433
8.24491 -15.0259 -0.193104
-9.63108 -11.8375 -0.0488128
-30.6768 21.339 0.168036
17.3967 8.84166 0.287984
13.5009 14.1912 0.682591
-5.55108 -6.10667 0.284169
-9.91084 -14.1151 0.653953
-7.11176 -7.28491 0.443047
8.50043 -12.1803 0.630602
7.92647 -9.53616 0.53822
18.545 29.9169 1.62926
-5.96397 -4.57338 0.442032
10.5708 -9.71282 0.765928
9.58782 -9.22216 0.755342
-6.47084 -5.70509 0.59207
9.6183 -7.7849 0.833019
11.7118 -5.34257 0.856635
11.2616 21.0508 1.84276
-6.21321 -6.69101 0.721364
7.3296 -11.2408 1.04318
-7.23135 -9.21856 0.948963
6.4045 -11.1313 1.01644
11.0105 16.8581 1.69509
7.61745 13.0408 1.36516
11.7983 9.45983 1.42903
10.5255 -7.72813 1.20824
-6.17489 -4.29065 0.751568
7.14279 10.8294 1.35734
-6.14464 -5.08911 0.847907
-5.98518 -2.16941 0.776567
7.16526 -4.32539 1.12256
6.38785 -5.69514 1.16945
7.53113 5.27336 1.35135
-6.97204 -1.81466 1.03747
6.25612 5.40273 1.35749
6.63734 5.06367 1.44967
4.81733 -4.68604 1.21321
4.10395 -4.27767 1.23746
