ply
format ascii 1.0 
element vertex 1873
comment /media/mkaihara/Seagate Backup Plus Drive/model_iterations/model_31.ply
property float32 x 
property float32 y 
property float32 z 
end_header 
-4.21637 14.1466 -4.33722
-7.76032 15.0508 -4.96496
4.28007 -9.19439 -2.98024
4.67322 -11.7065 -3.68463
-12.5133 2.20439 -3.65143
-31.5145 -44.6427 -15.7276
-14.8567 17.871 -6.67818
7.02367 -11.1859 -3.80152
2.57396 -9.58031 -2.81817
13.0658 -10.5755 -4.78285
-8.41327 -2.44851 -2.48453
21.6853 27.971 -10.033
-8.53919 -2.25061 -2.49532
-2.46512 -25.1906 -7.10666
-12.915 1.97908 -3.63828
4.42677 -11.4274 -3.40033
-9.10344 15.6525 -4.96827
-12.7663 17.0245 -5.84215
-5.27548 14.0711 -4.10415
-8.128 -39.4973 -11.0374
-20.9365 19.5369 -7.69622
-9.51376 15.7731 -4.93364
-26.0144 19.9834 -8.72518
11.6015 11.6775 -4.34619
4.36681 -11.3972 -3.23229
48.5712 -14.1196 -13.3979
-7.8002 -36.826 -9.89885
4.11542 -8.71193 -2.53644
11.2757 -10.029 -3.94698
-14.1123 17.6686 -5.87749
6.58445 -10.4993 -3.20701
3.19698 -9.70128 -2.64004
-28.8136 -42.2015 -13.198
-4.18433 -27.462 -7.19123
3.56824 -10.4494 -2.84633
4.09509 -9.44816 -2.6461
15.8119 -11.8893 -5.04668
-6.98084 14.8678 -4.15435
-30.2592 -40.3551 -12.7932
4.35031 -11.2415 -3.0498
4.2779 -7.74588 -2.25167
6.5942 -10.7556 -3.14551
46.1393 -13.9499 -12.0162
-27.485 20.7361 -8.51051
-11.2607 16.5422 -4.9308
-26.5554 -38.7402 -11.5506
-9.42891 -37.1235 -9.45196
-23.8345 20.0187 -7.64736
4.38156 -10.4051 -2.77317
-11.7808 16.8729 -4.98726
-7.66223 14.9256 -4.04115
10.3604 -9.34498 -3.34025
41.3521 -13.7361 -10.4255
15.3001 7.65198 -4.0743
-6.02257 -34.512 -8.34932
3.98747 -9.13637 -2.36162
48.4262 -12.9609 -11.8964
-11.4993 -42.3514 -10.4004
4.23549 -9.06259 -2.38573
3.90698 -11.2046 -2.79534
4.93943 -8.748 -2.3629
-12.4744 16.9983 -4.90473
11.1072 -9.73359 -3.3749
-5.95431 -30.2094 -7.02861
-26.4093 20.397 -7.56278
42.6163 -9.32015 -9.89869
-29.5994 21.4905 -8.19968
-34.5145 -22.6182 -9.247
-5.2058 -24.7949 -5.65207
41.798 -12.9211 -9.82159
5.49296 -9.54041 -2.45734
-12.3015 2.80695 -2.76841
41.6733 -12.2125 -9.59341
43.7395 -12.4801 -10.0057
28.6566 40.3625 -10.8486
-5.23802 13.7371 -3.21163
13.5449 -10.8994 -3.82608
38.997 -12.5323 -9.00363
-22.7632 19.8391 -6.54833
-27.0836 -66.7772 -15.6416
4.34308 -9.77449 -2.3188
4.57175 -9.24591 -2.22733
-14.215 17.7096 -4.84787
-29.9994 21.791 -7.91618
-30.8369 21.8839 -8.08194
-25.6585 -68.0805 -15.6008
-10.4208 16.2818 -4.09683
-8.05843 -34.2177 -7.47862
3.21668 -9.76395 -2.19144
4.00114 -9.91517 -2.27897
47.1176 -10.9244 -10.3236
15.1303 7.57876 -3.58918
-14.7695 18.1805 -4.95751
5.19875 -9.11551 -2.20421
27.7938 40.2175 -10.2226
-26.9532 -26.3769 -7.8315
15.1762 7.94268 -3.55792
-29.424 -22.7242 -7.71308
-29.6947 -76.1428 -16.9263
41.5518 -11.1823 -8.89797
-11.1582 16.4393 -4.03557
-15.2237 17.9988 -4.79753
-34.0206 22.8372 -8.3252
45.6665 -9.96105 -9.53052
-12.527 -40.312 -8.58311
4.16938 -9.8125 -2.1685
4.29576 -9.78237 -2.17719
11.7168 -9.73989 -3.09947
-11.6904 16.7754 -4.0798
-18.5311 -53.189 -11.2609
-12.346 -38.3566 -7.98056
4.10335 -10.0022 -2.13988
-33.2428 -22.7311 -7.93951
-25.9711 20.3831 -6.49675
-32.3057 -23.1088 -7.74335
-6.69677 14.7945 -3.14971
-24.7012 -58.043 -12.2564
-32.7276 -21.7878 -7.57716
3.46367 -9.43743 -1.9406
47.1928 -10.9344 -9.30108
-12.4149 16.9497 -4.01477
4.02068 -9.41837 -1.95372
-35.5033 -21.5658 -7.86401
-20.5444 -33.3742 -7.45482
-14.7205 -42.4771 -8.50931
38.8388 -12.8121 -7.73013
-34.727 23.3238 -7.82807
-32.8376 -22.6783 -7.49757
-31.8167 -23.2783 -7.40097
-20.0105 -49.5767 -10.0628
-15.9642 -43.366 -8.57473
3.84461 -9.2647 -1.85232
43.7348 -11.7874 -8.41011
5.80333 -9.78961 -2.08519
-22.9693 -52.0849 -10.425
-19.2685 -47.8289 -9.32915
-14.1685 17.6611 -4.01341
-30.3024 -24.4396 -6.92052
-19.7863 -26.3661 -5.89579
-37.9614 23.9543 -7.91923
-25.9742 20.3948 -5.74722
-32.9581 22.5531 -6.93335
3.94435 -10.1385 -1.88574
4.8026 -8.66798 -1.72178
14.1726 7.61125 -2.77605
14.2546 8.18012 -2.81633
-29.8563 21.7111 -6.32793
43.4055 -12.2804 -7.67863
43.1739 -11.1818 -7.59109
-30.4604 -24.1913 -6.59916
-20.4713 19.4963 -4.7463
-19.1756 -47.6647 -8.68361
15.0432 7.5398 -2.82348
-30.6951 21.7304 -6.28158
-22.0483 -52.5694 -9.42222
44.8066 -12.0707 -7.54137
-10.0629 15.9748 -3.0452
-19.4246 -48.1911 -8.28924
-33.9685 -23.4486 -6.50468
-22.134 19.4467 -4.61296
-24.612 -15.4295 -4.58782
-23.4739 20.0388 -4.78288
-38.6553 23.4047 -7.00216
-10.9091 16.3269 -3.03002
3.50369 -9.61511 -1.58214
3.90926 -10.337 -1.71052
-7.37831 14.9639 -2.5465
-30.0672 21.8839 -5.68427
-30.9489 -23.9039 -5.94696
-27.2317 -25.4722 -5.64944
43.3792 -11.2774 -6.81191
46.1623 -10.0573 -7.1969
-6.33375 14.1057 -2.31168
9.88753 -5.18277 -1.65698
-32.6208 -23.5278 -5.99006
-24.4142 -61.7351 -9.84862
10.2835 -9.24601 -2.06053
46.3208 -10.7159 -7.05973
-35.6504 -23.732 -6.30348
-30.6773 -25.3039 -5.81766
-11.9818 -39.7038 -6.10423
17.1611 -12.4159 -3.10197
-24.6366 20.2842 -4.63727
-23.1636 -51.9023 -8.19206
-7.38068 14.7816 -2.36085
-12.3566 16.8473 -2.97781
6.10615 -11.6654 -1.88076
-13.0284 17.4136 -3.05395
-33.5233 22.646 -5.68748
6.83132 -11.1585 -1.82806
38.5563 -12.7244 -5.70954
-30.3522 -24.3211 -5.42865
-31.8841 22.9137 -5.43901
-19.4008 -46.7606 -6.99405
46.4803 -10.3983 -6.56681
-6.63936 14.6818 -2.20023
-21.013 -54.8427 -7.98045
7.81274 -9.45471 -1.64565
9.26155 -9.1174 -1.79237
-13.6105 17.3784 -2.97485
13.3701 -10.6638 -2.31355
-21.5806 19.6303 -3.92247
43.3065 -11.1971 -5.93755
46.1866 -10.1169 -6.25739
-21.9628 19.3276 -3.82532
-31.8416 -23.8265 -5.19491
-14.475 17.7252 -2.95827
-32.9004 21.9595 -5.13536
-37.4011 -15.7922 -5.2423
7.08408 -10.5354 -1.62845
10.908 8.93103 -1.81171
-32.9398 -22.6998 -5.11973
-30.4034 22.1954 -4.76166
-34.6658 -21.6317 -5.12199
43.1532 -11.1602 -5.57718
6.86148 -10.4675 -1.56348
-7.40832 14.8173 -2.04986
-24.2655 20.3754 -3.87971
-32.263 22.7382 -4.86884
6.37424 -12.2245 -1.67885
46.134 -9.84276 -5.7771
15.1962 7.96157 -2.06383
-17.0494 -41.2939 -5.38818
7.15576 -10.6349 -1.54293
-20.184 8.94543 -2.61333
-13.5223 -40.9062 -5.06722
-31.0332 -23.926 -4.58226
-30.5271 -24.4138 -4.57448
43.251 -11.5858 -5.26171
11.3408 -9.76651 -1.73362
-28.9122 21.9228 -4.17453
6.71038 -10.9335 -1.46816
7.54627 -9.29074 -1.36888
11.6998 -9.82178 -1.73471
9.50002 -4.63457 -1.19712
15.1724 7.79679 -1.92368
-10.0394 15.9825 -2.12926
-31.0994 22.7248 -4.31513
39.936 -13.1466 -4.71403
9.43459 -9.09814 -1.44981
-10.7424 16.1113 -2.10439
6.88844 -12.9683 -1.58993
46.286 -10.0597 -5.1342
10.9094 8.96517 -1.52324
17.0196 -12.6427 -2.27488
43.4584 -11.2714 -4.80994
9.70008 -9.05436 -1.40559
8.43996 -8.5257 -1.25659
-30.1147 -24.0987 -4.01645
-28.1362 -56.4359 -6.57935
15.168 7.60703 -1.73478
-30.9793 -23.8869 -4.01392
-12.4815 17.0149 -2.14224
-12.4122 16.6295 -2.06223
10.297 -9.16768 -1.35038
-19.5063 -49.5394 -5.22053
6.40418 -12.2643 -1.33852
9.56858 -9.034 -1.24449
16.8831 -12.352 -2.01028
43.348 -11.6483 -4.30175
-28.5724 -57.7559 -6.12606
-19.408 -50.9331 -5.1772
-22.6243 19.7894 -2.81015
47.0411 -10.465 -4.50044
9.79884 -9.06323 -1.2354
40.8168 -13.4646 -4.00422
-14.582 17.8753 -2.08899
-29.1282 -13.2803 -2.91837
-30.0717 -58.6228 -6.07345
16.0771 -12.0336 -1.82632
8.70286 -8.79457 -1.12023
-35.3596 -20.0544 -3.56128
13.0389 -10.763 -1.47192
46.6139 -10.8045 -4.09829
9.4806 -9.10359 -1.10469
11.0569 -9.73699 -1.23814
-32.9834 22.6516 -3.33028
17.0877 -12.461 -1.75118
-16.0084 -41.6571 -3.5748
14.8733 -11.63 -1.50517
-11.2561 -31.5124 -2.6415
-28.8434 21.9316 -2.80276
-31.9645 22.5941 -3.0225
-21.3347 -48.7344 -4.10726
7.66163 -9.37522 -0.966241
-48.924 26.627 -4.21895
-20.7578 19.5365 -2.074
-32.1815 22.7633 -2.85752
16.617 -12.4163 -1.51699
43.3842 -11.6099 -3.27126
-36.1048 -68.3139 -5.57595
14.1485 -11.1944 -1.29082
-14.7565 -39.1452 -2.88746
10.8694 -9.70715 -0.998239
-22.6448 19.8279 -2.03336
13.0178 -10.7417 -1.12949
18.2354 -13.226 -1.5013
-21.8668 -50.3801 -3.62985
16.2716 -12.3077 -1.34698
-13.9077 -38.5607 -2.65166
45.2512 -11.769 -2.92192
-29.5347 -59.8423 -4.07184
36.7154 -8.90734 -2.31822
44.3476 -10.1506 -2.79242
6.15334 -13.3012 -0.875477
31.7818 -21.0301 -2.27935
-9.52375 15.8988 -1.08951
-14.7889 -38.5785 -2.35236
16.8553 -12.5968 -1.18107
-9.58552 -12.426 -0.860082
15.1633 7.77938 -0.922346
14.0727 -11.1401 -0.960818
-12.4078 16.8147 -1.09186
-15.6554 -38.8032 -2.22186
15.0573 7.91764 -0.834671
-15.4645 -39.5294 -2.08229
-13.7325 17.4063 -1.06074
9.64673 -9.09947 -0.608117
-22.4121 -51.4107 -2.53699
12.5885 -10.3489 -0.755291
-15.0793 -42.0349 -1.98214
-16.3232 -40.2171 -1.85762
6.96154 -12.8549 -0.64823
-13.1282 -40.0196 -1.79355
-50.2205 27.3121 -2.31737
18.6368 -13.3893 -0.930886
17.0543 -12.6766 -0.827208
-37.7248 -73.2202 -3.10581
-17.1259 -44.9098 -1.76936
-32.4888 22.3232 -1.44288
43.8807 -11.3065 -1.63112
-31.7869 -63.2295 -2.36627
-24.1472 -52.9185 -1.9573
20.7894 24.0443 -1.05722
-20.8003 19.4922 -0.929688
8.26394 -14.5855 -0.562652
9.50108 -9.07029 -0.425698
11.4147 -10.0491 -0.49418
18.8971 -13.3618 -0.760229
35.7216 -13.4731 -1.26639
22.743 27.5306 -1.14704
-26.89 -13.4878 -0.94306
-22.2108 19.7791 -0.907338
-30.6455 21.705 -1.17314
-23.2495 -53.4512 -1.80406
-13.1257 -37.1332 -1.21238
-20.0559 -51.1611 -1.66265
-15.6562 -42.4315 -1.2948
-33.195 -20.1268 -1.03387
11.5641 -9.8104 -0.40611
16.5749 -12.3283 -0.544251
-39.468 24.4167 -1.22533
-29.2681 22.2706 -0.911068
-29.7854 21.8294 -0.874226
9.64916 -9.08361 -0.306909
-40.0967 13.8587 -0.938836
-29.6892 -49.7155 -1.30293
21.6623 -14.488 -0.572409
31.3108 -18.9862 -0.825728
14.3728 3.97208 -0.304664
29.3189 51.2351 -1.08844
23.9545 -11.1522 -0.465047
48.7137 -11.2175 -0.929266
-29.9132 -21.4966 -0.67149
-28.7313 -28.2198 -0.638072
-17.9142 -43.9574 -0.78919
12.8644 -10.5789 -0.273867
18.8299 -13.6065 -0.354693
-28.7263 -12.7681 -0.412809
-31.9702 -23.9256 -0.555273
-30.795 -62.08 -0.933593
-25.8261 -54.9662 -0.83046
-33.0587 -22.5772 -0.522406
-29.2835 22.2789 -0.434506
17.2578 -12.8878 -0.25546
30.0676 -18.6435 -0.415674
-29.7515 21.8421 -0.412263
-36.9692 -20.657 -0.476609
-18.1039 -41.5203 -0.483343
-11.4615 -34.499 -0.365034
-31.2786 -55.1125 -0.582079
-13.8942 17.6248 -0.173177
-26.246 -13.2324 -0.23737
-14.5658 17.756 -0.158006
-21.8947 19.5542 -0.152267
-20.3846 19.1204 -0.128302
-10.44 -13.4215 -0.0595749
14.9236 7.83976 -0.0209603
11.2195 -9.86572 -0.00775974
-33.6853 -18.4501 0.058745
-10.8457 -32.2336 0.111967
17.2122 -12.5053 0.0925905
-17.8536 -40.9885 0.200316
19.0916 -13.4516 0.124347
7.27789 -12.5107 0.105709
26.4993 -10.8722 0.176499
-53.1591 18.9818 0.536582
16.4853 -12.2175 0.196136
38.417 -7.84348 0.370345
-28.5805 -8.05895 0.347078
-35.3462 -21.3342 0.45565
-10.8668 -31.1349 0.355029
-51.9357 28.4641 0.722212
-12.1567 -33.6873 0.427843
-9.86699 -30.3294 0.384003
6.43707 -13.1577 0.187026
7.29619 -11.2404 0.176253
-27.2868 21.4196 0.529649
11.4287 -9.98119 0.228215
-23.3964 20.0084 0.506711
11.0085 -9.82936 0.231711
13.1249 -10.805 0.267978
37.3167 -7.98649 0.635259
-33.6664 -22.5558 0.737547
-30.2191 21.6071 0.727851
6.24619 -13.0506 0.280736
7.10176 -11.1763 0.255137
8.09443 -9.49835 0.243727
29.9635 61.613 1.48768
7.79459 -9.52397 0.278258
10.2206 -9.25729 0.332729
-28.3208 -9.08125 0.71619
-22.6258 19.7492 0.811065
-26.7181 21.0675 0.911592
-28.4487 -8.54206 0.782488
9.26585 -8.96922 0.348386
9.70635 -9.02139 0.361242
-24.7957 20.8983 0.879515
25.7921 -5.21785 0.732786
13.1347 -10.7752 0.506191
15.3404 24.9909 0.903684
6.29115 -12.9785 0.453778
7.54934 -11.7684 0.438754
-27.9948 -7.8953 0.95409
-12.3927 -18.9747 0.747262
-27.6856 -8.65302 1.00266
16.373 11.2066 0.71658
-29.2095 -18.1 1.20139
16.4035 28.4947 1.17235
-29.8317 -16.2722 1.25943
23.8873 -4.31351 0.877071
-27.2605 -19.3881 1.23996
-7.25903 -7.91479 0.405237
9.12494 -8.89825 0.473769
12.6634 13.8526 0.723076
28.2101 58.196 2.44761
27.0101 57.5076 2.3908
-11.4681 -9.07741 0.57668
8.79108 -8.7364 0.490273
-24.8957 20.5083 1.30772
22.1334 -2.99974 0.904929
-28.2334 -17.149 1.35353
9.49293 -9.00122 0.536375
12.7033 14.6306 0.833047
6.67388 -12.639 0.606827
15.25 19.8151 1.09858
21.5819 29.8105 1.61095
-9.39183 -13.6558 0.728798
-9.85095 -15.4065 0.812193
7.6798 -11.0688 0.593511
8.69095 -8.78113 0.558296
24.5549 -3.76166 1.12168
-29.3507 -8.55315 1.39519
6.81851 -11.2096 0.603593
-8.22823 -8.0975 0.543261
22.7312 45.8633 2.44788
-28.001 -17.3056 1.55628
-9.66359 -13.555 0.792646
9.74218 -9.03912 0.625929
16.692 46.387 2.38546
-29.696 -13.1532 1.55022
-6.72946 -8.20415 0.522115
15.3659 35.7342 1.98406
-29.2172 -11.4414 1.57459
-7.55915 -6.95085 0.518973
-6.67078 -7.56202 0.510057
16.815 30.4605 1.80591
10.7195 12.5345 0.890887
14.5908 19.8557 1.32243
9.4218 -8.99891 0.698052
15.1885 19.7623 1.37569
15.7714 24.3589 1.59729
-26.7565 18.8395 1.79188
-6.93879 -8.15452 0.593754
-25.6914 19.7132 1.79858
6.19294 -13.076 0.80926
-7.06562 -9.10568 0.657321
10.1209 12.6417 0.951992
15.4298 25.9974 1.76563
6.5653 -13.186 0.847483
14.2686 23.2789 1.61224
-8.21539 -8.07535 0.694052
11.7048 11.7857 0.990146
15.0403 20.0039 1.5032
-7.34923 -9.9487 0.769366
7.08655 -11.2931 0.81237
11.3692 -9.80663 0.910215
5.92995 -10.8707 0.76822
-7.16688 -6.62439 0.60973
14.8616 21.0824 1.63162
16.3331 7.25003 1.16003
-7.01179 -6.12621 0.610817
6.57019 -13.6689 1.01041
9.71715 21.9496 1.61908
10.5829 12.7558 1.13275
13.8636 18.6418 1.62002
12.7416 21.1256 1.70675
11.5151 12.164 1.17538
6.65358 -9.92286 0.845915
11.6623 11.9317 1.20715
9.86471 -6.96353 0.859149
12.5401 12.1399 1.28159
9.99772 -8.44301 0.958605
-6.09069 6.60109 0.669499
10.5493 9.28897 1.05562
12.1954 18.2343 1.65028
11.7509 18.7216 1.66526
-6.91518 -7.66501 0.800475
11.1298 19.2101 1.70324
9.58597 -9.02525 1.01744
10.6604 14.31 1.39873
-6.39993 -4.28837 0.607312
9.43244 18.8979 1.68772
10.1424 -6.94039 0.984003
12.6286 11.717 1.39237
10.0084 19.4325 1.75999
-7.22174 -9.57898 0.977267
6.76629 -9.44797 0.945504
12.4151 11.8768 1.40758
12.321 12.1174 1.43482
11.5871 12.1113 1.38743
-5.0108 -11.4366 1.05074
10.478 13.1095 1.4278
-6.93691 -6.06171 0.793324
-6.79256 -6.67186 0.80413
-5.17214 -11.3439 1.06063
-7.26824 -7.71251 0.912599
9.3388 -7.2984 1.02399
-7.08837 -8.02123 0.936786
-6.98716 -7.65775 0.911653
9.53785 12.7312 1.41022
-6.91959 -8.33293 0.96771
10.9326 9.17324 1.30049
10.6386 13.702 1.56719
10.6398 9.34458 1.29614
7.8741 14.2935 1.50103
-6.4701 -8.10064 0.94993
-6.8674 -8.97194 1.04294
11.3425 10.9395 1.45387
11.3731 9.27933 1.37342
11.0086 10.9424 1.45489
6.64645 15.3595 1.57283
-11.3465 2.90682 1.0976
-6.34577 -4.16069 0.710602
-6.78297 -6.27286 0.856623
9.59319 13.5293 1.5999
-5.96532 6.48182 0.866269
7.99822 -6.64062 1.0131
8.07678 13.4674 1.55996
-7.03861 -7.58516 1.04244
9.44236 11.8067 1.52485
7.13295 12.6651 1.4753
7.19873 13.2624 1.53851
9.63765 9.19218 1.37827
6.00206 14.3087 1.60859
9.28609 12.6299 1.63442
-6.09245 -4.44595 0.790272
6.09767 14.0117 1.60995
6.35969 13.9309 1.61027
-6.94949 -4.41441 0.880318
8.86338 9.11682 1.35553
9.25021 10.3051 1.50605
7.4387 11.1696 1.45855
5.93084 11.682 1.42462
-6.27506 -7.38196 1.05897
10.3506 6.50515 1.35257
9.0794 8.2177 1.34989
7.43119 11.8786 1.54731
6.96132 11.8318 1.51791
5.46492 12.1359 1.48116
4.97558 12.3685 1.49197
4.83166 14.0521 1.63533
9.95161 7.1155 1.36598
8.85773 9.41577 1.44456
5.48534 11.7373 1.4593
-6.81587 -6.69829 1.06355
6.96985 10.8791 1.45561
4.43425 13.5281 1.60963
9.79784 -3.21065 1.14958
-6.08717 -5.39892 0.941805
7.31835 -6.14439 1.08466
10.493 5.75734 1.37268
-7.35445 -0.982199 0.849699
-6.23934 -5.34065 0.945146
5.25767 -5.56682 0.882131
5.17027 11.8596 1.50331
-6.86214 -4.54533 0.953539
4.46844 -7.28614 0.988331
10.4811 5.18498 1.37217
8.96785 7.95948 1.40761
-5.98773 -4.35776 0.862793
-6.46645 -5.25769 0.98435
4.11011 -7.90069 1.05893
4.97619 -5.86147 0.922405
10.2347 4.78565 1.35438
8.60319 8.35406 1.45254
5.37749 11.7157 1.57402
9.11409 6.31388 1.35752
8.0926 8.4222 1.46323
-6.46937 -5.72865 1.07554
3.72009 -7.60061 1.05968
8.74566 6.74333 1.38874
-6.44855 -5.32845 1.05851
9.15787 6.05752 1.40185
8.25344 7.20175 1.3976
8.18728 7.57527 1.42427
5.78981 -5.35732 1.01268
-6.95091 -4.42969 1.05774
8.18011 8.07663 1.49114
-7.33122 -1.03867 0.956167
-6.90338 -2.81832 0.973393
9.0282 4.12513 1.29991
8.46978 6.68206 1.4163
5.00929 -6.04114 1.0315
4.92778 -6.20677 1.04936
6.88836 -4.294 1.08044
-7.11076 -1.7128 0.980056
-6.98874 -2.21337 0.979664
-6.01122 -4.41192 0.996589
8.20104 6.71252 1.43682
8.66199 4.46651 1.32876
8.68881 5.20147 1.38323
8.09799 7.2001 1.47502
-6.78923 -3.72295 1.05105
8.91384 4.18419 1.3479
8.32499 5.87585 1.39546
-6.38127 -4.31773 1.05402
-5.94358 -4.5145 1.01906
5.43113 9.15249 1.47034
3.71264 10.2718 1.51753
-7.34152 -1.08907 1.02729
-6.88397 -3.91552 1.09876
4.95769 -5.5534 1.02878
5.23824 -5.40857 1.04497
7.48628 -3.54777 1.15853
3.45593 10.3655 1.53184
8.45417 4.62704 1.36337
7.39731 -3.68925 1.17263
7.61063 -3.34527 1.18521
7.78695 -3.31636 1.20094
8.98442 2.82898 1.35579
4.84224 -5.64525 1.06901
7.37493 -2.86127 1.15167
-6.93806 -3.29043 1.1189
7.94426 -2.78877 1.22756
8.69744 -1.82694 1.30454
5.07472 8.68889 1.48572
3.01194 9.62873 1.50183
7.75683 -1.89393 1.17677
7.28279 5.80004 1.38729
3.52097 9.74142 1.53195
3.25149 9.99713 1.55893
-7.34368 -1.0396 1.0992
-7.05228 -2.0167 1.09269
7.00346 6.33995 1.42644
-6.2475 -2.26599 0.996911
-7.21533 -1.37057 1.10816
7.99104 4.84915 1.42412
5.76845 7.43317 1.42788
5.35197 7.71706 1.42965
5.1185 8.11173 1.45053
6.77638 -3.23371 1.1355
7.26702 -3.13363 1.21193
7.65986 -2.76405 1.24093
-7.28972 -0.730247 1.11826
-7.07467 -1.94823 1.13212
6.80617 -3.10061 1.15663
3.75488 -5.79433 1.06763
-7.03095 -2.06946 1.14859
-7.31976 -1.08897 1.16149
7.40849 4.80538 1.3948
-7.17412 -1.43859 1.16364
-7.24622 -1.29655 1.18062
-7.07491 -2.01258 1.19571
7.11489 4.79366 1.40058
-7.07847 -1.9392 1.20517
7.05486 4.89657 1.42659
6.6579 4.88353 1.37808
5.25228 6.29848 1.36651
4.72435 7.25097 1.4458
3.87494 8.04316 1.48466
-7.22427 -1.36877 1.22693
2.79381 -5.77979 1.08214
7.18525 4.45552 1.42442
6.55843 5.2745 1.42004
3.87804 -5.37132 1.11696
3.94013 -5.02537 1.08102
-7.24695 -1.24804 1.24694
-6.58008 -2.61795 1.20111
7.45184 2.86142 1.35397
7.06876 3.91271 1.37696
-6.39744 -2.74573 1.18406
6.8128 4.12184 1.3671
5.69312 -3.52621 1.15265
-7.36934 -1.03584 1.2864
-6.34024 -2.27443 1.1576
5.54512 -3.65437 1.14473
5.32755 -3.78011 1.14503
3.6406 7.2499 1.42772
-6.77879 -1.72986 1.22817
4.48512 -4.47251 1.11471
-7.06776 -0.911485 1.26893
4.73172 -4.46388 1.15118
4.3714 6.55738 1.40675
6.61892 3.49127 1.35155
6.66006 3.70173 1.36899
-6.42315 -1.49629 1.18569
3.61199 -5.33095 1.17138
5.11715 5.65666 1.397
-6.13998 -2.17786 1.19354
3.41477 -5.16101 1.15089
3.42694 6.85031 1.43374
-1.69646 -5.77708 1.14354
6.47235 2.74369 1.33794
-2.1414 -5.72235 1.17439
6.33604 2.80803 1.33439
-2.78491 -5.37128 1.18538
-3.49014 5.29883 1.37301
4.49458 3.91442 1.36066
4.15284 -2.87991 1.17764
4.63304 -2.18833 1.23821
4.21847 3.30678 1.32813
3.70729 -2.93015 1.22399
4.03259 2.5839 1.33845
-1.44539 -4.123 1.2228
-2.3232 -3.58253 1.21288
3.87259 2.37225 1.31617
-2.84581 3.50607 1.35224
-2.48312 -2.91908 1.18977
-2.38071 -2.94046 1.1948
1.83674 -2.80264 1.17863
1.85984 -2.78121 1.20868
1.98599 -2.51905 1.19532
-2.03575 2.79468 1.3132
2.80241 -0.55536 1.25907
2.78217 -0.336652 1.24099
-2.09224 -1.62111 1.2134
-2.07984 -1.4529 1.23837
-1.8654 -1.79844 1.28419
-1.9973 -1.13264 1.20469
-1.98873 -1.07148 1.23147
-1.94838 -0.881219 1.23156
-1.93256 -0.709045 1.22171
-1.93139 -0.702115 1.2489
-1.90751 -0.47008 1.22152
-1.8728 -0.346012 1.21863
-1.85776 -0.401529 1.22543
2.3735 -19.6176 -9.97148
-7.55327 -8.91757 0.462103
8.05963 -8.84434 -10.52
8.30395 -8.67036 -10.5528
8.25538 -8.32974 -9.93261
6.99309 -12.0144 -11.4637
8.56403 -9.02304 -9.79446
7.89034 -8.98179 -9.18043
5.87684 -12.8521 -10.7735
9.48559 -8.88815 -9.80377
6.17576 -14.1531 -11.6232
8.33305 -8.72622 -9.07091
8.0622 -9.21881 -9.15731
7.3303 -9.29328 -8.81758
5.93932 -14.2162 -11.2396
7.76135 -9.35685 -8.77121
7.89849 -9.16562 -8.71483
7.16551 -10.6332 -9.12798
6.85667 -11.1301 -9.26614
10.1248 -9.25771 -9.63434
6.5747 -11.2331 -8.90931
8.07689 -8.67419 -7.89181
7.40166 -9.3317 -7.9143
8.5649 -8.73043 -8.12869
7.76659 -9.52873 -8.07505
6.52488 -12.8449 -9.40632
7.97937 -9.23331 -7.95841
5.01722 -16.0758 -10.8306
-0.478805 13.8987 -8.89293
7.77152 -9.29602 -7.76894
7.38073 -10.9293 -8.39583
8.42717 -8.61602 -7.6776
10.9594 -9.69442 -9.27975
9.04351 -8.87121 -7.94434
11.8682 -10.1201 -9.77366
8.12108 -8.58652 -7.27038
4.04746 -16.8536 -10.6225
4.26272 -15.4162 -9.81999
7.89228 -9.41508 -7.36163
3.95976 -15.6449 -9.62287
11.5774 -9.91104 -9.12666
6.90634 -11.1431 -7.78322
7.81204 -8.86395 -6.99854
5.51613 -14.0645 -8.92481
6.5267 -12.7777 -8.39563
8.41071 -8.6439 -7.02781
9.75622 -9.14476 -7.7963
2.80322 -11.8413 -6.97412
5.52003 -13.9976 -8.51784
9.66425 -9.17087 -7.53062
6.65689 -11.1336 -7.30298
3.33992 -20.6192 -11.7067
8.93596 -8.99608 -7.10741
12.3009 -10.3197 -8.99406
6.86398 -11.0691 -7.25494
4.7093 -14.6858 -8.52199
6.26167 -12.6993 -7.78781
0.890754 18.6246 -10.1519
14.7749 7.80791 -9.08184
4.22728 -14.3144 -8.05983
14.8875 -11.7802 -10.2322
15.135 7.52151 -9.00445
14.1582 7.80145 -8.59135
4.78788 -14.9098 -8.31963
12.1866 -10.2365 -8.37446
1.81061 -20.402 -10.5378
11.5106 -9.93329 -7.78845
2.07848 -20.1442 -10.2765
14.1117 -11.2008 -9.11167
-0.00192783 14.2583 -7.1574
-7.16614 14.8882 -8.27785
10.6776 -9.67566 -7.23951
7.56375 -9.48654 -6.04405
17.8537 5.55644 -9.12256
-8.34431 15.8121 -8.63815
11.7454 -9.86405 -7.42293
10.5764 -9.65931 -6.87719
14.947 -11.4588 -9.08305
16.9675 16.0753 -11.1074
7.54149 -11.1454 -6.41046
15.1765 7.49917 -7.94455
14.0656 -11.1373 -8.38419
-11.6833 16.7267 -9.34551
16.0218 -12.1395 -9.18205
9.82593 -2.46372 -4.65376
-9.06135 -1.64734 -4.1879
19.0818 18.4152 -11.969
3.93211 -9.14155 -4.51604
-9.99185 16.318 -8.59021
-5.3052 4.41111 -3.10162
6.91136 -11.377 -5.9917
9.49331 -9.14926 -5.81444
16.2005 7.39075 -7.85745
-6.50023 14.7555 -7.03996
1.50347 -18.7344 -8.12857
-10.9191 16.6101 -8.55613
9.63034 -3.3875 -4.37293
7.07106 -11.1287 -5.57287
16.0022 -12.096 -8.3958
14.8104 7.82958 -7.02855
19.1311 19.9064 -11.542
1.01613 -22.4213 -9.3449
-4.46114 13.633 -5.90856
-9.8738 -1.10438 -4.11736
14.2415 7.86426 -6.64423
20.9364 22.7762 -12.6139
-12.9456 2.42602 -5.36494
15.2827 7.26152 -6.84461
-5.12189 14.0261 -6.00345
3.65616 -8.85052 -3.81098
12.5036 -10.3618 -6.36089
14.0912 -11.1261 -7.01564
19.7251 22.0792 -11.4883
19.0388 5.87108 -7.72684
1.54455 19.404 -7.54954
-8.52942 15.3647 -6.77276
11.4976 -10.137 -5.89523
19.6829 22.8225 -11.6126
0.678557 15.4297 -5.91605
-1.64847 12.6118 -4.89237
2.71963 -12.263 -4.81901
-8.72489 -1.24613 -3.34981
0.698883 -23.353 -8.81734
15.3625 -11.7728 -7.2984
9.53842 -3.48052 -3.83045
-14.2164 17.5238 -8.40853
-7.85803 -3.4907 -3.15362
1.09431 -10.4303 -3.85748
7.08339 -11.3235 -4.88358
14.3558 8.01617 -5.93769
-8.25604 -2.8346 -3.13883
0.786453 15.3521 -5.48276
-3.8713 13.0804 -4.82415
5.77899 -11.065 -4.3923
16.0278 -12.1126 -7.11461
19.3214 5.96758 -7.11552
2.14462 21.0022 -7.40705
22.2525 26.9038 -12.1374
-14.4786 17.8711 -7.89334
2.99107 -13.4189 -4.73108
-8.66199 15.6441 -6.10932
18.745 -13.2766 -7.87188
-4.92699 14.1464 -5.0921
1.34909 -21.989 -7.30149
1.77112 19.8245 -6.57739
1.44882 -10.3142 -3.44227
40.2463 -20.5729 -14.8314
6.20743 -10.1089 -3.79666
17.8039 -12.5711 -6.9797
2.1351 20.9118 -6.69227
-12.9903 17.3411 -6.83032
1.43446 -22.3914 -6.99241
-4.20359 14.3765 -4.65314
-10.6533 16.1402 -5.85991
-2.66089 -27.1163 -8.28085
3.0797 -9.51539 -3.03909
0.785123 -23.85 -7.17797
19.4155 -13.7811 -7.06396
17.8082 5.6339 -5.48173
-7.67588 14.8566 -4.8669
4.25579 -10.5588 -3.308
3.64685 -10.6426 -3.20125
4.27444 -11.0289 -3.31965
-12.9286 17.2798 -6.00226
-9.02298 15.423 -4.85992
-13.1202 1.96677 -3.63756
-16.4167 18.8608 -6.78885
26.8443 -17.6718 -8.7071
-3.75664 -26.8006 -7.26195
3.80284 -9.19253 -2.66131
-9.5229 15.8286 -4.91592
48.6911 -14.2167 -13.4494
10.6211 -9.47287 -3.76686
-6.25578 14.4808 -4.11938
-14.0016 17.5541 -5.89156
-7.62534 -36.0921 -9.61252
4.99026 -9.63283 -2.80763
6.60636 -10.5722 -3.21571
-6.98917 14.8311 -4.1663
-10.2539 15.9695 -4.84823
-9.38328 -37.1918 -9.54278
-8.54152 -36.8811 -9.24856
11.0392 -9.73142 -3.61824
-7.73204 15.0044 -4.09201
-11.3835 16.5451 -4.86074
14.7846 7.80986 -3.97005
4.06812 -9.30061 -2.40226
15.3931 7.62368 -4.04957
3.76711 -8.9563 -2.28371
-6.25706 -31.1869 -7.36849
5.66312 -9.94842 -2.65283
46.0125 -11.1349 -11.0024
-12.4322 16.9338 -4.83494
15.0441 7.70475 -3.82538
44.992 -9.73308 -10.4273
-9.4965 15.8175 -4.12863
-34.1288 -83.8632 -19.6723
3.74061 -9.31756 -2.18397
44.1287 -11.3207 -9.94258
15.3067 7.59379 -3.66033
-10.3178 16.1052 -4.09612
-21.149 -33.2487 -8.46712
4.85511 -9.81967 -2.36285
46.3281 -10.8476 -10.1796
-14.3418 17.7687 -4.80368
-31.3723 -23.1555 -8.2655
42.8193 -14.327 -9.55141
15.0317 7.94323 -3.54705
-34.1947 23.1242 -8.44071
-7.95285 -32.533 -6.7852
3.98971 -11.614 -2.46789
45.8251 -9.88722 -9.53447
11.8912 -9.84306 -3.09542
44.1545 -11.3669 -9.08504
-26.1459 19.7303 -6.50132
6.19402 -10.3671 -2.40394
47.2747 -11.0551 -9.48176
-12.4056 16.9263 -4.055
-26.0036 20.3786 -6.41955
16.3064 12.3346 -3.9097
-6.6537 14.645 -3.08685
-32.2349 -23.3157 -7.61538
-30.7804 -24.1031 -7.51374
-34.4177 22.9345 -7.7881
-32.7578 -21.6091 -7.4165
18.2441 5.73589 -3.57056
-33.2917 -20.0871 -7.26184
-14.216 -40.9878 -8.08463
3.80173 -9.90158 -1.99662
-22.7513 -56.644 -11.3559
-15.8591 -42.7265 -8.33867
4.00414 -9.70446 -1.89324
13.2028 -10.3166 -3.0214
46.7187 -10.3963 -8.59652
-14.294 17.7282 -4.06864
-26.1418 20.5033 -5.86539
15.2752 8.08611 -3.01156
-29.466 -25.6776 -6.81291
44.015 -11.2744 -7.80027
-7.68141 14.7965 -2.82329
-9.40802 17.3254 -3.32959
45.9597 -10.8191 -7.98357
-29.7217 21.6493 -6.19045
-29.5118 -22.7047 -6.22391
-20.1785 19.294 -4.64458
-31.2538 22.0723 -6.38307
16.1271 -12.0328 -3.29688
-10.0161 15.9013 -2.98919
-41.6859 24.5294 -7.67363
-30.8262 -23.1577 -6.17286
-32.6102 -22.4933 -6.23987
3.46056 -9.5702 -1.59116
-23.0481 19.6888 -4.68129
17.1493 -12.1236 -3.25276
-10.8323 16.2118 -2.96172
47.431 -11.1162 -7.39359
-21.4535 -49.7177 -8.18399
-28.5269 21.3947 -5.33173
-37.005 23.0736 -6.47296
-30.8312 -23.9323 -5.82326
45.9479 -9.84646 -6.99644
-32.8515 -23.7585 -5.92427
-47.815 26.6974 -7.87447
-34.596 -23.0759 -5.98637
6.82326 -13.0937 -2.14332
-35.3023 -20.5179 -5.77912
-6.69083 14.7509 -2.24857
-12.7161 17.1658 -2.97196
-31.0778 22.3748 -5.35269
-26.599 -22.8104 -4.83206
-23.0696 -51.3777 -7.76766
-15.158 -44.3135 -6.44284
37.6152 -12.5094 -5.43597
-22.4755 19.7506 -3.98116
-31.4471 -23.5502 -5.12958
-29.8466 -24.4852 -5.10442
-33.0333 -22.7501 -5.13811
7.50341 -9.50387 -1.56556
44.0761 -11.2826 -5.83746
-32.3827 22.036 -4.98007
-29.1873 -15.5746 -4.21735
6.07373 -7.86592 -1.26936
46.1208 -10.8404 -6.00604
-30.0534 22.0877 -4.65422
14.685 -11.4409 -2.28674
-29.0274 21.8629 -4.39619
-31.5071 22.2728 -4.64579
-10.0311 15.9542 -2.177
-30.7525 -22.1176 -4.45692
-21.5459 -51.868 -6.53508
13.135 -10.6235 -1.97732
36.6783 -12.1202 -4.4693
6.40258 -10.441 -1.4075
11.301 -9.79308 -1.68464
16.6762 -12.4162 -2.34246
-10.73 16.0894 -2.14105
6.84895 -12.7609 -1.5866
11.7159 -9.78402 -1.69021
43.91 -11.26 -4.97628
-37.6277 23.4616 -4.75952
46.1892 -10.7932 -5.10669
15.1064 -11.6 -2.026
-12.5663 16.9774 -2.16938
14.9572 7.91675 -1.6922
14.1744 -11.1819 -1.80321
-13.5887 17.3796 -2.1397
6.48752 -12.4325 -1.34953
9.48025 -8.99241 -1.26285
17.2622 -12.6223 -2.0867
-28.3494 -13.5468 -2.96014
-14.5352 17.7993 -2.14219
-34.1581 -66.5465 -6.96335
-33.1492 -20.7429 -3.46272
16.3612 -12.26 -1.83948
39.5254 -13.1516 -3.72769
11.2213 -9.97483 -1.24059
44.3458 -11.3344 -3.81703
-15.3895 -40.0482 -3.44652
-36.602 -71.5704 -6.26207
17.8854 -13.0331 -1.74741
-29.2081 22.1058 -2.80232
7.5064 -9.24675 -0.921791
-31.77 22.4893 -2.89207
-15.7922 -39.0673 -3.14954
-34.082 -64.1341 -5.16505
-32.8982 -65.8899 -5.04501
12.7103 -10.5778 -1.11288
17.317 -12.6127 -1.44792
-38.0469 23.6857 -2.9311
44.6201 -11.424 -3.02291
-28.16 -13.2415 -1.86374
-36.9874 -71.4586 -4.87257
14.6907 -11.4528 -1.12219
31.9991 -21.0796 -2.09318
31.9414 -20.1314 -2.06299
15.5395 7.67468 -0.900018
14.9711 7.93863 -0.872077
-12.4849 17.0377 -1.07216
-23.1829 -51.1582 -2.8854
-12.8825 -35.0642 -1.85155
-26.6524 -15.3929 -1.46082
-38.7002 -72.9371 -4.03147
9.73808 -9.17146 -0.669016
13.6067 -10.8208 -0.853716
16.2062 10.3097 -0.908349
16.5289 11.5853 -0.940795
6.92867 -12.7081 -0.688051
-19.8118 -5.84578 -0.887182
-28.2656 -50.3725 -2.548
10.3859 -14.0217 -0.712908
18.3345 -13.2219 -0.923519
43.7944 -11.1869 -1.7983
-9.30155 -12.3024 -0.595011
45.4017 -10.6317 -1.83315
22.9292 27.566 -1.22491
-31.7081 21.6758 -1.33216
-35.6211 -19.9748 -1.32948
-17.2758 -43.0557 -1.49004
16.7157 -12.4708 -0.680225
14.5302 3.93578 -0.444482
-24.1486 -55.4909 -1.81376
-22.1643 19.7441 -0.848795
-11.7542 -35.6419 -1.00867
44.2145 -9.39263 -1.2636
-40.5077 25.1964 -1.29091
-52.5099 18.882 -1.33805
44.9525 -10.4386 -0.992195
-30.0301 22.6954 -0.753426
-29.8353 9.48995 -0.655422
33.7398 59.0739 -1.25378
-29.3589 21.668 -0.699913
13.1177 -10.7484 -0.293715
-33.8418 -21.0605 -0.617735
-28.5837 -57.4849 -0.954202
17.7485 -12.7998 -0.317694
-12.0047 -36.2935 -0.492506
-13.8551 17.5885 -0.229023
-19.0549 -43.7923 -0.517974
31.0221 -19.4303 -0.329548
-22.1592 19.7711 -0.20251
-9.82837 -12.6143 -0.0482642
7.10357 -11.8497 -0.0238129
14.7936 7.73633 -1.33057e-05
-34.8081 -21.4937 0.218249
-22.931 -39.1923 0.335779
-51.3745 28.1435 0.59729
6.77295 -12.0172 0.142952
8.06849 -9.17389 0.12213
-40.1434 -21.3423 0.500005
-11.0431 -31.2737 0.370962
11.2049 -9.76752 0.194964
-22.55 19.268 0.38937
-12.196 -18.9228 0.32769
-30.3343 21.5859 0.662065
-34.45 -23.0958 0.742688
-33.9352 -25.0694 0.736691
10.7309 -9.64358 0.235496
7.85388 -9.68119 0.267917
7.95694 -9.28725 0.263915
-68.0617 23.5686 1.68216
18.3772 -13.3402 0.553177
-28.3171 -8.50714 0.791222
-27.2324 21.3558 0.995751
11.6963 -10.021 0.42019
17.4562 -7.56683 0.541851
-24.3555 20.6566 0.949781
-7.86601 -9.22409 0.385851
12.918 14.0449 0.67811
-27.3308 -19.4441 1.1586
6.23195 -12.8406 0.502144
8.97545 -8.83212 0.430329
24.8813 -4.40912 0.845248
18.9064 18.0554 0.943441
14.282 24.7239 1.07305
-55.0206 18.0852 2.08383
24.6848 -4.79527 0.952792
-24.829 20.2826 1.21084
9.45116 -8.99117 0.50437
22.6511 -3.12072 0.863898
12.4197 14.3847 0.777543
15.1026 19.5142 1.00999
6.6032 -12.5198 0.580969
18.9599 43.8234 1.9927
7.72449 -11.1313 0.571178
-7.52625 -7.40863 0.466574
-8.22584 -11.3806 0.62764
-29.151 -11.5398 1.49327
16.5993 10.7758 0.986022
-7.70241 -7.1667 0.50382
15.7212 24.4245 1.50047
-6.93086 -8.15902 0.588534
14.8808 20.3773 1.38242
-25.4752 19.6168 1.77666
14.824 24.1423 1.64021
-7.09735 -9.14903 0.661777
6.92174 -13.7169 0.881802
10.0453 12.6357 0.955214
15.0301 19.9694 1.56678
15.5042 27.5938 1.9487
10.8041 30.3002 2.04602
-7.27062 -9.92346 0.787149
9.78472 22.2988 1.63452
11.5481 10.1582 1.09614
11.6055 12.2725 1.19224
13.9344 16.1015 1.52375
8.28398 -12.7697 1.07446
10.867 9.07125 1.04141
13.0886 14.6802 1.47158
-14.2177 8.38442 1.24731
-11.0707 2.08559 0.85171
12.6497 16.4664 1.61145
11.8221 18.8411 1.72741
10.1494 -6.94576 0.960321
-7.64614 -8.08847 0.890474
12.9016 11.6787 1.41944
11.9935 11.7332 1.39277
-6.9928 -6.15258 0.75678
-7.04212 -6.88604 0.816941
-7.01753 -8.88655 0.975551
11.6049 12.1138 1.44659
9.12284 -7.16912 1.01019
10.7364 9.4578 1.30071
-11.3347 2.90244 1.07465
-7.60082 -7.07948 0.93316
11.7439 9.06174 1.4204
9.3393 13.2069 1.5534
7.2983 13.4295 1.49832
8.53418 13.2692 1.58236
-6.72983 -6.7062 0.944334
7.89437 -6.56202 1.00478
9.79653 12.2706 1.5738
10.0299 10.2457 1.48093
-6.86992 -5.39281 0.908737
9.69571 9.23265 1.4274
8.28394 11.2627 1.46571
6.86181 13.3054 1.59538
9.66213 8.43136 1.35746
9.26943 10.3243 1.51163
5.77629 12.7242 1.51314
-6.37223 -7.50461 1.06393
6.76786 11.519 1.47023
5.33465 13.3671 1.58841
-6.81543 -3.97492 0.871041
-6.68384 -6.06606 0.994378
3.93523 -7.79894 0.966947
5.45232 -6.1085 0.919947
9.41861 7.5823 1.35907
9.14261 9.72979 1.50573
8.00679 11.4043 1.55789
6.8483 10.808 1.45936
-6.86769 -4.56163 0.934858
4.7247 -7.70878 1.04461
-10.5433 7.06788 1.47228
-7.07636 -2.12903 0.859618
9.05875 6.11955 1.30071
5.97043 12.1858 1.60417
5.04724 11.6727 1.50042
4.77986 -5.87098 0.891088
4.12886 -7.91635 1.08552
8.36675 3.87536 1.15583
11.0172 5.49528 1.51327
4.63651 12.9011 1.70719
-6.14915 -5.37993 1.00199
-9.10442 1.29778 1.1457
8.30723 7.5979 1.42497
-6.42667 -5.31134 1.05442
7.84327 8.23797 1.46256
-6.87592 -3.56725 1.00275
4.97638 -5.97641 1.00404
5.02962 -5.43393 0.96546
8.44713 6.94994 1.44917
7.99206 7.90282 1.49561
-7.18951 -1.72061 0.995699
-7.0189 -2.20559 0.985556
-6.47687 -4.36697 1.03754
4.83838 -6.09889 1.03597
8.42713 6.38691 1.43839
-6.83876 -4.21115 1.08198
-6.04187 -4.43942 1.00817
4.95632 -5.54493 1.02126
7.42761 -3.52789 1.14453
8.3913 4.26031 1.33681
8.3562 4.59185 1.35306
-6.92868 -2.9024 1.07383
7.49567 -3.74109 1.19628
7.03059 -3.06108 1.08174
4.94838 -5.79744 1.10027
8.21139 -1.73749 1.21559
-6.94786 -3.25243 1.13754
7.41769 5.58948 1.39517
5.7858 7.47016 1.42749
8.00954 3.9248 1.36302
7.93185 4.20651 1.36518
5.46664 7.85 1.45477
5.11686 8.74079 1.5308
3.53768 9.67757 1.55535
-6.99678 -2.82208 1.14989
7.69727 -2.80019 1.25471
7.8628 -2.24072 1.2618
7.81225 -2.02107 1.24696
7.48525 4.21612 1.38545
7.09042 4.76778 1.40424
6.76342 4.92957 1.39186
5.40772 6.48045 1.40497
-7.19268 -1.35831 1.21161
5.0191 7.37111 1.48881
4.74988 7.27012 1.45831
-7.20632 -0.802727 1.21371
2.86853 -5.93511 1.11131
6.71784 4.09943 1.34482
6.52899 5.24471 1.42245
3.86312 7.99534 1.49102
-6.37126 -2.29784 1.14878
-6.2779 -2.67879 1.16376
3.77519 -5.24416 1.10022
-6.96265 -1.79295 1.25604
4.23857 -4.64574 1.10526
6.6825 3.51894 1.36413
5.0794 5.61852 1.38464
3.63529 -5.36509 1.18026
3.38029 6.77888 1.41297
6.51168 3.05568 1.36673
6.44314 2.7207 1.3355
-1.64933 -5.70767 1.14039
-2.17048 -5.76172 1.20027
6.26718 2.38275 1.3404
3.94107 -4.58277 1.20237
-2.96005 5.52432 1.33476
-3.58305 5.15342 1.3665
4.21043 -2.92878 1.20578
-4.24731 3.90069 1.40386
4.59119 -2.1892 1.2347
4.48317 -1.27051 1.15887
3.70832 -2.93525 1.23227
3.67801 -2.58421 1.19286
3.42366 -2.97669 1.22468
-2.32258 -3.61857 1.20728
-2.5008 -2.92862 1.1974
1.86637 -2.48411 1.12867
1.92817 -2.64218 1.19337
-2.03221 2.78758 1.30572
-2.07381 -1.46506 1.19723
-1.8271 -1.83247 1.30302
-1.97823 -1.1728 1.20964
6.92189 -6.93251 -8.90144
9.72567 -9.09689 -9.42561
9.28434 -8.96852 -7.69204
2.44285 -19.9977 -10.6992
3.68405 -9.32853 -4.52212
27.4155 34.0636 -14.6899
2.08702 20.7483 -6.18579
-21.7486 -30.2954 -6.96428
-27.6669 -25.7317 -5.82575
9.57521 -8.83413 -1.6284
8.81798 -8.68882 -1.24118
8.97078 -8.84794 -0.933955
19.4465 -13.7692 -1.30258
44.6478 -11.9924 -2.39306
-30.8648 -13.0535 0.337995
10.1459 6.98297 1.30773
-3.45738 5.25955 1.35038
8.00765 -8.26644 -10.3245
7.86866 -8.29333 -10.0636
8.40635 -8.49607 -9.89781
6.85984 -11.8413 -11.2424
8.00238 -8.26298 -9.09902
8.04307 -8.74454 -9.13037
6.23054 -14.1807 -11.6529
5.8829 -14.2088 -11.2598
9.12483 -8.86992 -9.3288
7.65757 -9.24142 -8.69825
7.88709 -9.14428 -8.63261
7.24242 -10.7297 -9.21079
10.2839 -9.36178 -9.74819
6.44854 -11.1129 -8.77801
8.20723 -9.11282 -8.22327
7.36587 -9.36166 -7.95043
7.99101 -9.23928 -8.03082
5.03876 -15.9737 -10.8046
-0.529068 14.3058 -9.18924
7.33414 -10.8325 -8.39109
7.6389 -9.17192 -7.63687
11.0609 -9.86903 -9.4106
7.08311 -10.9682 -8.13737
8.22763 -8.6369 -7.4103
0.104839 14.315 -8.72411
7.79189 -8.76277 -7.06463
11.5665 -9.8192 -9.155
9.0267 -8.95451 -7.51391
6.60464 -12.8942 -8.54551
5.53245 -14.0206 -8.85722
7.08219 -11.1425 -7.57797
5.12661 -12.8674 -7.77746
3.16465 -19.3077 -10.9702
6.64345 -11.1471 -7.27082
7.88937 -9.09329 -6.75058
12.2808 -10.2864 -8.95776
-0.494396 14.3433 -7.87774
9.75952 -9.56017 -7.49113
13.3914 -10.735 -9.25676
15.2507 10.4465 -9.93476
15.2004 7.46918 -9.05344
14.004 7.72175 -8.46085
11.4972 -9.9217 -7.8026
-0.0708293 15.2552 -7.719
2.36123 -19.4183 -9.882
10.7477 -9.63463 -7.26099
7.38225 -9.32351 -5.96559
14.2536 -11.3049 -9.15954
18.2732 -13.0656 -10.9281
18.8399 5.81741 -9.58269
2.65245 -19.4448 -9.53119
12.9561 -10.7026 -8.12462
15.5733 -11.8567 -9.49419
7.34669 -10.8291 -6.30185
15.1712 7.43747 -7.86584
7.13084 -10.9685 -6.097
6.25905 -10.6901 -5.73637
10.0505 -2.52203 -4.76462
17.5925 -12.8538 -10.01
-11.5165 16.5268 -9.1773
3.55445 -9.06402 -4.41031
-9.98042 16.3111 -8.58933
16.1734 7.31555 -7.94546
-10.9706 16.6856 -8.60837
-6.97481 6.76331 -4.18244
-6.40291 6.38571 -3.8476
1.20328 -15.4731 -6.59681
20.3995 21.1376 -12.3339
16.4142 -12.4048 -8.65023
15.3313 7.53481 -7.14124
-10.001 -1.09133 -4.17737
20.4127 22.2225 -12.3963
14.2574 7.8781 -6.63281
16.601 7.47779 -7.31715
15.181 7.81215 -6.85114
1.48975 -17.8972 -7.01296
18.9078 5.83418 -7.66026
19.8989 22.2095 -11.5389
0.764895 16.3509 -6.29118
-9.18197 -1.33171 -3.59441
0.705671 -23.7903 -9.05399
17.1228 -12.6645 -7.96547
14.3229 7.99841 -5.9327
0.533293 -22.2458 -7.84486
-3.9704 13.337 -4.88001
-10.3307 15.8732 -6.62544
-0.836926 -22.3002 -7.848
-14.5779 17.9876 -8.00401
-8.66604 15.6499 -6.13542
-4.90928 13.9723 -4.98956
1.27811 17.7939 -5.94773
-5.21511 13.8861 -4.88664
39.7398 -20.4187 -14.7477
12.6013 -10.4232 -5.26965
8.07038 -9.24591 -3.9319
7.44577 -8.84351 -3.5783
-4.11873 13.8504 -4.3445
11.6432 -9.87483 -4.60767
15.3188 9.64208 -5.18612
13.8073 -10.7814 -5.02592
-5.34594 14.2444 -4.27886
-13.0407 17.4999 -6.15604
15.9058 10.7516 -5.29049
-9.34415 15.6991 -4.85268
-26.1891 20.2832 -8.6482
-23.1241 19.4242 -7.81024
-6.92266 14.6908 -4.14946
-7.69598 14.9288 -4.09295
-25.201 19.8875 -7.82127
-3.20612 13.099 -3.22659
-11.3829 16.5139 -4.79112
3.12496 -9.59552 -2.38619
14.9522 7.97622 -4.00221
-32.3167 -25.3705 -9.63581
5.44597 -11.7411 -3.04863
51.0275 -12.3069 -12.1982
-6.85059 -33.5208 -7.86655
-9.42994 15.8132 -4.20617
15.2546 7.47492 -3.85002
-29.083 21.1443 -7.981
-11.5222 -41.2417 -9.40899
3.75365 -9.48307 -2.24577
43.7754 -11.092 -9.75483
-33.8221 -22.214 -8.62543
-14.3288 17.7797 -4.74009
14.8272 7.91959 -3.49287
-31.0377 -23.4859 -8.01332
9.37008 -9.2759 -2.73405
44.5584 -11.3279 -9.43032
47.4512 -10.0634 -9.78894
-27.5147 20.6514 -6.78441
-20.3846 -33.1363 -7.64977
5.57786 -10.4932 -2.2759
-32.2252 -23.2822 -7.51756
-33.639 -22.197 -7.52719
-14.2999 17.7756 -4.14184
15.518 7.60909 -3.04663
-5.07101 13.5273 -2.53939
-17.9518 19.2082 -4.64683
-20.4646 -48.7276 -9.21868
-21.5082 -34.6968 -7.04631
-32.6786 22.1395 -6.69478
9.20158 -9.0505 -2.19021
-30.0096 21.8604 -6.04163
-31.1434 -23.3996 -6.22134
-18.7725 -49.9657 -8.52752
43.8902 -11.1438 -7.22248
-42.5436 25.1278 -7.78561
-35.9518 -22.5081 -6.57798
6.50718 -10.9828 -1.99385
-28.3861 -25.3039 -5.74583
-29.7195 -24.3847 -5.76289
-18.9706 -46.7396 -7.4956
6.56602 -12.5757 -2.11791
-32.1539 -23.1245 -5.66926
-30.2155 -23.7857 -5.45763
-31.0261 22.213 -5.33639
-12.6149 17.0313 -2.88384
-31.9015 -23.8502 -5.39379
-29.325 -25.2288 -5.25153
-30.9793 -19.2662 -4.79091
-32.781 -22.5962 -5.25228
-32.2159 21.8512 -4.90527
-29.4801 21.9416 -4.49371
-39.088 23.0883 -5.58006
13.0985 -10.5906 -1.97509
9.79012 -9.16643 -1.54226
10.6439 -9.31211 -1.55767
-12.6421 17.0929 -2.23882
15.3099 -11.7731 -2.06148
-30.0608 -23.7735 -3.88694
47.3055 -10.0541 -4.83402
17.3904 -12.6889 -2.11891
43.6083 -11.7208 -4.25789
-30.7731 -63.1297 -6.22955
-22.5688 19.7474 -2.62781
-28.3642 -12.7292 -2.70159
7.02218 -10.7937 -1.13073
17.2998 -12.5004 -1.8481
-28.48 -25.4106 -3.22043
9.93057 -9.01671 -1.10715
13.8897 -11.0436 -1.42776
-33.0399 22.3999 -3.05335
-28.9061 21.6584 -2.6722
16.9939 -12.3959 -1.53697
-16.4337 -40.2941 -3.12114
7.40286 -9.1842 -0.860105
-23.8103 -54.6504 -4.10395
9.6529 -9.0928 -0.880101
9.77184 -4.75859 -0.685913
11.425 -9.89859 -0.952095
-14.0654 -38.618 -2.41973
15.4205 7.57448 -0.941854
14.8496 7.95072 -0.916874
11.9113 -10.1137 -0.80675
17.157 -12.8501 -1.02472
-12.1458 16.638 -0.991422
-33.6802 -60.1774 -3.31244
-25.2908 -50.6355 -2.71295
-24.3233 20.5634 -1.4447
-34.1169 -19.2513 -1.3177
-17.0803 -42.2743 -1.52048
-23.217 -53.693 -1.6923
-20.3477 -54.8859 -1.69768
15.7357 13.7289 -0.404128
11.736 11.4182 -0.308127
24.6879 30.145 -0.666454
13.3948 -11.022 -0.319876
-20.6759 -45.4065 -0.818352
-19.2127 5.56868 -0.105698
-31.9986 -61.4178 -0.369693
30.6136 -19.3113 -0.239837
18.903 -13.1356 -0.0244444
14.9876 7.75537 0.0336834
-51.6215 28.2643 0.369288
-30.8989 -12.9629 0.233234
6.60628 -12.3427 0.160088
11.5005 -10.0496 0.167022
-12.0687 -18.6392 0.294134
26.4663 -5.13679 0.764482
23.1103 47.3509 1.65242
-7.8006 -9.20392 0.417066
-29.9822 -14.2935 1.2505
16.8047 30.3233 1.49743
-10.6465 -16.6293 0.834331
15.1722 20.1349 1.15429
19.9007 38.8946 1.97475
17.5425 33.6343 1.77834
6.65295 -12.5971 0.67205
-6.92368 -8.41456 0.559671
16.0912 26.6143 1.6633
6.41377 -13.9702 0.796694
-6.71767 -4.5352 0.479294
-11.5345 -8.80523 0.858711
-7.47892 -10.3264 0.848284
11.1062 9.20115 1.02635
6.34554 -13.1631 1.0263
-7.13502 -6.3219 0.678999
7.14487 -10.923 0.929713
13.2526 20.6823 1.88284
-14.8006 8.27269 1.30296
11.0627 -4.94826 0.921442
9.54053 -8.954 1.04453
10.5669 12.719 1.49115
6.53322 -6.21619 0.835342
11.1493 9.21466 1.35916
6.59764 13.7291 1.45292
4.69829 13.0006 1.35095
9.89658 12.4253 1.59815
7.74097 10.5966 1.36854
6.74581 13.0735 1.56683
8.25655 -6.66413 1.11542
10.2494 9.69316 1.50765
7.22787 10.9049 1.40865
8.8976 9.45477 1.46834
4.75212 -5.86688 0.850365
9.9806 5.50437 1.30195
7.14182 11.3433 1.5631
6.02489 10.8223 1.46781
-7.0021 -2.09003 0.848233
8.55928 8.69763 1.44703
-7.16561 -0.814756 0.862769
-6.85641 -3.95229 0.940634
4.53222 12.5177 1.62123
-7.00645 -2.32418 0.889323
-7.42768 -0.982954 0.921504
-9.11313 1.33295 1.15092
8.41927 7.68631 1.44794
4.85108 -5.27668 0.936196
7.84183 8.27996 1.50056
5.73266 -5.60532 1.03688
-7.23723 -4.49326 1.14957
7.28893 -3.88361 1.1457
7.49094 -3.5522 1.15628
7.49406 -3.28212 1.14268
8.19814 4.17 1.31449
7.44841 -3.71891 1.18911
8.39612 4.61281 1.37165
7.73536 -3.03112 1.20538
7.95425 -1.92738 1.1771
5.76305 7.45025 1.42102
5.21942 -5.62541 1.17529
-7.11697 -1.82278 1.15028
-7.15875 -1.32522 1.15753
6.15941 4.47983 1.265
5.34322 6.42041 1.38361
-6.39483 -2.30859 1.13456
6.86227 4.21684 1.37053
-7.30645 -0.953361 1.24921
2.98792 -6.17395 1.15453
-6.94136 -1.76191 1.25841
4.00272 -5.11665 1.13035
-6.75099 -2.5759 1.2779
4.71199 -4.48377 1.1527
3.55165 -5.23576 1.16152
5.05469 5.5943 1.37792
-7.22269 -1.15343 1.33461
3.84954 -5.22851 1.20933
-7.02954 -0.806453 1.34188
6.35948 2.84513 1.34057
3.69469 -4.57454 1.13638
-2.24908 -5.37423 1.1702
4.95633 -6.45569 1.60326
3.81335 -4.42323 1.15589
4.16231 -4.33165 1.23042
-6.38429 1.47277 1.35892
-2.8589 4.78511 1.16785
-1.34287 -4.98976 1.14519
4.03977 -3.76148 1.22276
4.46645 -2.7596 1.21475
-4.42865 3.89792 1.37086
4.80565 -1.94134 1.24748
-2.70628 4.65025 1.26762
4.34482 -2.68051 1.23188
-1.0177 -4.21822 1.16751
-1.4293 -4.01169 1.18146
-2.14994 -3.81742 1.21673
4.01398 2.56536 1.33766
1.83876 -3.17286 1.2163
-2.0465 -2.43403 1.27361
2.57457 -1.81472 1.32027
2.47105 -1.91434 1.32089
-2.1709 -1.77996 1.21358
2.35884 -1.29916 1.19496
-2.00642 -1.49064 1.20333
7.78047 -8.32845 -10.0404
8.18784 -8.2136 -9.58933
6.76972 -11.8243 -11.1296
8.03753 -8.39271 -9.16475
8.08467 -8.95788 -9.12572
6.28311 -13.9622 -11.5169
9.08074 -8.91827 -9.33583
7.29372 -9.49371 -8.77943
7.40562 -10.9012 -9.36895
8.20334 -8.93476 -8.22563
8.96639 -8.98041 -8.42078
6.40613 -12.5542 -9.18069
5.24882 -16.1223 -10.9875
7.30394 -10.6433 -8.31254
10.6885 -9.71444 -9.27035
7.92687 -8.38306 -7.03843
0.105229 15.6076 -9.40247
12.2537 -10.3523 -9.67422
8.30933 -9.18771 -7.40412
-0.328747 13.2018 -7.68822
7.46391 -10.9111 -7.2818
7.86542 -9.04668 -6.62485
5.87518 -12.7269 -7.6398
15.1797 10.3006 -9.91174
13.8239 -11.0068 -9.54363
14.3025 7.93477 -8.58806
0.290131 14.7167 -7.72379
5.77245 -10.0664 -6.07155
10.6772 -9.68744 -7.2683
12.8756 -10.7461 -8.18239
15.5838 -11.7573 -9.49917
10.1 -2.54076 -4.74863
16.2972 7.48185 -7.93844
9.65777 -3.47172 -4.55752
14.8206 8.04467 -7.36028
20.3806 20.857 -12.2613
1.25197 -16.7334 -7.05452
14.2972 -11.3079 -7.71564
15.8049 7.50931 -7.33673
9.72606 -3.28354 -4.27387
14.3322 7.98187 -6.58991
15.7016 8.06353 -7.03014
17.3571 16.1868 -9.46522
-9.36011 -1.35639 -3.72492
0.615204 -24.9015 -9.71787
0.870188 17.0407 -6.63589
16.207 -12.1698 -7.76379
15.242 11.7093 -7.03467
10.5681 -9.54474 -5.15821
-0.367989 -22.9738 -8.15765
-0.851043 -25.4414 -8.85435
-4.00174 13.4559 -4.85238
-13.3802 17.5093 -7.59861
1.40086 17.8767 -5.94408
-5.05744 13.9326 -4.87527
7.44893 -8.49579 -3.70768
-18.4522 19.2658 -8.40158
-2.71793 -25.4158 -8.10184
-10.8296 16.6247 -6.22012
-4.1215 13.9019 -4.42602
3.85545 -12.6905 -4.00871
-5.36508 14.7603 -4.55401
3.60312 -10.5136 -3.21713
-3.70799 -26.4351 -7.21014
-22.7883 19.066 -7.90636
3.24274 -10.4637 -2.88242
5.08547 -9.76901 -2.84934
-26.1622 20.4271 -8.39986
-29.1319 21.2773 -9.16124
-30.1121 -42.5325 -12.6025
-9.33102 15.7508 -4.27458
-8.4103 -40.1489 -9.77898
-33.7822 -22.0893 -9.00713
-20.6413 19.5725 -6.23337
-13.8838 -39.4048 -9.12363
10.4224 -9.34072 -3.08637
-25.7621 -66.575 -14.891
44.4919 -10.9142 -9.49582
-27.3177 20.2109 -6.5606
14.9134 8.11579 -3.20353
4.7909 -7.16024 -1.60872
-4.80552 13.1673 -2.55432
-31.1823 -23.4016 -6.35548
6.83337 -12.9346 -2.26958
-20.8509 18.6363 -4.05495
-30.5167 21.7473 -5.30964
48.6475 -10.5587 -6.97912
-32.1078 -61.7916 -8.83539
-29.5487 22.1079 -4.46143
-41.5394 -81.6821 -9.8881
-33.7269 -21.9523 -4.19924
14.935 8.15013 -1.69592
-21.8965 -59.1637 -5.6058
-22.692 19.8557 -2.41374
-29.7358 22.3604 -2.66503
44.5035 -10.9197 -3.38527
-21.6733 -49.2146 -3.75155
8.11229 -11.4392 -0.919991
7.25813 -9.13816 -0.759723
17.1797 -12.5688 -1.39309
15.1152 8.21894 -1.01924
30.1758 -19.4491 -1.96701
15.2171 7.81593 -0.597569
-22.0582 -49.1613 -1.24281
-17.3121 -47.1819 -1.14461
-22.3356 19.8447 -0.528973
-35.1995 -20.8204 -0.336687
-37.3086 -24.5993 -0.251164
9.64888 -9.07311 -0.108117
20.0986 -13.7973 -0.187414
15.8359 8.1361 0.135517
-30.6886 21.7094 0.362856
25.6208 -5.03354 0.889338
-6.41887 14.1862 0.616508
16.4359 10.4105 0.884734
11.0411 13.169 0.734266
14.4614 19.1996 1.09629
6.8018 -12.8857 0.65636
7.53934 -10.8417 0.572525
6.33854 -10.4175 0.595871
16.5101 26.6583 1.6503
-7.26027 -7.98566 0.546642
-6.62127 -7.98318 0.534449
10.4012 -9.50484 0.765673
9.34803 18.6459 1.39396
-7.27057 -10.1699 0.895666
10.6688 -4.80962 0.837623
-14.1782 7.81208 1.25762
6.72956 -11.7822 1.06386
-6.1828 -4.2486 0.674226
-7.38803 -7.8334 0.92493
6.58248 13.6374 1.37787
9.75449 9.22587 1.27741
7.26434 11.06 1.38105
7.53686 12.9644 1.54526
8.12903 -6.55279 1.10567
-8.97545 1.35783 1.10478
7.02333 -4.52766 0.995842
7.41665 11.8906 1.71705
5.53451 -5.5035 0.985396
-7.34765 -0.913205 0.937656
7.22433 5.68925 1.23004
4.97795 -5.5171 0.989779
9.31206 -3.13632 1.31455
-6.9162 -4.27517 1.11954
7.14726 -4.34734 1.14059
7.66883 -3.56523 1.16047
-6.9606 -1.72238 1.02976
8.84712 -2.09257 1.27242
7.65583 4.97519 1.30426
-6.41001 -2.14866 0.994249
5.20909 -5.49189 1.15652
6.00905 5.14904 1.26663
7.93058 -2.17213 1.28892
3.85824 -6.19036 1.17931
4.68803 7.17403 1.4227
-7.33931 -0.91976 1.21721
-6.34829 -2.31182 1.12622
-6.50203 -2.70649 1.18784
6.9494 4.28109 1.39391
4.20611 -4.63937 1.11384
-7.17162 -1.1416 1.34285
3.58223 -5.28614 1.19218
4.15068 -5.6106 1.33856
3.7273 -4.32758 1.16238
3.9218 -3.6073 1.16881
4.47314 3.78756 1.36384
3.64781 -2.86001 1.19985
-2.20101 -3.87531 1.21019
4.05821 2.55109 1.35818
-2.37828 -2.98392 1.1769
-2.26761 -2.53218 1.10878
17.6642 -12.8962 -10.006
12.1828 -10.1585 -7.01342
0.532422 -21.9405 -7.72341
22.7091 28.6592 -12.2732
-32.9661 -24.9922 -8.75095
45.1201 -11.1048 -7.4439
29.9017 -10.0612 -3.97101
46.0578 -11.3677 -5.58271
6.53406 -6.64378 0.288315
9.48572 8.42048 1.45757
5.80464 11.8545 1.67847
-7.06288 -1.92737 1.0905
7.69484 -8.10963 -8.76092
6.39323 -13.9894 -11.5939
5.97245 -10.8476 -9.24745
6.7714 -10.7474 -9.41493
7.44716 -10.8045 -9.28353
10.0251 -9.22487 -9.62674
