ply
format ascii 1.0 
element vertex 1864
comment /media/mkaihara/Seagate Backup Plus Drive/model_iterations/model_56.ply
property float32 x 
property float32 y 
property float32 z 
end_header 
38.0811 -8.12845 -2.00727
-41.9391 -79.9507 -4.44442
17.95 -12.9237 -1.07469
-27.6844 -13.8926 -1.47537
-16.5874 -41.13 -2.04559
-26.4476 -16.4205 -1.34146
-37.4709 23.5368 -1.59489
44.0939 -9.51649 -1.5438
-30.8824 -14.1761 -1.03955
-27.4785 -59.0071 -2.00507
-12.9653 -37.6596 -1.22858
-32.3242 -24.3704 -1.2135
-26.4975 21.624 -0.92414
36.0753 -8.5714 -1.00506
-35.414 -22.004 -1.02023
-35.0652 -22.178 -1.00849
-34.6692 -68.9329 -1.76868
-19.0091 -43.4308 -1.00385
-35.3562 -22.1778 -0.789968
16.9242 -12.3883 -0.403588
-34.8452 -22.035 -0.564976
17.0478 -12.4822 -0.243313
13.133 14.9406 -0.207047
-33.9954 -22.6742 -0.396705
11.1435 -9.62682 -0.132495
-36.1771 -21.0116 -0.348902
-28.8194 -8.67244 -0.125234
-29.4644 -9.45129 -0.0846016
11.5103 -9.95556 -0.00321102
-12.9702 -19.9657 0.0347815
42.2337 -9.36817 0.132053
9.09876 -8.89532 0.104031
15.0948 -11.5316 0.152293
11.3386 -9.79993 0.139566
13.3003 -10.6896 0.179092
18.1717 -13.0389 0.217079
-27.7362 -13.4379 0.33985
-33.4814 -22.2457 0.461859
-34.9104 -18.7429 0.45053
-35.8457 -22.0749 0.523899
-13.6409 -20.7076 0.285163
-12.8351 -20.1413 0.316678
-13.3194 -19.9518 0.343677
15.0292 -11.5269 0.279345
-30.2386 -13.0842 0.580614
-36.6294 -19.7288 0.804227
-14.1238 -22.1616 0.522974
-30.4033 -13.3364 0.701721
-35.9898 -20.0381 0.839371
18.2123 -13.0726 0.468506
10.5086 -9.241 0.298919
10.4155 -9.24741 0.345916
-8.22088 -9.75327 0.36025
10.536 -9.27931 0.416857
13.5321 -10.8084 0.535973
10.378 -9.46092 0.461762
13.2421 -10.6724 0.561333
-9.26344 -13.0748 0.595954
10.5199 -9.47736 0.528038
13.2356 -10.6058 0.668972
-30.3387 -16.9262 1.40483
-32.2278 -18.638 1.51416
9.54931 -9.1215 0.558037
-29.1336 -17.3949 1.48631
22.5807 44.7662 2.22428
9.61599 -8.95436 0.583122
10.4856 -9.38777 0.667896
12.2995 -10.2705 0.749365
-6.145 6.61497 0.44655
-6.88068 -8.16993 0.535169
-7.1392 -9.26347 0.576031
-28.3574 -11.1864 1.59776
-6.83863 -8.47159 0.562304
11.909 11.7541 0.889501
16.5295 24.682 1.57798
15.9576 24.1636 1.52235
8.88967 -8.63814 0.665647
8.67198 -8.58036 0.671595
14.7801 25.3575 1.63179
-28.6908 -8.60451 1.67051
-7.53499 -8.02991 0.619178
10.3989 -9.38407 0.805221
-6.76876 -8.21414 0.637787
-6.72874 -8.45313 0.649765
-7.56973 -7.96505 0.681784
-6.90562 -8.23703 0.672994
9.56186 -8.89099 0.8178
10.4781 -9.37396 0.882296
10.4958 12.2705 1.05098
-7.34126 -9.51062 0.792461
12.5286 19.0212 1.53781
13.0634 20.8526 1.65657
9.23055 22.9582 1.72283
-7.10296 -8.3085 0.758599
-7.10681 -7.62422 0.740873
9.52412 -8.86096 0.923444
11.3606 11.9434 1.22129
11.801 16.7759 1.54344
12.5804 11.5089 1.31103
12.8553 11.4502 1.34162
12.2601 11.5606 1.31247
12.0382 11.6896 1.32906
-7.22275 -9.38525 0.93873
11.6036 11.9416 1.34112
-7.36839 -6.13944 0.75827
-7.06273 -8.10306 0.865339
-6.76378 -8.30938 0.863029
-7.27471 -6.25052 0.764242
9.25658 -7.58539 0.991919
-7.3648 -8.10877 0.9122
-7.39462 -9.89848 1.0325
-7.29026 -7.8775 0.902742
9.19438 -6.96578 0.976826
11.6465 11.9176 1.41723
-6.35991 -4.3353 0.659121
-7.0803 -8.36333 0.944359
-6.8368 -8.41422 0.963175
8.99381 -6.85946 1.00911
8.21418 -7.13271 0.97828
5.93394 -5.90862 0.773302
10.8209 11.1002 1.48538
-7.0302 -5.73156 0.866067
10.7731 9.30862 1.38414
-7.16376 -5.7161 0.893922
7.73844 -6.57124 0.999131
11.0675 9.83046 1.46382
10.9215 9.09115 1.42771
9.59294 11.5413 1.5033
-6.50577 -6.50096 0.922026
-6.87155 -4.51488 0.832693
-6.97621 -7.3154 1.02423
10.7806 9.09046 1.45925
10.1338 9.46065 1.42163
9.30288 10.1207 1.43669
-6.85626 -4.45535 0.86155
-7.13861 -5.67358 0.975147
-7.10994 -5.71337 0.973983
-6.91659 -4.62831 0.908532
-7.06105 -5.50319 0.973214
8.69737 10.2838 1.4967
-6.89492 -3.42916 0.86303
-6.96792 -4.34724 0.915951
-6.84144 -3.48918 0.862618
-6.88451 -3.57349 0.869671
-6.89076 -4.23155 0.909662
-6.91181 -4.40234 0.924962
-6.91175 -4.488 0.927672
8.75198 8.81995 1.40749
-6.94938 -3.85185 0.911317
-6.91394 -4.06917 0.909113
-6.91342 -4.15284 0.91682
5.84991 -5.77671 0.950229
-6.92618 -3.41482 0.899793
-6.93729 -4.37057 0.951419
-6.90691 -4.44213 0.953048
-6.90044 -2.82857 0.874434
-6.88212 -3.61549 0.910108
-6.96684 -4.13311 0.953163
-6.91337 -4.20191 0.947875
8.52216 8.06062 1.39213
-6.91614 -2.98147 0.908521
-6.89453 -3.96847 0.955316
-6.87767 -3.65451 0.945567
-6.92134 -4.12499 0.986669
-6.90716 -4.30862 0.997955
-6.46844 -5.35814 1.02682
6.0057 -5.95476 1.03351
-6.90599 -3.75062 0.974261
-6.9043 -3.91526 0.985825
-7.01 -4.73906 1.05556
-6.93362 -4.38664 1.03539
-6.86612 -3.47727 0.975
-7.07693 -2.16946 0.945882
-6.88317 -3.08137 0.967383
-6.90186 -3.15894 0.97656
-6.14444 -5.48588 1.07331
-6.92297 -3.22932 0.998853
-6.37909 -4.36196 1.01804
-6.79531 -3.78294 1.03061
-6.88221 -4.18321 1.06859
-7.04809 -2.13426 0.983669
-6.99848 -2.33489 0.992596
-6.90544 -3.26533 1.02032
-6.90473 -3.53814 1.03858
-6.91237 -3.39234 1.05172
-7.02948 -2.16039 1.02187
-6.92858 -3.17843 1.05537
-6.89855 -3.26207 1.05494
-6.84635 -3.64846 1.07075
-6.90208 -2.94439 1.04879
-6.86764 -3.40931 1.07007
-6.88294 -3.75311 1.10277
-6.93198 -3.23484 1.08173
-6.00269 -4.49006 1.06656
-6.88677 -3.58324 1.11491
7.69656 6.34814 1.4423
5.20759 8.35065 1.42385
-6.89044 -3.4915 1.11832
7.30095 -3.52296 1.17678
-6.88242 -3.27798 1.11222
-6.87892 -3.38967 1.11831
-6.86266 -3.19919 1.11388
-7.16264 -1.75272 1.08679
-6.91394 -2.94085 1.11579
-6.91941 -3.0282 1.12027
7.13284 5.61545 1.40579
-6.37473 -2.28419 1.05044
7.06557 5.17544 1.39796
-7.01117 -2.40977 1.19261
-6.46076 -2.81952 1.14975
3.79489 7.95298 1.45299
-6.3084 -2.26088 1.1124
-6.47708 -2.28903 1.17015
-6.14679 -2.27944 1.14183
2.56534 7.41635 1.48883
7.83662 -8.52731 -10.1799
7.96407 -8.81031 -10.3942
7.69574 -8.75416 -10.1424
8.19561 -8.32765 -10.0088
6.94432 -11.4701 -10.9868
8.1475 -8.27484 -9.52848
6.94835 -11.8859 -11.1788
8.02523 -8.41203 -9.24003
7.97037 -9.16581 -9.45717
8.24073 -8.70071 -9.31842
7.85868 -8.98623 -9.10518
8.30107 -8.71012 -9.13026
6.3228 -13.9777 -11.451
7.48996 -9.42188 -8.99601
7.92669 -9.0823 -8.92516
6.21959 -14.3411 -11.5137
6.26237 -12.8649 -10.515
9.23238 -8.83556 -9.35794
9.21723 -8.99159 -9.3719
5.9595 -12.7223 -10.1948
5.8967 -13.094 -10.2833
9.36492 -8.9927 -9.29007
9.22089 -9.03445 -9.1699
6.91595 -11.198 -9.33711
5.60921 -12.949 -9.98669
6.50875 -10.998 -8.79041
8.45283 -8.8377 -8.35306
11.7643 -9.98273 -10.3579
8.24876 -8.63285 -7.90271
7.43774 -9.27857 -7.84304
8.2541 -8.7902 -7.95479
9.16933 -8.79297 -8.36467
7.61199 -9.33343 -7.86713
12.1085 -10.1127 -10.2679
4.66692 -15.7987 -10.6518
9.18947 -8.83023 -8.19573
5.01222 -15.3607 -10.4166
7.76482 -9.31113 -7.76067
8.25878 -8.48031 -7.56934
0.351964 15.6944 -10.0122
4.74 -15.1361 -10.0984
10.8984 -9.58467 -9.22998
7.924 -9.08639 -7.64149
8.17067 -8.5043 -7.44286
4.72208 -15.7723 -10.3436
-0.393503 13.607 -8.51198
8.84595 -8.81184 -7.71109
4.22731 -18.6846 -11.831
7.92687 -9.06566 -7.4353
8.27751 -8.58092 -7.36255
4.26338 -15.4134 -9.79514
8.22926 -8.65138 -7.30106
4.25079 -18.1636 -11.3776
0.154556 15.0633 -9.17561
3.75958 -17.8597 -11.0464
4.17767 -15.7684 -9.86392
7.05577 -10.8335 -7.75969
8.0621 -9.22135 -7.3579
4.19947 -16.5854 -10.1967
8.30211 -8.67843 -7.15543
9.42117 -9.0116 -7.76986
7.02486 -11.0781 -7.80193
7.73913 -9.27611 -7.17082
9.07205 -8.82515 -7.50025
8.00833 -9.17628 -7.12763
8.59043 -8.78455 -7.17226
9.7104 -9.16641 -7.78376
6.77947 -13.3465 -8.64213
9.25565 -8.98679 -7.45097
5.80179 -13.3847 -8.4196
6.89329 -10.8805 -7.42411
9.57043 -9.11877 -7.52793
11.9528 -10.2515 -8.89086
10.8008 -9.49283 -8.08979
6.89058 -11.1171 -7.34219
9.15188 -9.09689 -7.23653
9.2674 -9.03467 -7.23721
12.6288 -10.5421 -9.18916
4.65693 -14.3796 -8.44934
10.2127 -9.39815 -7.75876
8.53807 -8.71698 -6.79232
2.74437 -17.3144 -9.67124
14.7816 7.56 -9.0778
2.7095 -19.8698 -10.9079
2.42703 -8.79618 -4.94908
2.97535 -19.8875 -10.8659
14.7521 7.68354 -8.93284
2.36339 -20.1904 -10.796
10.9714 -9.62216 -7.76358
9.79359 -9.04495 -7.06055
14.9433 7.49859 -8.84878
2.36252 -8.81423 -4.82305
1.65607 -19.8031 -10.2647
2.38609 -20.8417 -10.7603
13.9528 -11.1485 -9.15265
-9.29162 -2.60412 -4.91223
11.3525 -9.83116 -7.62779
2.17243 -20.27 -10.2742
0.852867 17.5149 -8.72101
11.0068 -9.6566 -7.30014
-8.86381 -1.94981 -4.45195
2.21092 -20.2092 -9.98237
3.8545 -9.19476 -4.89732
11.2711 -9.67171 -7.27153
1.99604 -19.8955 -9.77374
-8.39511 16.1099 -8.80888
2.50421 -11.2043 -5.49342
1.99534 -21.1144 -10.0993
0.631656 17.0503 -8.0803
14.907 7.62007 -7.90496
17.3702 16.2689 -11.2569
17.7295 16.9877 -11.4093
14.3646 -11.3593 -8.49256
9.81254 -2.61201 -4.7073
17.3017 16.2844 -10.9797
9.75996 -2.47029 -4.65802
-10.2726 16.8666 -9.00237
-9.56471 -2.07242 -4.43857
9.86172 -2.60935 -4.63076
10.193 -2.40027 -4.74373
9.76826 -2.97983 -4.62276
-5.39353 4.44615 -3.1514
8.09186 -8.32834 -5.23613
17.8691 17.4114 -11.2031
17.7394 17.5828 -11.2288
19.2194 5.84655 -9.01283
7.14614 -10.9075 -5.80982
20.3517 5.3435 -9.35022
9.56819 -3.424 -4.51872
-9.92878 16.3195 -8.48333
-5.34403 4.89721 -3.21114
19.3219 5.58196 -8.89122
-11.3295 17.2723 -9.0905
18.0148 17.8687 -11.1264
-6.54935 15.0144 -7.19141
9.59561 -3.60215 -4.46699
20.0903 5.44445 -9.02562
18.1573 18.4221 -11.1528
17.9491 18.5718 -11.1329
14.8737 7.61187 -7.12255
3.86102 -9.35272 -4.28931
-11.2699 17.1439 -8.66953
-13.4691 3.29901 -5.84574
1.2653 -21.4768 -9.01541
3.25225 -10.1933 -4.47662
14.1932 7.64532 -6.74139
18.7339 19.5567 -11.3299
3.86846 -9.18292 -4.15002
14.8192 7.72677 -6.93354
18.4098 19.625 -11.175
14.0284 7.74887 -6.59168
4.00049 -8.47154 -3.84093
6.77903 -10.8608 -5.24442
-13.4012 2.52074 -5.58137
14.9786 7.50712 -6.83007
-8.03805 15.5516 -7.1176
1.19039 -10.6044 -4.3344
0.757742 -21.7434 -8.81149
-12.9613 2.34762 -5.29994
-9.31483 -1.43819 -3.76325
-5.07289 5.62938 -3.00459
2.83457 -11.7567 -4.77042
14.2123 -11.213 -7.07759
4.10095 -9.45468 -4.03984
1.52297 19.1535 -7.46688
3.94557 -13.1669 -5.31422
19.0076 5.81077 -7.66083
0.882889 -26.2142 -10.0152
4.75055 -8.67702 -3.75509
11.7286 -10.1543 -5.89537
19.3673 5.57691 -7.64029
20.1862 23.9319 -11.6929
19.9596 5.42087 -7.71768
20.482 23.8733 -11.7222
3.26568 -10.8543 -4.22931
-13.1028 17.6466 -8.11001
11.896 -10.0955 -5.73708
20.3528 5.19581 -7.70127
21.0791 25.2 -11.9356
-8.17614 -2.81921 -3.13334
19.2881 5.72226 -7.24409
2.28279 -13.2405 -4.83442
0.8109 15.7805 -5.66394
-4.29656 14.0052 -5.22396
-8.23011 -2.8024 -3.10216
6.74406 -10.5315 -4.44025
-16.0406 18.5347 -8.6656
15.9694 -12.059 -7.08987
-11.1297 16.7791 -7.03913
19.3302 5.89346 -7.01809
3.71886 -8.67324 -3.25501
-8.83584 16.0685 -6.24008
2.99135 -13.497 -4.71548
18.9435 -13.551 -7.96875
34.1168 -21.1374 -13.6416
-14.9815 18.3533 -7.99702
20.0728 5.45397 -6.9742
37.0092 -20.8994 -14.1946
40.6409 -20.0013 -15.097
16.4523 7.37971 -6.00737
3.45286 -10.274 -3.61408
1.3486 -10.9243 -3.63864
-6.28459 14.9938 -5.30275
-12.7367 17.4697 -7.03708
15.7787 -12.1262 -6.47454
6.04785 -9.85357 -3.71627
3.34334 -10.1442 -3.4252
-1.1347 -23.7756 -7.60259
2.32553 -11.0326 -3.59192
3.23556 -10.0705 -3.35209
2.82781 -9.04436 -2.98849
13.6329 -10.7799 -5.46296
-18.0084 19.4664 -8.30387
-8.7062 -2.6518 -2.85055
28.6597 -15.7208 -10.2557
1.36809 -21.4676 -6.64253
19.7753 25.603 -9.75132
3.22684 -9.8771 -3.13289
3.45174 -8.98125 -2.89605
-14.4022 18.0131 -6.89974
-21.4388 19.9935 -8.68276
-7.97339 15.5058 -5.13038
4.77874 -12.0044 -3.78515
4.15388 -8.92991 -2.89549
2.07822 20.5508 -6.06571
-4.34982 14.6299 -4.47155
4.06038 -8.9651 -2.87765
-15.3231 18.4357 -6.91324
-32.3892 -46.2858 -16.1603
7.14013 -11.1181 -3.76987
2.54606 -9.48007 -2.78305
-8.40639 -2.20199 -2.44991
4.44198 -11.0258 -3.35151
-2.4639 -24.8495 -6.9975
-9.29679 16.032 -5.10431
4.36404 -11.2611 -3.3299
8.58111 -8.36998 -3.29389
-13.1156 17.4753 -5.98095
45.5287 -15.0949 -13.0756
-8.72513 -2.44052 -2.45324
-24.4925 20.5572 -8.64946
3.24728 -9.98125 -2.83675
3.39952 -9.98655 -2.8495
-4.25726 -30.6045 -8.29612
-26.9008 20.6314 -9.03712
42.6147 -14.0598 -11.86
45.8999 -13.2869 -12.643
-8.54666 -38.4673 -10.3822
-8.31421 -39.2062 -10.5643
-14.4859 18.1532 -6.02728
9.84092 -8.94925 -3.47671
11.3176 -10.0495 -3.93194
-10.6628 16.6382 -5.11266
-4.28593 -28.0946 -7.38335
3.2627 -9.8639 -2.68598
3.52082 -10.3024 -2.81767
-26.3159 20.8625 -8.61386
4.27756 -11.0547 -2.9992
4.40392 -9.68201 -2.68311
9.47389 -9.16192 -3.32246
6.91229 -11.3577 -3.33713
-27.2962 21.062 -8.61441
43.8911 -12.776 -11.4067
-11.5462 17.012 -5.10284
11.809 -10.1691 -3.85206
3.36603 -10.2387 -2.65218
-24.6022 20.6664 -7.8604
9.97071 -9.00455 -3.23236
-7.86585 15.3459 -4.13979
4.05074 -11.9681 -3.0447
15.0753 7.57174 -4.03689
3.38228 -11.1166 -2.786
3.16628 -9.87517 -2.47175
-6.75616 -38.6405 -9.33591
-11.2207 -43.1033 -10.5602
3.96861 -9.09214 -2.34662
-28.9899 21.665 -8.55009
14.8855 7.61866 -3.91619
-9.46061 16.3429 -4.43521
3.92776 -11.3247 -2.82174
-12.8634 17.538 -5.08313
-26.5219 21.045 -7.86296
3.48043 -10.3104 -2.49547
11.0377 -9.47596 -3.35718
15.6469 -11.7956 -4.48894
-37.5696 26.5824 -10.5247
-12.5555 -43.709 -10.3654
10.9072 -9.53689 -3.31461
-11.8374 -42.5457 -10.019
-6.16722 -31.2747 -7.25415
40.6525 -12.5679 -9.64246
-27.1336 20.9617 -7.73654
14.6996 -11.4074 -4.18404
-30.8739 22.4268 -8.56315
4.44619 -5.80076 -1.64059
5.29306 -9.17559 -2.37029
-28.2896 -72.9805 -17.3072
-9.66626 16.1825 -4.15205
-13.0276 -44.7374 -10.2525
4.10559 -9.77445 -2.33326
13.4498 -10.8496 -3.81008
4.00719 -9.17566 -2.20203
41.0289 -12.1334 -9.37024
-23.5742 20.5492 -6.82018
3.39264 -10.0954 -2.28549
4.39708 -9.89807 -2.34366
14.9594 7.51964 -3.59667
-29.0303 21.7221 -7.79434
-21.2989 -33.7687 -8.57765
-8.36458 -35.4264 -7.7855
-24.5007 20.6644 -6.82981
-31.1511 22.6262 -8.19398
3.24789 -9.92958 -2.22966
4.87176 -8.85994 -2.14426
14.7721 7.71352 -3.52691
4.2313 -10.4922 -2.40768
41.7019 -10.8677 -9.13265
-10.5626 16.5464 -4.14173
4.33693 -9.14552 -2.12315
3.15197 -9.12502 -2.00047
5.15613 -9.04574 -2.18154
14.7775 7.43581 -3.44652
-38.2007 25.1552 -9.5211
-27.258 -25.2744 -7.68381
3.02464 -9.46469 -2.06552
-28.7495 -30.3164 -8.60852
-19.8626 -31.0145 -7.58381
3.85338 -9.32836 -2.08268
3.73647 -8.73411 -1.94984
-15.6592 18.5174 -4.96401
-24.8919 -65.9793 -14.4747
3.98726 -8.7795 -1.97186
-13.9775 3.05782 -2.9234
-33.552 -23.7124 -8.37843
-27.6498 -76.3762 -16.5344
-11.3069 -36.4115 -7.7538
43.8611 -9.57899 -9.11965
14.9304 7.62766 -3.35939
-17.7891 -23.5656 -5.93332
12.341 -10.085 -3.20514
-18.9204 -54.1258 -11.4436
4.18094 -10.7567 -2.30186
-12.0622 17.2967 -4.1892
-26.2231 20.6336 -6.61436
-35.4753 -21.0009 -8.19591
-32.2176 -25.1611 -8.10163
-9.21841 -35.7356 -7.34868
14.5307 -11.4561 -3.66624
4.02946 -9.8237 -2.09318
3.22492 -9.85774 -2.03338
-35.6818 23.577 -8.31134
-23.222 -55.9153 -11.7025
-15.9905 -46.172 -9.31874
3.48786 -8.90496 -1.83162
-20.2494 -32.7954 -7.31782
-32.0149 -24.9856 -7.65755
-29.052 -25.7973 -7.31373
-21.9875 -54.3336 -11.0889
3.88517 -9.08981 -1.88273
-16.7058 -45.5646 -9.08247
3.4414 -9.21979 -1.81706
-32.487 -24.2479 -7.37988
-31.2923 -26.8307 -7.51255
-33.0378 23.2596 -7.2835
-20.2538 -50.1106 -9.64381
-31.2725 -25.1917 -7.06306
-24.352 -63.0527 -11.907
-34.3055 22.8296 -7.21546
-16.588 -46.7779 -8.70263
3.40334 -9.56668 -1.77484
14.0911 7.8205 -2.79472
-35.07 24.0316 -7.37384
-28.8972 -25.3272 -6.68312
3.47389 -9.51431 -1.75656
4.79808 -8.65703 -1.71531
-26.9021 21.121 -5.91067
-30.7771 22.3847 -6.56407
-31.0558 -28.6047 -7.28545
3.88832 -10.0062 -1.85236
13.9418 7.5158 -2.72143
-23.642 -54.3226 -10.0754
-20.6762 19.6727 -4.81595
-31.5247 -25.0567 -6.82868
-19.7667 -49.0076 -8.96048
5.60711 -11.7487 -2.19821
42.2674 -11.9377 -7.44604
-18.229 -48.6513 -8.7471
41.3899 -10.769 -7.19431
4.99982 -10.7291 -1.9706
6.68926 -11.1149 -2.1917
-10.364 16.4776 -3.15842
-30.3453 -23.4901 -6.25369
42.6526 -11.4544 -7.18713
-22.1518 20.1227 -4.85436
-20.4472 -50.5865 -8.66541
-22.9432 20.1728 -4.81888
-24.1599 20.5958 -4.93952
-32.9615 23.2186 -6.23817
3.81344 -10.1014 -1.65931
-32.1144 -24.831 -6.20508
-13.7929 -41.6113 -6.73411
-31.127 22.6527 -5.85245
-22.776 -54.8159 -9.03987
-7.65101 15.4929 -2.6055
-33.3624 -23.4457 -6.1437
-32.6333 -23.9914 -6.1373
-27.7958 -26.0798 -5.73612
-33.2222 -23.911 -6.13945
-31.3853 -25.1233 -6.0098
-34.8156 -23.2542 -6.21508
-24.8636 20.8718 -4.78578
-33.1434 -24.8022 -6.10065
-32.1154 -24.3201 -5.9491
-25.5312 21.0386 -4.83996
-12.515 -41.473 -6.35022
-12.6031 17.2401 -3.07663
-7.66528 15.3357 -2.445
3.50629 -9.55406 -1.44814
38.5021 -12.6627 -5.76487
-33.4784 -24.6612 -5.88223
-30.6269 -24.3412 -5.50595
-30.104 -25.3906 -5.54576
-20.5373 -49.485 -7.46642
-6.83179 15.138 -2.25483
-13.9898 17.8741 -3.07921
-11.7141 -41.0054 -5.8073
-7.41084 15.0198 -2.24919
-24.26 -63.1536 -9.15358
-22.3948 20.3663 -4.03159
-24.6579 -55.8897 -8.11727
-31.3516 -24.2018 -5.22812
45.4532 -10.4739 -6.13413
44.8176 -9.85236 -6.04505
-13.4275 -41.7289 -5.76149
6.63121 -10.9288 -1.68133
-15.0032 18.3767 -3.08764
-22.8031 20.0841 -3.93929
-32.6521 -24.3762 -5.24599
10.7254 8.79679 -1.79062
-33.6536 23.1398 -5.24396
-29.7025 22.6022 -4.7052
-30.9693 -24.2466 -4.96213
-12.762 -36.3098 -4.86684
9.66286 -9.04363 -1.65157
12.7817 -10.446 -2.07827
-33.7767 23.6947 -5.15936
-36.1043 -22.493 -5.29802
-30.6317 -25.3186 -4.93825
6.77191 -10.2991 -1.53839
-32.959 -23.2964 -5.00164
-13.588 -42.3924 -5.47601
13.1744 -10.9827 -2.10555
41.8717 -10.8826 -5.34196
-16.175 18.621 -3.01503
-15.9192 -38.586 -5.10288
-8.74249 15.6294 -2.1813
43.7555 -10.0794 -5.43698
15.0028 7.83184 -2.03266
9.40741 -8.92634 -1.54821
-33.761 -23.5554 -4.88165
-17.8522 19.4027 -3.08533
-20.7748 9.19343 -2.69211
-31.7591 -24.5873 -4.73719
-25.6399 -58.0911 -7.46104
11.278 -9.7018 -1.7419
42.2239 -11.3035 -5.14686
14.6931 -11.4086 -2.13826
14.9293 7.67395 -1.90842
-29.9213 22.755 -4.28854
7.25984 -11.0244 -1.49805
-10.2492 16.3641 -2.16267
9.43924 -9.30582 -1.47561
12.7607 -10.4808 -1.84142
13.9573 -11.0164 -1.97799
9.44284 -9.10637 -1.45607
7.05011 -10.4404 -1.3801
44.7353 -9.77033 -4.98413
-10.8996 16.373 -2.1212
-33.1737 23.3923 -4.4086
11.7005 -9.83039 -1.65024
6.17296 -12.6941 -1.48493
7.54855 -11.5547 -1.43639
9.83607 -8.89488 -1.39531
-15.3318 -44.3041 -4.91577
16.5419 -12.25 -2.15895
-30.483 -61.2417 -7.09662
14.8718 7.48865 -1.70176
-31.0576 -24.7516 -4.07969
13.8115 -10.9279 -1.80507
-31.8194 -24.6132 -4.07056
14.8594 7.7637 -1.68439
-12.6655 16.9379 -2.07854
-20.3332 -51.5535 -5.37076
-32.6377 -65.9316 -7.04394
-23.4056 20.4745 -2.93825
-30.9164 -25.327 -3.79939
-30.8941 -25.6622 -3.82811
-21.6192 -56.5711 -5.7111
-14.0749 18.0104 -2.13983
-31.1804 -24.394 -3.695
-15.6671 -42.6736 -4.23533
-13.8799 -43.1408 -4.22782
9.80624 -9.08923 -1.24255
-33.1875 -64.6474 -6.6957
8.55128 -8.64842 -1.1044
16.4748 -12.2753 -1.8798
-14.9743 18.3691 -2.12634
-35.7973 -22.2652 -3.81527
-33.1216 23.3853 -3.57142
-30.9762 -24.9906 -3.51754
14.0213 -11.1519 -1.59053
-32.1084 -19.5663 -3.20848
11.0336 -9.68294 -1.25011
-26.6561 21.6221 -2.88317
-11.3295 -35.2618 -3.13044
9.38471 -8.99842 -1.09174
-33.8417 23.2674 -3.41261
8.67413 -8.67573 -1.00779
16.7375 -12.2068 -1.69241
-16.6721 -43.3222 -3.7312
-21.3883 -48.9265 -4.18039
-15.2601 -37.673 -3.22228
-13.2832 -37.2697 -3.14399
9.18799 -8.92895 -1.00671
11.2683 -9.76826 -1.16925
14.8387 -11.6064 -1.49161
-29.9306 22.8245 -2.92938
-29.2266 -13.6424 -2.50596
11.8392 -10.0299 -1.20282
-23.1243 -51.5003 -4.32457
12.7553 -10.5874 -1.256
-40.9037 -77.6019 -6.34954
9.93365 -9.11697 -0.977278
10.8897 -9.72034 -1.01749
-33.193 -20.606 -2.70305
11.9331 -10.0292 -1.07942
14.6858 -11.5629 -1.29923
-15.5029 -39.1733 -2.86761
-15.1096 -39.9718 -2.92985
18.5386 -13.3977 -1.51862
-23.3031 20.4032 -2.05585
-24.7934 -57.1937 -4.12287
12.8511 -10.5715 -1.11256
-14.6247 -40.5736 -2.80337
15.2476 -11.5126 -1.24163
-32.3493 -65.4967 -4.58832
-14.9589 -46.3664 -3.028
-32.8392 23.1987 -2.46093
-32.8013 -64.8659 -4.425
-16.9716 -41.3414 -2.7254
30.8686 -20.4658 -2.25477
41.9845 -10.9486 -2.63418
36.4573 -8.78982 -2.27223
-15.1242 -40.6055 -2.61848
-26.9801 21.8968 -1.97018
-28.9559 -14.2557 -1.86527
-15.8262 -41.2297 -2.46377
16.8661 -12.585 -1.17899
-27.1285 -16.3249 -1.70464
42.5725 -9.48306 -2.24312
-9.39363 -12.5514 -0.795956
-15.4154 -41.0253 -2.18342
5.70162 -12.4438 -0.680129
-14.1949 17.9949 -1.11779
-15.0933 -47.4404 -2.4455
14.8761 7.80441 -0.809291
-16.3286 -41.854 -2.13566
-14.5521 -47.328 -2.33685
18.686 -13.2578 -1.09815
-17.2013 -49.885 -2.46197
36.7477 -9.0255 -1.77311
-28.8563 -14.7556 -1.45038
-24.3749 -55.8523 -2.70302
-16.5418 -40.7006 -1.95616
9.64448 -9.10097 -0.591241
12.5831 -10.3279 -0.730672
44.2128 -10.1165 -2.01702
-14.0471 -42.7286 -1.91488
-32.7644 23.1617 -1.67102
-53.6243 29.1232 -2.4341
-33.81 23.2676 -1.50593
-18.8592 -49.3187 -1.98221
-34.5852 -21.7789 -1.46116
9.73145 -9.05645 -0.488764
6.59697 -10.8175 -0.439665
-13.0686 -38.959 -1.36055
7.44922 -13.0753 -0.513973
18.5802 -13.1599 -0.76905
-26.6514 -58.3711 -2.11327
-13.3611 -37.9054 -1.30253
21.0945 24.3293 -1.03397
-23.1246 20.5295 -0.973866
-20.8529 -53.3954 -1.77797
20.9937 -14.3163 -0.772457
-27.6114 -14.2091 -0.941435
-13.0187 -41.6646 -1.2981
-24.0905 20.4697 -0.90796
-23.7113 -54.569 -1.69277
-17.5646 -47.5383 -1.46222
22.521 -10.1349 -0.745371
-34.4451 -20.9874 -1.1158
-9.78655 -12.8399 -0.461177
-22.9138 -54.0371 -1.65704
17.9991 -13.409 -0.571317
30.3791 50.6967 -1.53126
-30.0851 22.9545 -0.972857
-31.2453 22.8535 -0.957333
-27.2263 -13.082 -0.740355
9.55142 -8.98828 -0.317433
-20.8549 -33.5911 -0.922111
-40.2302 13.9549 -0.931013
21.1932 -14.1805 -0.54138
18.4077 -13.271 -0.42571
12.7943 -10.5109 -0.275825
-7.23301 15.6566 -0.301952
-33.139 10.4801 -0.574504
-28.2856 -13.4695 -0.496089
-37.0606 -21.1055 -0.648032
-18.13 -44.4443 -0.742764
-7.8807 16.5734 -0.24931
-32.5327 -24.3029 -0.563171
-33.8874 -23.1013 -0.525037
-34.8256 -70.367 -0.97314
17.2695 -12.8847 -0.261343
18.1953 -13.1005 -0.284242
28.8942 -17.817 -0.452912
-21.4136 -54.8448 -0.714403
-30.2678 23.0765 -0.405928
-37.5755 -21.0047 -0.475493
-27.7588 -59.2317 -0.696627
-18.6358 -42.7437 -0.499275
-53.3016 29.211 -0.505712
-33.7043 -59.4558 -0.629916
-20.052 -52.589 -0.53475
37.4485 -9.04716 -0.354009
-14.3038 18.1552 -0.162363
-35.3135 -78.64 -0.590134
-17.9331 -43.4961 -0.320481
9.55904 -8.99476 -0.0408326
14.7744 7.77769 -0.0283333
-29.4064 -13.1182 -0.0583546
-11.6792 -17.0045 0.0250494
-12.8765 -19.3811 0.04422
-18.6978 -42.9206 0.193179
9.42515 -8.9735 0.0593557
-32.796 23.2098 0.2088
-21.802 -55.0403 0.286576
-30.2047 -14.0185 0.199858
16.7973 -12.2559 0.116308
-13.1261 -20.1257 0.156697
14.6772 -11.4331 0.14646
-53.1604 19.0465 0.499765
7.06931 -12.1466 0.11799
15.9593 -11.8261 0.16868
-36.4661 -22.0667 0.447025
38.134 -7.83787 0.405489
-35.3075 -22.1263 0.474533
-12.5809 -34.7483 0.431175
-13.0583 -35.1151 0.453839
-11.2161 -32.2973 0.415906
-9.64493 -29.8419 0.379454
25.7041 52.0462 0.756425
9.57104 -9.00237 0.169908
-12.8056 -19.8433 0.321466
-10.9013 -33.0919 0.477142
8.5527 -8.49641 0.182799
6.27221 -12.8318 0.208002
7.13344 -10.9923 0.200043
9.32717 -9.04202 0.187655
8.01367 -9.09285 0.193861
9.70629 -8.98737 0.217933
37.6129 -8.05853 0.631274
-23.959 20.5462 0.56545
-33.2354 -22.3608 0.689164
-34.5306 -25.3348 0.749941
12.8824 -10.5829 0.273213
13.1923 -10.6405 0.317663
-9.91397 -12.5699 0.302173
6.81077 -11.1621 0.254985
7.96952 -9.36626 0.241845
26.2488 54.0071 1.20385
6.95924 -10.9387 0.260662
9.16036 -8.66737 0.267958
11.499 -9.88369 0.332319
17.2016 -7.68331 0.379328
7.19295 -10.9134 0.295845
-9.4508 -12.2007 0.390282
-12.8135 -19.6702 0.560715
7.62889 -9.28804 0.273817
7.8123 -9.34265 0.282768
-25.7418 21.6356 0.873551
-28.9659 -9.2888 0.763266
9.59897 -8.93129 0.337332
17.4332 -12.7353 0.544367
18.2636 -13.1509 0.559799
-23.0615 20.1908 0.798674
-27.8438 22.0054 0.926564
-28.9788 -8.69749 0.792026
-33.2023 -17.7035 1.02181
-13.3769 -20.1998 0.643834
14.7133 -11.4321 0.497228
22.6648 -3.29769 0.644647
-12.2151 -19.0468 0.654506
24.888 -4.7148 0.737398
16.2514 25.2203 0.899504
-28.0809 -20.6868 1.03194
7.20518 -11.2864 0.402079
6.94628 -10.6671 0.38773
14.6441 23.8555 0.859669
-7.62141 -8.80669 0.356095
12.991 -10.63 0.512647
-7.31842 -9.5118 0.367533
-28.6068 -8.07441 0.989139
-11.9072 -17.4059 0.706121
7.8512 -9.32567 0.403414
16.0859 10.9902 0.697895
10.8281 -9.42853 0.521651
11.8572 -10.0182 0.565689
22.5482 45.4049 1.90441
-7.44824 -8.13173 0.412138
9.62613 -8.93586 0.490413
22.7329 -3.19173 0.881419
26.3367 54.4422 2.34228
-7.44715 -9.88464 0.484033
10.4011 -9.48632 0.552298
12.6871 -10.4783 0.664903
21.4931 -2.63422 0.88296
-29.2035 -17.7171 1.39659
8.71681 -8.67764 0.508404
-6.9229 -8.46488 0.470019
9.41236 -8.90384 0.541732
12.6177 14.4844 0.848583
-28.9465 -8.49529 1.32567
14.6383 19.0665 1.08058
14.9081 25.6686 1.32299
21.381 42.0441 2.08654
6.14945 -13.7011 0.669696
10.812 -9.48546 0.650574
18.4246 -1.63515 0.846368
19.2302 36.6149 1.94017
14.8471 26.1594 1.41068
-11.1983 2.77758 0.555676
-7.24377 -9.54816 0.577939
9.14329 -8.9617 0.60644
11.3641 -8.71871 0.670846
20.0394 -2.29644 0.971799
11.5856 11.8072 0.821683
15.8676 38.1601 2.03211
7.73893 -9.43207 0.600606
10.1553 -9.24916 0.680303
14.4642 24.5272 1.42616
19.8664 38.5247 2.2006
20.9258 -2.6068 1.07243
-7.40607 -8.50861 0.585212
9.36008 -8.91187 0.673068
16.581 24.3148 1.54638
16.3533 29.6467 1.76752
12.9628 -10.6847 0.892674
10.5116 12.2881 0.86507
14.1309 19.1816 1.28011
11.0418 -9.57443 0.790363
14.9137 19.4312 1.35113
-26.3826 20.2239 1.81684
-6.96888 -8.17596 0.594312
10.208 12.3414 0.897133
-7.26342 -9.3766 0.66428
9.94588 12.3899 0.921649
-27.8414 19.6013 1.93368
6.08241 -12.8456 0.813821
11.1357 12.0379 0.942728
-6.88326 -6.79325 0.560885
11.2253 11.97 0.966457
-6.80973 -8.4147 0.64786
6.22733 -12.5179 0.817023
14.5492 19.358 1.45637
14.0128 22.9107 1.60235
13.253 30.6284 2.00319
-6.14829 6.54844 0.55166
-8.17083 -7.74218 0.680862
-7.1188 -8.16657 0.665346
5.70044 -12.3972 0.8252
-7.48334 -6.88981 0.632816
6.98256 -11.1252 0.812278
6.96617 -10.5281 0.788016
11.3047 -9.75829 0.922426
12.0897 -10.1135 0.976899
16.1623 7.15796 1.12645
14.7958 19.167 1.53218
-7.2392 -6.30901 0.622831
10.2356 -9.34839 0.894729
-7.3807 -6.26151 0.63492
11.4272 12.058 1.1321
9.45869 21.2935 1.58671
-7.27535 -9.65729 0.80781
11.5852 12.5651 1.17262
-6.95711 -4.45844 0.568395
-6.75493 -8.20413 0.724739
-6.70126 -4.43476 0.554302
9.24991 -8.84354 0.891014
9.97563 -7.82658 0.89328
12.6423 15.9338 1.47086
-6.67177 -6.66424 0.655233
9.78847 -8.26593 0.936945
11.3954 17.0388 1.54119
11.3227 18.0516 1.59196
9.52621 18.1313 1.54466
8.9422 19.3253 1.60168
7.2611 21.6411 1.71616
10.697 18.4637 1.62581
9.99353 -7.58221 0.959264
-7.0309 -7.19204 0.770701
-17.2189 -6.24544 1.43224
9.4534 -7.66392 0.954107
9.26423 18.5034 1.63337
-6.38218 -4.2615 0.60844
-6.83299 -8.22385 0.847634
4.83132 -5.72922 0.595935
8.94367 19.6765 1.71444
7.69824 18.8223 1.6352
5.02449 -5.7909 0.617792
12.7303 11.4872 1.38958
11.7328 11.7855 1.36189
6.71571 -9.3688 0.937103
12.1885 11.6579 1.38656
6.61398 19.4159 1.67906
-6.35834 -4.3893 0.629707
-7.16602 -9.48423 0.975665
11.5015 12.0496 1.37839
10.4402 9.13331 1.1813
-5.04335 -11.5065 1.06127
6.12086 -6.04102 0.75077
9.20052 -7.16752 1.0032
-6.79787 -6.69552 0.810661
10.389 12.3118 1.40644
8.7816 -7.31735 0.993747
10.7861 12.1588 1.42263
-7.31311 -7.76813 0.935346
8.17695 -7.27957 0.972128
10.1655 12.4252 1.44337
-7.07485 -7.74539 0.93014
-6.9417 -8.34478 0.974182
10.5565 12.2712 1.47002
10.4553 13.4867 1.54622
-7.1207 -8.33267 0.998462
11.1809 10.7999 1.43
-6.31642 -4.23249 0.699192
-6.86504 -8.59823 1.00669
-6.33033 -4.39573 0.710446
11.0538 8.53049 1.31041
10.61 9.30125 1.31575
6.44832 15.3179 1.56329
10.4721 11.266 1.45563
-11.244 2.88128 1.09685
6.15251 -5.96046 0.816763
7.99395 -6.62705 0.997454
10.7102 9.17143 1.36901
9.48998 12.4869 1.51878
9.67489 12.416 1.55094
7.63512 12.2107 1.43071
7.87668 13.1674 1.52745
11.1962 8.04002 1.40495
7.10809 12.6486 1.46444
9.02912 11.3153 1.47313
6.96352 13.4812 1.55303
5.83577 13.8667 1.54463
9.16861 10.4526 1.43721
8.99773 12.2581 1.58006
11.3607 7.63946 1.42833
9.22454 9.97599 1.41482
4.97054 -5.81639 0.821469
-6.84892 -4.65814 0.873774
5.54583 13.8168 1.58042
-7.06223 -4.50869 0.89361
8.89905 10.6629 1.49137
-6.76978 -6.77946 1.02488
5.90559 -5.82903 0.896413
9.66711 8.51133 1.38849
8.93703 9.33442 1.3901
9.22963 10.2888 1.49877
4.75357 13.7767 1.57304
4.2322 -8.049 0.985186
6.44302 10.7791 1.38208
-6.80438 -3.92663 0.864811
6.32189 11.8536 1.49072
-6.89831 -3.86481 0.876061
9.69074 7.19042 1.34958
6.64526 11.3413 1.46413
9.78584 7.0163 1.35289
5.41251 11.5383 1.44122
5.41648 12.0439 1.49174
4.68137 12.1827 1.47688
9.81611 6.67177 1.35283
-6.89527 -4.5659 0.947207
7.40017 -6.22458 1.10235
-7.33493 -0.785918 0.845984
-6.27804 -5.39328 0.953289
5.24736 -5.56615 0.882789
8.85757 7.87456 1.38095
4.41639 -7.18045 0.976663
10.3974 5.14736 1.35882
8.94145 7.77858 1.39331
5.1988 -5.60982 0.903704
8.58551 7.90285 1.38478
8.88208 9.036 1.48259
-7.05189 -5.65435 1.06959
10.1264 4.7417 1.33238
-6.9221 -3.8537 0.954693
9.12668 6.1353 1.33395
5.19242 11.3816 1.5167
-6.89654 -3.06705 0.917215
-6.88092 -3.25315 0.920537
4.87975 -5.95114 0.939444
5.97119 -6.1263 1.04172
9.36007 5.6143 1.34942
8.44829 7.21262 1.3736
-6.95407 -4.31281 1.00813
-6.88551 -4.53744 1.01643
8.24222 8.56817 1.47518
5.01418 11.2765 1.5326
-6.55422 -5.62117 1.07467
3.70756 -7.57199 1.05077
8.48813 7.72907 1.43663
6.07553 -5.61525 1.03735
9.15358 6.05232 1.3908
-6.13818 -5.41628 1.03307
8.53634 6.60376 1.37651
8.07452 7.49686 1.40178
-7.10419 -1.78373 0.937029
-7.01681 -2.3071 0.943491
-6.44931 -5.3219 1.06694
8.81704 5.65268 1.34284
8.1401 8.03079 1.47396
-7.26687 -1.25382 0.945774
-6.90153 -4.12113 1.03936
7.42128 6.21241 1.25367
8.06559 7.02982 1.38753
7.95428 8.11039 1.47224
-6.91354 -2.82752 0.972595
-6.91484 -2.96748 0.972976
4.53899 10.0517 1.4496
8.98681 4.10592 1.30066
-7.25073 -1.60683 0.976171
6.83637 -4.25718 1.07046
4.92758 -5.94289 1.02364
-7.33617 -1.11762 0.993512
-7.01714 -2.20026 0.983911
-7.05429 -2.26955 0.990192
-5.99759 -4.40018 0.994251
5.18657 -6.56253 1.1149
6.90708 -4.17409 1.0866
8.05975 7.15804 1.46049
-7.15415 -1.7189 0.98936
-7.08542 -1.95648 0.988822
8.78245 4.84864 1.3627
8.32001 5.86472 1.38417
-6.92442 -3.62081 1.06492
8.85632 4.15652 1.34204
3.33355 10.477 1.50532
-7.31561 -1.20041 1.01502
-6.01282 -4.44346 1.02842
-5.99333 -4.54233 1.02966
7.14459 -3.93232 1.12102
8.0595 6.4759 1.43005
5.34367 9.03183 1.45336
-6.38519 -4.32346 1.0573
4.93262 -5.52552 1.02906
7.1822 -3.8281 1.13282
7.55599 -3.68458 1.1633
3.60793 10.0092 1.48167
3.42207 10.2968 1.51291
-7.37204 -1.08254 1.04044
-7.07624 -2.00452 1.02511
4.97202 -5.28736 1.01472
7.24386 -3.73615 1.14519
7.36012 -3.67082 1.16665
7.86883 -3.35498 1.21621
-7.15726 -1.87538 1.05245
-7.01086 -2.94702 1.10229
-6.01065 -4.37541 1.06941
7.90348 -2.7817 1.22603
8.22438 4.61608 1.38197
4.98337 8.53697 1.44897
8.36164 4.5028 1.40376
7.82913 -2.34039 1.20469
7.13863 5.68275 1.36655
2.95314 9.42626 1.4771
-7.09611 -2.02015 1.10599
7.48306 -3.10938 1.22174
8.22107 4.54342 1.42398
5.77865 7.43177 1.4297
5.28414 7.62328 1.41361
5.11967 7.93205 1.4342
5.07294 8.0402 1.43903
7.33343 -3.16967 1.22035
7.67888 -2.75597 1.24251
-6.75779 -1.6832 1.04923
7.83111 -2.25668 1.24989
7.22906 5.42173 1.38774
-7.10562 -1.953 1.14378
-6.92215 -2.78679 1.16002
6.80927 5.52316 1.37544
-7.35779 -1.09611 1.16218
-7.14643 -1.8247 1.15539
-7.04862 -2.06813 1.15121
-7.12307 -1.87304 1.15605
-6.89732 -2.93522 1.17697
4.80532 7.45095 1.41023
3.44565 -6.03086 1.1092
-7.27811 -1.29984 1.18463
3.52738 -5.70659 1.08086
3.5643 -5.61208 1.07027
7.07505 4.76907 1.39055
4.65915 7.37416 1.41983
-7.07331 -2.02414 1.19928
-7.09536 -1.94756 1.20762
6.97047 4.83018 1.40271
3.81609 7.9278 1.45689
6.05434 -3.31991 1.15033
6.6384 4.87675 1.37361
4.66159 7.16485 1.42607
3.83578 -5.29972 1.09966
7.11111 4.42816 1.41073
7.4806 2.86045 1.35367
6.32512 5.28757 1.39747
-7.28168 -1.25618 1.2586
6.75896 4.08646 1.35663
-6.45256 -2.7727 1.19857
5.5104 -3.6303 1.13365
5.69189 -3.51928 1.14906
2.75413 7.84906 1.43832
-7.3754 -1.03994 1.29159
5.33449 -3.78392 1.14018
-6.31254 -2.26024 1.16292
-6.27298 -2.41736 1.17736
4.28078 -4.6643 1.10718
4.49386 -4.47705 1.11283
4.59162 -4.44896 1.12173
-6.80326 -1.73314 1.23699
4.33448 6.50303 1.39434
-7.1623 -0.928646 1.29127
-6.14567 -2.25832 1.16652
6.64579 3.69548 1.36332
6.10568 4.36592 1.36168
3.60815 -5.32668 1.17011
5.15206 5.69009 1.40423
2.51611 7.20033 1.43298
6.49126 3.05511 1.35667
-1.70713 -5.78491 1.14174
6.42951 -1.38664 1.24807
6.27931 2.78064 1.32237
6.22428 2.38378 1.32996
-4.45742 3.94438 1.39968
4.32892 3.53754 1.33736
4.21426 3.29475 1.32449
4.6655 -1.67785 1.24508
4.8193 -1.38111 1.25427
-2.14768 4.81231 1.31679
3.72662 -2.95267 1.22239
3.67278 -2.54932 1.19365
3.40611 -2.96128 1.22575
4.0049 2.56986 1.32997
-2.59486 -3.53473 1.2512
-2.32632 -3.57098 1.21655
3.75483 2.05782 1.30194
3.73145 1.98015 1.30136
-2.84626 3.4903 1.38961
-2.29643 -2.41934 1.18752
1.95511 -2.78074 1.21283
-2.12586 2.77055 1.32676
-2.03072 2.75862 1.33293
2.25056 -1.86954 1.2254
2.38003 -1.49815 1.22247
-2.01717 1.87836 1.29739
-2.0643 -1.4429 1.22853
1.44945 -2.07001 1.2457
-1.99224 -1.08766 1.21458
-1.92474 -0.707592 1.22015
-1.92648 -0.703383 1.24574
-1.95567 -0.344326 1.22914
-1.89272 -0.564629 1.23008
-1.89233 -0.530841 1.23517
8.22004 -8.69948 -7.46541
12.1141 -10.2775 -8.79176
-8.79387 15.6981 -6.98202
20.4824 24.9423 -11.5942
-8.80904 -2.52277 -2.58198
-34.5828 -23.1015 -7.68272
-34.1791 -22.3522 -6.02582
-33.9089 -23.0439 -6.08842
-31.274 -20.0571 -2.79402
9.27911 -8.83813 -0.391537
-7.71535 16.6305 -0.452287
-29.5222 -11.4241 0.729288
-6.92326 -8.27447 0.46087
16.6293 23.8788 1.58108
11.3583 15.974 1.62132
-6.69815 -6.67116 0.884033
4.21223 12.2226 1.48995
8.7176 9.08065 1.47254
7.9782 -8.77033 -10.387
8.83875 -8.54612 -10.5053
6.96177 -11.9452 -11.5218
6.8772 -11.3577 -10.9029
8.15838 -8.27072 -9.53959
7.02679 -12.037 -11.3337
7.07117 -10.9807 -10.4635
8.00807 -8.38387 -9.2106
6.73248 -11.2928 -10.2962
6.44988 -11.7054 -10.2203
7.76325 -8.8573 -8.9789
6.21023 -14.3268 -11.8165
8.30503 -8.70766 -9.10833
6.3045 -11.9177 -10.1826
6.15177 -12.0963 -10.1195
7.49711 -9.45268 -9.00815
7.91549 -9.06292 -8.93356
10.4748 -9.45651 -10.4956
6.12467 -14.1239 -11.3789
6.10558 -13.6774 -11.0125
6.13571 -12.5856 -10.2984
9.20253 -8.83158 -9.35665
9.29048 -9.07848 -9.47404
5.86924 -12.5142 -10.0411
9.36638 -8.99508 -9.26785
6.86673 -11.1341 -9.28385
5.6198 -12.9794 -10.0106
9.6976 -9.0864 -9.41806
7.61477 -9.35118 -8.4788
10.003 -9.192 -9.54397
10.9241 -9.49929 -10.1581
11.4476 -9.70435 -10.0786
8.39115 -8.61461 -7.96192
7.43674 -9.30615 -7.87105
8.17403 -8.72542 -7.90273
7.63406 -9.3593 -7.90187
7.84312 -9.40947 -7.85097
8.32714 -8.54209 -7.62595
0.359031 15.8799 -10.1344
7.53364 -9.33148 -7.63207
10.917 -9.61269 -9.24851
7.23179 -10.7106 -8.17937
8.16173 -8.5042 -7.43353
4.61615 -15.4158 -10.1205
8.72027 -8.70733 -7.62447
7.9277 -9.03963 -7.41642
4.05118 -18.0296 -11.3829
8.20426 -8.63439 -7.28147
4.08815 -17.3148 -10.8557
0.144902 14.8845 -9.05681
6.65994 -11.2717 -7.97095
7.74864 -9.27524 -7.33325
10.1317 -9.31806 -8.35242
6.82616 -11.2604 -7.90509
8.06693 -9.21176 -7.35006
11.2747 -9.70174 -8.89298
5.40518 -13.8679 -8.82748
7.74113 -9.27353 -7.16386
9.35759 -9.03987 -7.70964
6.90792 -11.1244 -7.75016
7.98969 -9.13518 -7.12117
9.75934 -9.1937 -7.81385
14.8547 7.42279 -9.64437
8.67393 -8.8378 -7.15543
6.93828 -10.973 -7.46129
2.64156 -11.2186 -6.62848
7.866 -9.07868 -6.87982
9.61136 -9.14608 -7.53663
10.7992 -9.50085 -8.1141
3.2801 -20.5983 -11.7298
6.80616 -10.9904 -7.24713
10.1121 -9.29676 -7.69255
12.3456 -10.359 -9.03765
9.24659 -9.01354 -7.21558
4.6192 -14.303 -8.37949
8.0101 -9.22353 -6.78469
14.7771 7.55487 -9.11151
9.70349 -9.11271 -7.31078
0.836274 17.4763 -9.55436
2.74153 -19.8516 -10.9274
11.1361 -9.65019 -8.00078
4.23661 -14.4325 -8.14205
14.6904 7.68245 -8.92961
15.0802 10.4119 -9.83924
14.0254 7.73759 -8.55896
10.956 -9.6226 -7.75421
13.2689 -10.8054 -9.10275
3.0437 -19.3279 -10.286
11.3608 -9.82934 -7.64398
2.16883 -20.3786 -10.3438
10.2659 -9.34647 -6.98124
14.2729 -11.2892 -9.13683
13.8095 -11.1696 -8.89158
11.0124 -9.65908 -7.29787
7.51258 -9.34278 -5.93701
3.56411 -8.47057 -4.52898
-8.70617 -1.91156 -4.38235
2.2231 -20.1543 -9.94514
4.53306 -9.3014 -5.06046
0.403079 13.6627 -6.69098
7.61156 -9.27463 -5.85476
-8.50931 16.238 -8.87841
-9.20708 -2.434 -4.58865
14.9966 -11.5809 -9.10551
19.3744 5.54341 -9.63719
-10.3215 -2.55547 -5.02935
1.9098 -20.5534 -9.81541
17.2047 16.168 -11.182
7.58569 -11.2146 -6.38852
20.0263 5.40545 -9.76851
14.0304 -11.1081 -8.32181
2.93078 -17.3401 -8.17717
19.3525 5.72595 -9.32356
17.8427 -13.0032 -10.1983
9.86104 -2.49078 -4.69941
20.2811 5.14046 -9.65319
17.3304 16.297 -10.9623
1.81 -20.2189 -9.29042
9.67441 -9.04644 -6.06505
-9.21689 -1.67297 -4.27208
9.4486 -3.46702 -4.584
6.71507 -11.3201 -5.9867
9.90831 -2.61714 -4.64846
19.2454 5.86851 -9.0582
17.717 17.5737 -11.2183
9.36473 -3.08487 -4.43815
15.4299 -11.8732 -8.73709
7.03897 -11.565 -6.05564
7.15262 -10.9187 -5.81814
9.55482 -3.40318 -4.52001
-10.0293 16.4376 -8.57231
17.6518 -12.8825 -9.71075
19.5319 5.62661 -9.00925
16.1037 7.30437 -7.83043
17.8247 18.0041 -11.2047
16.4252 -12.2157 -9.02188
-11.2826 17.1563 -9.02498
-6.57824 15.032 -7.19385
-5.24029 4.91498 -3.13015
20.13 5.46564 -9.06841
9.55374 -3.40344 -4.37697
18.219 18.466 -11.1495
15.8213 -12.1753 -8.59051
14.8627 7.4313 -7.09193
3.83892 -9.30287 -4.27582
-11.2065 17.0434 -8.63486
6.9451 -10.9076 -5.45256
-13.6 3.33299 -5.89939
0.743431 -22.3815 -9.43707
15.8059 -11.9676 -8.29113
-5.16961 5.69241 -3.21695
0.998695 -22.2437 -9.33383
1.23231 -20.7838 -8.72233
14.1713 7.60051 -6.7261
18.5505 19.3322 -11.1947
3.78291 -8.95515 -4.05401
14.7748 7.73154 -6.94132
17.9192 19.1382 -10.8803
-9.51966 -1.09259 -3.95542
4.00726 -8.50233 -3.85104
14.0383 7.75155 -6.58318
6.84454 -10.9878 -5.29248
-13.6393 2.54787 -5.676
-7.99427 15.4862 -7.08176
19.2549 20.9228 -11.5197
15.077 7.2445 -6.73969
-5.29343 14.4544 -6.17137
13.9529 -11.031 -6.96664
1.53234 19.2602 -7.50425
-8.78247 15.8609 -7.04499
18.992 5.7919 -7.69332
-1.75723 13.307 -5.19877
5.29615 -9.39478 -4.15911
-2.38999 13.5259 -5.27539
19.5858 22.6573 -11.484
4.66071 -8.51578 -3.68674
19.4187 5.57083 -7.68743
0.87636 -26.5113 -10.0807
14.905 -11.4858 -7.08155
19.9779 5.41239 -7.74676
9.4393 -3.43909 -3.75607
0.533152 -22.6673 -8.44967
3.24917 -10.7966 -4.21223
20.1865 23.4855 -11.5008
0.909633 -8.72141 -3.25187
14.0274 -11.109 -6.59804
20.3861 5.18498 -7.73425
17.8836 17.6713 -9.18786
-13.0532 2.2868 -4.81788
20.8388 24.8853 -11.7724
2.28768 -13.2616 -4.84821
13.0344 -10.5407 -6.0321
0.795857 15.4482 -5.53498
-8.20497 -2.79999 -3.10092
0.409984 -21.8433 -7.80973
-4.23447 13.8953 -5.16663
0.638334 -21.9257 -7.79506
15.8559 -11.9754 -7.04268
-15.8145 18.2824 -8.5189
5.92899 -11.3392 -4.49912
-11.0804 16.7206 -7.00563
0.0937911 -18.5109 -6.50706
14.2643 -11.3047 -6.36415
20.3411 5.35703 -7.34211
0.657636 -23.0432 -7.96132
-5.03847 14.6249 -5.29973
3.63954 -8.44884 -3.16668
4.8769 -9.03374 -3.51796
-14.5825 18.104 -7.95681
2.27554 -10.8883 -3.81201
-8.93352 16.2051 -6.30745
3.02932 -13.7053 -4.78539
-15.0603 18.4844 -8.08268
20.1592 5.481 -7.02189
22.0399 27.265 -11.7175
36.0589 -20.3554 -13.8376
-5.33302 14.1439 -5.02012
1.91537 20.7651 -6.91964
1.2675 -10.2486 -3.41445
-5.28035 14.5381 -5.02352
-12.6557 17.3254 -6.95993
18.5631 -13.2279 -7.40217
3.55989 -8.67276 -3.00579
6.22064 -10.1142 -3.80537
2.31385 -11.0092 -3.57999
-4.57057 -34.3373 -11.0101
-1.13921 -23.8771 -7.60912
15.0216 10.3455 -5.75636
-13.2825 17.6744 -6.98806
-18.09 19.5116 -8.3639
6.96309 -11.0968 -4.0502
1.38574 -21.9024 -6.78902
-2.57937 -27.4777 -8.47149
7.18631 33.1921 -10.3639
0.771019 15.0398 -4.57442
-11.1947 16.8905 -6.10728
-2.70635 -26.5769 -8.04516
-14.423 18.0329 -6.88975
-5.313 -34.8428 -10.4944
0.838587 -25.0625 -7.49798
-5.42207 14.9118 -4.7196
2.08198 20.7205 -6.13592
-21.3909 19.9452 -8.62863
18.2137 5.79601 -5.62616
-4.31906 14.5051 -4.44979
-7.96978 15.4612 -5.1031
4.25651 -9.14477 -2.96468
4.63818 -11.6215 -3.65874
-12.6318 2.22525 -3.68627
-33.1324 -46.9327 -16.5311
-15.2784 18.3797 -6.87053
6.96049 -11.0859 -3.7685
2.56399 -9.54662 -2.80863
12.9364 -10.4712 -4.73636
-8.45489 -2.46064 -2.49684
21.0704 27.1744 -9.74268
-8.58239 -2.262 -2.50796
-2.55874 -26.1131 -7.36337
-13.0388 1.99804 -3.67339
4.3897 -11.3341 -3.37348
-9.35946 16.0955 -5.11146
-13.1273 17.5074 -6.01016
-5.42233 14.4706 -4.22354
-8.5439 -41.4946 -11.5913
-21.5806 20.1386 -7.93512
-9.78181 16.22 -5.07591
-26.8482 20.6242 -9.0066
11.4384 11.5125 -4.28234
4.32882 -11.3003 -3.20574
47.0833 -13.6871 -12.9893
-8.23563 -38.8666 -10.4427
4.0901 -8.65866 -2.52147
11.174 -9.93873 -3.91208
-14.5256 18.1871 -6.05213
6.538 -10.4262 -3.18529
3.17873 -9.64806 -2.62609
-30.2498 -44.3042 -13.8528
-4.37457 -28.6948 -7.51008
3.54217 -10.3753 -2.82688
4.06909 -9.38917 -2.63015
15.6109 -11.7383 -4.98354
-7.19251 15.3226 -4.28421
-31.6854 -42.2566 -13.3935
4.3135 -11.1485 -3.02544
4.25569 -7.70553 -2.24031
6.5384 -10.6652 -3.11985
44.771 -13.5361 -11.6614
-28.4047 21.4302 -8.79687
-11.5878 17.0242 -5.07666
-27.7181 -40.4349 -12.0537
-9.93861 -39.1198 -9.95621
-24.5955 20.6582 -7.89322
4.35061 -10.3332 -2.75466
-12.1235 17.3653 -5.13489
-7.8846 15.362 -4.16173
10.277 -9.26997 -3.31389
40.252 -13.3707 -10.1496
15.1202 7.56176 -4.02475
-6.34013 -36.3113 -8.78071
3.96577 -9.08772 -2.34946
46.9534 -12.5667 -11.536
-12.2183 -44.9887 -11.0437
4.20225 -8.9914 -2.36769
3.86059 -11.0727 -2.76365
4.90901 -8.69434 -2.34886
-12.8408 17.4987 -5.05106
11.0099 -9.64848 -3.34591
-6.21412 -31.5137 -7.3291
-27.2741 21.0651 -7.81176
41.4854 -9.07262 -9.63692
-30.6305 22.2393 -8.48661
-35.5422 -23.2917 -9.52151
40.683 -12.5764 -9.56091
5.45498 -9.4749 -2.44098
-12.4202 2.83401 -2.79521
40.5567 -11.8851 -9.3376
42.5319 -12.1356 -9.73076
-5.40548 14.1818 -3.31829
13.3939 -10.7779 -3.78415
38.0233 -12.2194 -8.78004
-23.4884 20.4713 -6.75833
-29.7601 -73.3715 -17.1807
4.30969 -9.70005 -2.30176
4.53921 -9.18042 -2.21209
-14.6441 18.2449 -4.99608
-31.0661 22.5658 -8.19883
-31.9474 22.6719 -8.37413
-28.3839 -75.3069 -17.2505
-10.738 16.7787 -4.22385
-8.47822 -35.9906 -7.86287
3.19047 -9.68572 -2.17456
3.96653 -9.83006 -2.26013
45.7265 -10.6017 -10.0199
14.9524 7.48947 -3.54547
-15.2214 18.7375 -5.11105
5.16409 -9.05501 -2.19004
26.5917 38.4745 -9.77384
14.9927 7.84643 -3.51333
-30.2346 -23.3503 -7.92482
-33.2776 -85.3257 -18.961
-11.4971 16.9395 -4.16017
-15.6852 18.5449 -4.9446
-35.3167 23.7071 -8.64334
44.3647 -9.6769 -9.25982
-13.3221 -42.8673 -9.1235
4.13575 -9.73401 -2.15179
11.6055 -9.64737 -3.07056
-12.046 17.2866 -4.20585
-20.048 -57.5382 -12.1773
-13.0328 -40.4858 -8.42062
4.0697 -9.92108 -2.12315
-34.2126 -23.3943 -8.17047
-26.8284 21.0559 -6.71222
-33.2422 -23.7787 -7.96714
-6.91799 15.2865 -3.25674
-26.7497 -62.8536 -13.2683
-33.6521 -22.4033 -7.79059
3.43565 -9.36178 -1.92565
45.8054 -10.6128 -9.02871
-12.794 17.4679 -4.13908
3.98905 -9.34468 -1.939
-36.5454 -22.1987 -8.09422
-21.35 -34.6825 -7.74558
-15.6668 -45.2052 -9.05261
37.8578 -12.4884 -7.53603
-36.0769 24.2303 -8.13315
-33.7868 -23.3339 -7.7137
-32.7367 -23.9515 -7.61435
-21.4393 -53.1142 -10.7775
-16.9741 -46.1067 -9.1137
3.8202 -9.20678 -1.84115
42.52 -11.4599 -8.1776
5.75812 -9.71363 -2.06951
-24.6733 -55.9475 -11.1949
-20.5631 -51.0396 -9.95257
-14.608 18.2092 -4.13929
-31.1854 -25.1518 -7.12157
-20.3557 -27.1247 -6.06457
-39.5028 24.9268 -8.24139
-26.8369 21.0721 -5.93883
-34.1917 23.3971 -7.19349
3.90951 -10.0499 -1.86986
4.77196 -8.61276 -1.71116
14.008 7.52271 -2.74243
14.0823 8.08104 -2.78081
-30.9177 22.4829 -6.55353
42.1994 -11.9391 -7.46636
41.9949 -10.8763 -7.38476
-31.3426 -24.892 -6.78974
-21.1237 20.1176 -4.89843
-20.5048 -50.9671 -9.28255
14.8647 7.4502 -2.78865
-31.7911 22.5062 -6.50643
-23.7017 -56.5092 -10.1257
43.5227 -11.7247 -7.32634
-10.3812 16.4807 -3.14307
-20.7923 -51.5827 -8.87017
-34.9841 -24.1497 -6.6987
-22.8352 20.0627 -4.75972
-24.2389 20.6918 -4.93934
-40.2103 24.346 -7.28409
-11.252 16.8406 -3.12662
3.47217 -9.52915 -1.56854
3.86957 -10.2327 -1.69391
-7.63942 15.4947 -2.63862
-31.1471 22.6697 -5.88882
-31.8437 -24.5951 -6.11846
-28.018 -26.2077 -5.81208
42.1844 -10.9667 -6.62521
44.8302 -9.76693 -6.99007
-6.55825 14.6075 -2.39575
9.83277 -5.15409 -1.64772
-33.5775 -24.2179 -6.16531
-26.6369 -67.3515 -10.742
10.1962 -9.16749 -2.04339
44.9719 -10.4037 -6.85504
-36.7464 -24.4616 -6.49683
-31.5946 -26.0605 -5.99118
-12.7373 -42.2038 -6.48643
16.9224 -12.2433 -3.05957
-25.4508 20.9544 -4.79094
-24.8468 -55.6723 -8.7852
-7.63689 15.2959 -2.44458
-12.7419 17.3729 -3.07169
6.0366 -11.5329 -1.8601
-13.4435 17.9686 -3.15223
-34.7894 23.501 -5.90246
6.76127 -11.0442 -1.80994
37.5768 -12.4011 -5.56546
-31.2312 -25.0256 -5.5855
-33.0858 23.7771 -5.64423
-20.6987 -49.8876 -7.46004
45.123 -10.0946 -6.3759
-6.88649 15.2298 -2.28407
-22.7863 -59.4694 -8.65152
7.75299 -9.38252 -1.63341
-14.0367 17.9227 -3.06883
13.2205 -10.5444 -2.28816
-22.2746 20.2615 -4.049
42.107 -10.8868 -5.77396
44.8469 -9.82333 -6.07668
-22.6569 19.9382 -3.9465
-32.7698 -24.5211 -5.34603
-14.9297 18.282 -3.05189
-34.109 22.7659 -5.32402
-38.4243 -16.2243 -5.38538
7.01814 -10.4374 -1.61378
10.7783 8.82453 -1.78872
-33.8884 -23.3537 -5.26688
-31.5124 23.0047 -4.93541
-35.6678 -22.257 -5.26975
41.9697 -10.8541 -5.42506
6.79736 -10.3697 -1.54934
-7.67234 15.3461 -2.12435
-25.0725 21.0529 -4.0089
-33.4745 23.5918 -5.05166
6.29705 -12.0769 -1.65926
44.7988 -9.55775 -5.61066
15.0081 7.86285 -2.0371
-18.0423 -43.6979 -5.70076
7.08818 -10.5346 -1.52883
-20.5572 9.11069 -2.6614
-14.3905 -43.5309 -5.39101
-31.9286 -24.6164 -4.71423
-31.4133 -25.1226 -4.70704
42.0533 -11.2649 -5.11686
11.2342 -9.6747 -1.71768
-29.9491 22.7088 -4.3242
6.64397 -10.8255 -1.45413
7.49037 -9.22202 -1.35902
11.5867 -9.72681 -1.71829
9.45048 -4.61038 -1.19074
14.9863 7.70102 -1.89895
-10.371 16.5104 -2.2004
-32.2587 23.5717 -4.47588
38.8796 -12.7987 -4.59026
9.35879 -9.02504 -1.43842
-11.0885 16.6304 -2.17284
6.79577 -12.7942 -1.5693
44.9407 -9.76723 -4.98571
10.7766 8.85577 -1.50334
16.778 -12.4632 -2.24322
42.2494 -10.9577 -4.67693
9.62109 -8.98061 -1.39439
8.38053 -8.46567 -1.24793
-30.9755 -24.7876 -4.1311
-30.3266 -60.8292 -7.09083
14.983 7.51415 -1.71255
-31.8695 -24.5734 -4.12912
-12.8823 17.5612 -2.21146
-12.8004 17.1495 -2.1271
10.2098 -9.09007 -1.3392
-20.9634 -53.2395 -5.60969
6.31872 -12.1006 -1.32128
16.6471 -12.1793 -1.98275
42.1385 -11.3232 -4.18252
-30.8642 -62.3883 -6.61698
-20.9363 -54.9434 -5.5841
-23.3583 20.4313 -2.90115
45.643 -10.1538 -4.36742
9.71855 -8.98894 -1.22551
39.7113 -13.0998 -3.89665
-15.0486 18.4471 -2.15597
-29.7461 -13.5621 -2.98005
-32.4788 -63.3149 -6.55928
15.8618 -11.8724 -1.80239
8.63766 -8.72866 -1.11203
12.8944 -10.6437 -1.456
45.2293 -10.4833 -3.97729
9.40379 -9.02981 -1.09595
10.9542 -9.64653 -1.22692
-34.2251 23.5041 -3.4551
16.8473 -12.2857 -1.72708
-17.0013 -44.2404 -3.79627
14.6864 -11.4838 -1.4867
-11.7684 -32.9462 -2.76147
-29.8797 22.7192 -2.90291
-33.1595 23.4384 -3.13489
-22.82 -52.1272 -4.39319
-51.2579 27.8968 -4.41927
-21.4285 20.1675 -2.14063
-33.3863 23.6152 -2.96382
16.3837 -12.2419 -1.4962
42.1658 -11.2837 -3.18012
-39.5061 -74.7491 -6.1017
13.9782 -11.0596 -1.27567
-15.6156 -41.424 -3.0556
10.7686 -9.61707 -0.989222
-23.3816 20.4728 -2.09901
12.8729 -10.6221 -1.11726
17.958 -13.0248 -1.47902
16.0459 -12.1369 -1.32876
-14.7229 -40.8206 -2.80719
43.9297 -11.4251 -2.83731
-32.0003 -64.8379 -4.41246
35.8565 -8.69884 -2.26444
43.0975 -9.86433 -2.71431
6.05194 -13.082 -0.86158
30.9195 -20.4594 -2.21866
-9.85539 16.4522 -1.12748
-15.6182 -40.7413 -2.4846
16.6148 -12.417 -1.16467
-9.69189 -12.564 -0.86959
14.9743 7.68236 -0.909973
13.905 -11.0072 -0.949702
-12.8048 17.3524 -1.12648
-16.5258 -40.9606 -2.34586
14.8686 7.81838 -0.823347
-16.3515 -41.7965 -2.20227
-14.1727 17.9638 -1.0943
