ply
format ascii 1.0 
element vertex 1865
comment /media/mkaihara/Seagate Backup Plus Drive/model_iterations/model_4.ply
property float32 x 
property float32 y 
property float32 z 
end_header 
-25.0016 18.8631 -7.7415
-10.5809 15.5457 -4.63531
-21.662 -31.5998 -9.41859
-7.12786 -28.0914 -7.16271
-21.8476 18.3507 -7.01047
4.76867 -11.2927 -2.99746
-6.62301 -28.6435 -7.22202
19.7576 26.4276 -8.01936
-11.0542 15.8342 -4.68182
-7.24731 14.1204 -3.82479
-50.3551 -105.994 -28.3507
-24.3261 -70.0402 -17.9446
11.0287 -9.94362 -3.54641
46.1691 -15.3346 -11.6358
15.6708 7.83988 -4.18073
-4.46386 -25.6401 -6.21612
4.33778 -9.91305 -2.55106
54.7253 -14.6452 -13.4423
-22.4021 -33.4624 -9.541
-8.49302 -31.3019 -7.69601
4.71231 -10.07 -2.63651
-47.6679 -106.14 -27.3948
-20.8288 -30.2165 -8.60255
4.40544 -12.5984 -3.12627
5.38558 -9.52728 -2.56189
42.3899 -16.2224 -10.644
-11.6982 15.9425 -4.60184
-31.683 -94.9599 -23.2408
3.49814 -10.2791 -2.48564
45.935 -10.9014 -10.9508
26.3179 36.0871 -10.3402
-5.47838 -25.8833 -6.13617
-46.141 -105.872 -26.4197
11.8524 -10.383 -3.59228
-4.55875 -23.1719 -5.40202
15.2306 -11.8332 -4.40963
-24.1103 18.622 -6.90498
-8.26128 -29.76 -6.992
47.3028 -10.3438 -10.9878
-26.8067 19.4634 -7.42616
-30.2705 -19.8354 -8.10148
-4.17014 -19.9025 -4.54529
46.6729 -14.4267 -10.9643
5.98803 -10.3881 -2.66448
-11.9226 2.72143 -2.68462
46.4802 -13.6201 -10.6979
48.9971 -13.979 -11.2067
32.2016 45.378 -12.237
-4.95952 13.0117 -3.04357
14.5539 -11.7092 -4.10205
43.283 -13.9082 -9.99018
-20.9267 18.2396 -6.02138
-18.7524 -46.2399 -10.8312
4.80668 -10.7976 -2.54868
13.844 -11.4131 -3.92216
5.04795 -10.1954 -2.44372
-13.285 16.5528 -4.53318
-27.1307 19.7079 -7.15949
-27.8395 19.7574 -7.2965
-17.4858 -46.4019 -10.6342
-16.961 -46.466 -10.5743
-14.7105 -46.4204 -10.3997
-9.80773 15.3265 -3.85866
-6.07466 -25.8192 -5.65157
3.5845 -10.8406 -2.41973
4.47254 -11.0601 -2.52827
53.0092 -12.2892 -11.6151
15.5 7.76629 -3.68458
-13.7713 16.9535 -4.62489
5.68992 -9.96672 -2.39906
31.9941 -11.2107 -7.18259
30.3452 43.9468 -11.2053
46.4039 -15.378 -10.1901
-34.2836 22.5222 -8.59764
-23.3566 -22.8546 -6.77944
15.5582 8.14471 -3.65545
-25.9646 -20.052 -6.79865
-19.7008 -50.5222 -11.2299
46.2575 -12.4475 -9.90487
-10.4991 15.4706 -3.80015
-14.2059 16.7973 -4.47939
-30.489 20.4672 -7.46087
51.1492 -11.1557 -10.6761
-9.39595 -30.2459 -6.44447
4.64694 -10.9158 -2.39937
4.85067 -11.0328 -2.44098
12.5459 -10.4274 -3.31086
-25.3221 -22.9364 -6.85663
-10.982 15.7613 -3.83557
-13.2827 -38.1315 -8.07482
-6.29218 -24.3691 -5.04422
-5.77028 -23.5967 -4.87859
-9.39993 -29.2129 -6.08163
4.57826 -11.1366 -2.36972
-29.2009 -19.9657 -6.96511
40.712 -13.0585 -8.43471
-23.7453 18.6371 -5.94122
5.45644 -11.4185 -2.42602
-41.0982 25.7801 -9.49622
-28.3608 -20.2852 -6.78886
-6.32592 13.9793 -2.97841
-17.7841 -41.7901 -8.82193
-28.8507 -19.2052 -6.67064
3.90184 -10.6053 -2.16745
53.1954 -12.3241 -10.4854
-11.6563 15.9161 -3.77252
4.50779 -10.5425 -2.17418
-31.1936 -18.9457 -6.89968
-17.0503 -27.698 -6.18239
-11.0526 -31.8982 -6.39173
10.1149 -9.37894 -2.70117
43.2238 -14.2574 -8.60053
-31.0684 20.8672 -7.00356
-28.8713 -19.9376 -6.58273
-27.9527 -20.45 -6.49311
-14.8254 -36.7322 -7.45435
-12.0121 -32.6334 -6.45302
4.26707 -10.2604 -2.04015
49.0328 -13.2142 -9.4288
6.38323 -10.7597 -2.28129
-24.317 -31.0456 -7.13871
-17.0881 -38.751 -7.75222
-14.3449 -35.6079 -6.94371
10.094 -9.6878 -2.62252
-13.2601 16.5306 -3.75928
-26.5166 -21.3845 -6.04678
-17.0588 -22.7305 -5.07766
-16.9154 -44.2016 -8.39855
-33.7466 21.2952 -7.03992
-45.8998 -89.2027 -17.642
-23.7655 18.6615 -5.26022
-21.5913 -18.7775 -4.98695
-49.2667 -99.3348 -19.3074
-29.65 20.2901 -6.23818
4.45221 -11.4206 -2.11153
5.30172 -9.56191 -1.88931
14.5038 7.79107 -2.84854
14.5965 8.37824 -2.89193
-27.0586 19.6774 -5.7362
14.9819 -12.0241 -3.25961
48.732 -13.7863 -8.62079
48.3407 -12.5189 -8.50024
51.0607 -11.8496 -8.97836
-26.6803 -21.1874 -5.77075
-15.2756 -24.9995 -4.98225
-18.925 18.025 -4.39044
-24.377 -20.0772 -5.37455
-14.3261 -35.6124 -6.48471
15.4216 7.73161 -2.90229
-47.7805 -91.4071 -17.2765
-27.7914 19.6754 -5.68855
7.45225 -12.4053 -2.42068
17.7008 -13.1784 -3.63008
-16.148 -38.5004 -6.896
44.5726 -14.0536 -7.61501
-26.174 -13.8997 -4.87385
65.285 -22.7928 -11.1823
50.4488 -13.5896 -8.49163
-9.49727 15.0797 -2.87781
-17.5815 -30.0842 -5.64524
-24.095 -18.0601 -4.8251
-14.441 -35.8275 -6.1585
-29.7711 -20.5494 -5.69022
-20.4335 17.9539 -4.26116
-22.4059 -14.0467 -4.16978
-21.5917 18.4333 -4.40187
-34.4121 20.836 -6.23376
-10.2825 15.3918 -2.85985
4.02452 -11.0241 -1.80123
4.48461 -11.838 -1.94589
-6.98292 14.1658 -2.414
-27.2463 19.8316 -5.1526
-27.1522 -20.97 -5.20719
-23.7278 -22.1924 -4.91308
-15.5492 -36.1453 -5.98865
10.5271 -9.14642 -2.02757
48.655 -12.6479 -7.6416
51.9555 -11.3184 -8.10298
-6.01324 13.3965 -2.19875
-23.809 -21.1733 -4.72876
10.3302 -5.41387 -1.72881
-28.6247 -20.644 -5.24557
-16.9364 -42.8225 -6.82496
10.0141 -9.60765 -2.05879
11.0283 -9.91429 -2.2036
52.2324 -12.0825 -7.96323
-31.1697 -20.7474 -5.49969
-26.7464 -22.0593 -5.06159
-54.4221 -103.685 -17.1124
-8.85547 -29.3467 -4.51161
18.6078 -13.4609 -3.35692
-22.6167 18.6222 -4.25956
-34.7629 21.4404 -5.95918
-17.1503 -38.4266 -6.05737
-6.99465 14.0124 -2.24152
-11.6236 15.8503 -2.80513
6.8975 -13.1686 -2.11162
7.84087 -12.1712 -2.05393
-12.2215 16.3373 -2.86876
-30.1678 20.38 -5.11958
-24.4733 -22.6595 -4.6895
7.60621 -12.4187 -2.02464
43.0045 -14.1915 -6.36747
-26.5901 -21.3048 -4.74517
-24.7427 -22.4488 -4.64005
-28.7475 20.6605 -4.90575
-25.1272 -21.2673 -4.57281
-14.4993 -34.944 -5.22038
52.4298 -11.7283 -7.4105
-14.6041 2.73425 -2.0455
-6.28266 13.8975 -2.0862
-14.9697 -39.0677 -5.6782
8.47187 -10.2496 -1.77726
9.98558 -9.82998 -1.92627
-12.7724 16.3103 -2.79567
14.4193 -11.4998 -2.48924
-19.9429 18.1418 -3.62793
48.6008 -12.5649 -6.66529
52.0483 -11.3998 -7.05496
-7.35125 14.3207 -2.08088
-7.86321 14.6155 -2.1438
-20.3073 17.8719 -3.54005
-27.9292 -20.8971 -4.54537
-13.5604 16.6072 -2.77539
-29.7061 19.8282 -4.63836
-33.3781 -14.0922 -4.66786
-28.0367 -15.0119 -4.07877
7.82831 -11.6387 -1.79056
9.59841 -9.86751 -1.79587
11.065 9.06269 -1.84562
-29.0022 -19.9849 -4.49637
-27.5425 20.1078 -4.31578
-30.574 -19.0769 -4.50582
-22.1143 -45.1886 -6.27084
48.4443 -12.5276 -6.2631
-51.0867 -97.0775 -13.625
7.60428 -11.5976 -1.72379
-7.02534 14.0551 -1.94836
-22.3 18.7262 -3.56849
-29.107 20.5147 -4.39458
7.22189 -13.8407 -1.89022
51.9879 -11.0906 -6.51406
15.6009 8.17565 -2.1271
-13.0412 -31.5831 -4.11415
7.91523 -11.7603 -1.69807
-19.1784 8.50051 -2.48412
-10.0254 -30.3265 -3.752
-33.667 -13.4447 -4.26508
-27.2498 -21.0076 -4.01203
-26.7331 -21.3776 -3.99438
48.6288 -13.0254 -5.91799
12.1931 -10.4992 -1.85884
-26.2826 19.9299 -3.7975
7.48097 -12.1845 -1.62764
8.19998 -10.0935 -1.48107
-16.4256 -39.4672 -4.80408
12.5816 -10.561 -1.86053
9.90843 -4.83324 -1.24731
15.575 8.00579 -1.98295
-9.49166 15.1132 -2.01768
-28.1193 20.5481 -3.90412
-14.2243 2.03223 -1.57363
44.7826 -14.7411 -5.28634
-49.3263 -90.1699 -11.3328
10.1482 -9.78512 -1.55442
-10.1575 15.2365 -1.99445
7.86216 -14.7938 -1.80324
52.2553 -11.3561 -5.80054
11.0857 9.11235 -1.55577
18.5228 -13.758 -2.47049
48.8785 -12.6762 -5.41249
10.4264 -9.73138 -1.50611
-22.5322 11.6042 -2.58651
-17.0996 8.42623 -1.96727
9.06866 -9.15956 -1.34548
-26.4512 -21.1657 -3.51595
-20.7801 -41.679 -4.84424
-21.246 -44.1671 -4.99214
15.579 7.81497 -1.78993
-27.1889 -20.9623 -3.51069
-11.7498 16.0197 -2.02132
-54.6554 -103.088 -11.7732
-11.7142 15.6963 -1.95093
11.057 -9.84328 -1.44575
-14.2285 -36.1309 -3.79701
-24.9828 -22.4428 -3.23623
7.37041 -14.1115 -1.53017
10.2627 -9.68716 -1.33047
-45.3379 25.2542 -5.01351
18.3602 -13.4316 -2.18147
48.8135 -13.116 -4.84686
-20.8933 -42.2294 -4.4634
-13.9879 -36.704 -3.72007
-20.8998 18.2823 -2.59969
53.2795 -11.8518 -5.10186
10.5339 -9.74223 -1.32387
45.9328 -15.1512 -4.507
-13.682 16.7736 -1.9648
-26.5269 -12.0935 -2.64873
-22.1304 -43.1403 -4.45234
17.4613 -13.0686 -1.97909
-23.5047 -43.0658 -4.43742
9.37344 -9.47134 -1.2022
-31.3297 -17.7672 -3.14287
14.0948 -11.6337 -1.58684
52.7749 -12.2312 -4.64443
10.2083 -9.8015 -1.18543
11.9073 -10.4848 -1.32937
-29.7857 20.4564 -3.01014
18.5926 -13.5571 -1.90121
-12.0758 -31.42 -2.68581
16.1376 -12.6177 -1.62901
-27.3108 -53.3693 -4.73809
-8.90271 -24.9259 -2.08179
-26.2642 19.9715 -2.55558
-28.9184 20.4419 -2.7375
-15.8166 -36.1226 -3.03059
8.38269 -10.2582 -1.05218
-42.6659 23.2216 -3.68028
-19.2551 18.1235 -1.92825
-29.1122 20.593 -2.58815
18.1026 -13.5256 -1.64869
48.9074 -13.0868 -3.69123
-25.6874 -48.6007 -3.94453
15.335 -12.1326 -1.39537
-24.5972 -15.2592 -1.9839
-11.2552 -29.8549 -2.19125
8.85512 -16.2878 -1.22999
11.7212 -10.4671 -1.07298
-20.9426 18.3386 -1.88474
14.0862 -11.6227 -1.21867
19.9373 -14.4592 -1.63763
-16.3359 -37.6392 -2.6958
17.7312 -13.4111 -1.46412
-21.5764 -42.6399 -2.98593
-10.5596 -29.2752 -2.00228
51.2782 -13.3354 -3.31534
-21.4614 -43.4814 -2.93817
40.5805 -9.84401 -2.56614
49.9857 -11.4401 -3.15251
-25.6629 -12.0612 -1.71219
-24.797 -47.8832 -3.30371
7.29289 -15.7617 -1.02863
36.3575 -24.0568 -2.60217
-9.02062 15.0617 -1.03746
-11.4109 -29.768 -1.80276
18.39 -13.743 -1.28529
-8.75826 -11.3524 -0.780704
15.5906 8.00028 -0.956808
15.2536 -12.0742 -1.03845
-11.7332 15.9019 -1.03797
-12.0415 -29.8417 -1.6958
15.4768 8.13998 -0.866468
-11.8813 -30.3702 -1.58624
-12.9255 16.3853 -1.00385
-20.3073 -40.8508 -2.19075
10.4008 -9.81038 -0.653048
-16.5058 -37.8582 -1.84979
13.613 -11.1909 -0.81413
-11.1571 -31.0942 -1.45232
-12.479 -30.7413 -1.40543
8.10413 -14.9661 -0.748006
-54.394 19.8547 -2.39847
-9.81359 -29.9175 -1.32751
-43.7311 23.7835 -2.01979
20.4388 -14.6834 -1.01815
-19.0851 -33.7009 -1.50693
18.635 -13.8509 -0.901241
-25.8796 -50.2191 -2.10291
-12.6671 -33.2119 -1.29226
-29.4587 20.2419 -1.31199
49.6256 -12.7859 -1.84976
-81.7445 30.6432 -3.15458
-32.5218 -18.3177 -1.27432
-22.6369 -45.02 -1.66015
-17.7835 -38.9681 -1.42067
22.3245 25.8251 -1.15559
-19.3278 18.1135 -0.86895
9.6529 -17.0372 -0.650688
10.2484 -9.78328 -0.457073
12.3426 -10.8655 -0.532142
20.7213 -14.651 -0.831276
39.9434 -15.0645 -1.41784
24.7862 30.0098 -1.27337
-24.5589 -12.3172 -0.851178
-20.5849 18.3324 -0.845855
-27.9104 19.7687 -1.07236
-16.8139 -38.6463 -1.28386
-10.1056 -28.5927 -0.919352
-8.20822 -24.7028 -0.749778
-14.7 -37.501 -1.19914
-11.6291 -31.5109 -0.94542
-29.5308 -17.9037 -0.905634
12.4828 -10.5894 -0.436548
18.0798 -13.4469 -0.591631
-35.2233 21.7915 -1.0968
-26.6794 20.3017 -0.835031
-27.5378 19.5686 -0.86922
-27.1655 19.9102 -0.801624
10.4053 -9.79497 -0.329233
-36.3978 12.5807 -0.851162
-16.9803 -27.3086 -0.738569
-23.1152 -38.7075 -0.991364
23.9114 -15.9914 -0.629972
35.5567 -21.56 -0.935543
-84.9197 37.2386 -2.01247
14.7705 4.0832 -0.319471
-42.5609 15.3447 -0.883774
34.8672 60.9651 -1.3373
26.0945 -12.1478 -0.507326
55.6615 -12.8157 -1.0688
-26.6485 -19.1507 -0.583871
-24.8304 -24.3862 -0.534685
-13.5831 -33.33 -0.579534
-10.1019 -28.6098 -0.422421
13.9312 -11.4557 -0.295028
-23.3532 -11.0457 -0.387017
20.6963 -14.9547 -0.388074
-82.2306 36.8482 -1.26363
-100.116 42.683 -1.48724
-26.2397 -11.6617 -0.366439
-28.1469 -21.0633 -0.473028
-21.9749 -44.2907 -0.639379
-18.9487 -40.3246 -0.5853
-29.2309 -19.9622 -0.446375
-26.7016 20.3157 -0.400993
18.8887 -14.1051 -0.278005
34.0477 -21.1103 -0.468987
-27.163 19.9424 -0.380946
-32.687 -18.2623 -0.405871
-13.9458 -31.9813 -0.353427
-8.86188 -26.6785 -0.267148
-23.6162 -41.6093 -0.413444
-13.1032 16.6227 -0.169484
-24.0536 -12.1265 -0.20705
-13.7072 16.7111 -0.154766
-20.3611 18.185 -0.146962
-23.5781 -45.0453 -0.251405
-19.0002 17.8229 -0.125076
-26.8815 -12.7348 -0.0873479
-9.51339 -12.2293 -0.0466504
15.3512 8.06589 -0.0302595
9.4355 -9.15798 -0.0676414
12.1362 -10.6717 -0.00742968
-83.2058 36.0031 0.0551223
-26.1438 -7.90215 0.0701837
-30.2512 -16.57 0.0672
-8.39751 -24.9547 0.102283
18.8149 -13.6692 0.101971
-13.7711 -31.6127 0.174719
20.9709 -14.775 0.137351
8.37769 -14.4021 0.12414
28.9556 -11.879 0.190582
39.4697 121.76 1.05544
-46.8168 16.7175 0.473699
18.001 -13.3404 0.21475
42.6513 -8.70672 0.404204
-26.4232 -7.44983 0.32987
-31.3468 -18.9196 0.420404
-8.51578 -24.3966 0.294185
-45.2032 24.7741 0.625244
-9.48533 -26.2844 0.351123
-7.70283 -23.6765 0.315398
7.64786 -15.6343 0.224508
8.23197 -12.6828 0.200433
-25.0618 19.6737 0.481085
12.3682 -10.8014 0.247343
-21.6837 18.5446 0.464038
11.9148 -10.6384 0.251159
14.2485 -11.7296 0.291304
41.3051 -8.83829 0.696376
-29.767 -19.9422 0.668943
16.7643 27.282 0.580959
-27.6181 19.7482 0.660298
7.44489 -15.5568 0.336272
8.0257 -12.631 0.289514
8.84892 -10.3837 0.266962
8.66979 -8.99983 0.29879
23.1254 36.2755 0.922469
-84.9088 36.4803 1.87602
38.0829 78.3563 1.84296
8.546 -10.4423 0.305516
11.0347 -9.99437 0.359185
-26.175 -8.39289 0.671606
-21.0254 18.3529 0.747888
-24.5873 19.3882 0.833359
-26.3069 -7.89843 0.73306
10.0121 -9.69141 0.376328
10.4747 -9.73525 0.389656
-22.8919 19.2946 0.80611
27.7074 -5.60444 0.781751
-83.6757 28.8542 2.49699
-7.19244 -9.11309 0.329882
14.2596 -11.6977 0.54937
16.5366 26.945 0.956114
-30.3616 21.5293 1.11233
-18.5095 -13.6415 0.733683
7.46343 -15.3975 0.538908
8.55505 -13.3366 0.497814
-59.2066 26.1835 2.01214
-25.943 -7.31609 0.893362
-10.9664 -16.7905 0.673548
-25.618 -8.00599 0.937344
16.9913 11.6306 0.732679
-26.335 -16.3184 1.09774
17.8639 31.0422 1.25673
-26.9635 -14.7061 1.15218
25.505 -4.60473 0.9309
-24.489 -17.4163 1.12885
-6.80201 -7.41588 0.385302
9.86069 -9.6155 0.511469
13.0977 14.3289 0.736576
35.5215 73.3192 3.03933
35.3121 75.2036 3.08179
35.2559 103.203 4.11938
-10.7617 -8.51766 0.548078
9.49872 -9.43941 0.529125
-23.023 18.9665 1.20346
23.4525 -3.17721 0.953083
15.4063 25.1606 1.2008
-25.5565 -15.5226 1.23933
10.2535 -9.72208 0.578684
13.1855 15.1865 0.852963
7.79339 -14.7597 0.70841
16.157 20.9949 1.14891
23.7982 32.878 1.75428
-8.53305 -12.4079 0.671653
-8.84823 -13.8388 0.740126
8.60346 -12.4004 0.664659
9.39811 -9.49532 0.602899
26.2285 -4.0171 1.19196
-27.1142 -7.90094 1.29893
7.74196 -12.728 0.684824
-7.72182 -7.59829 0.515897
27.2617 55.0236 2.90389
-25.3374 -15.659 1.42261
-8.80114 -12.3462 0.731508
10.5174 -9.75805 0.674827
18.7826 22.9592 1.37905
20.5074 57.022 2.90061
-27.1654 -12.0323 1.43065
-6.28107 -7.65722 0.493369
17.9599 41.7701 2.29513
-26.8528 -10.5154 1.45879
-7.14159 -6.56648 0.495642
-6.25525 -7.09061 0.483943
18.7461 33.963 1.99237
23.0476 32.7181 2.10801
11.0057 12.8705 0.904572
15.4282 20.9975 1.38366
10.1799 -9.72266 0.753079
16.0707 20.9121 1.44082
17.0369 26.3159 1.70817
-24.8035 17.465 1.65624
-6.48442 -7.62014 0.561088
-23.8053 18.2666 1.66099
7.38304 -15.5892 0.963151
-6.5628 -8.4577 0.617456
10.3871 12.9752 0.967041
16.7786 28.2739 1.9021
7.76832 -15.6025 1.00127
15.3292 25.0117 1.71589
-7.71132 -7.57904 0.657882
12.0028 12.0877 1.00537
15.9265 21.1845 1.57698
-6.78394 -9.18296 0.717882
8.02269 -12.7849 0.91833
12.2984 -10.6076 0.983207
6.8045 -12.474 0.879598
-6.78053 -6.26696 0.582229
15.7435 22.3378 1.71334
16.8825 7.4952 1.18989
-6.64924 -5.80879 0.584335
7.81826 -16.2638 1.19996
10.4841 23.6806 1.73273
10.8497 13.0796 1.1512
14.5794 19.6065 1.69
13.524 22.426 1.79712
11.8339 12.502 1.19779
7.42031 -11.0661 0.941365
12.0044 12.282 1.23247
10.4695 -7.38975 0.909569
12.9314 12.5193 1.31117
10.7328 -9.06321 1.02705
-6.05045 6.5582 0.662413
10.7559 9.47212 1.06769
12.7781 19.108 1.71621
12.3453 19.6708 1.73648
-6.48186 -7.18391 0.756835
11.7255 20.2401 1.78137
10.3551 -9.74885 1.09703
10.9948 14.7608 1.43182
-6.1345 -4.10973 0.58615
9.93067 19.8978 1.76455
10.76 -7.36229 1.04137
12.9977 12.0607 1.42283
9.75707 10.7789 1.12706
10.5618 20.5089 1.84459
-6.69015 -8.87402 0.913411
7.47953 -10.4433 1.04269
12.7764 12.2236 1.4383
12.6704 12.4627 1.46521
11.9081 12.448 1.41575
-4.48326 -10.2356 0.950289
10.7712 13.4776 1.45752
-6.58006 -5.74918 0.758047
-6.42399 -6.31006 0.766411
-4.64905 -10.2002 0.963426
-6.82999 -7.24741 0.864358
9.94797 -7.77381 1.08819
-6.64156 -7.51562 0.884799
-6.56327 -7.19329 0.863132
9.76713 13.0391 1.43432
-6.46458 -7.78512 0.911439
11.1669 9.37062 1.31962
10.97 14.1297 1.60549
10.8511 9.5314 1.31315
8.12263 14.7443 1.5384
-6.04041 -7.56269 0.894109
-6.38239 -8.33854 0.977258
11.6245 11.2126 1.48045
11.635 9.49369 1.39614
11.2819 11.2148 1.48151
6.89183 15.9261 1.6209
-11.0719 2.83734 1.07175
-6.08658 -3.98987 0.685795
-6.43567 -5.95208 0.818571
9.86006 13.907 1.63428
-5.93232 6.44659 0.859032
8.5017 -7.05789 1.07396
8.29077 13.8248 1.59159
-6.61487 -7.12844 0.986783
9.65761 12.0768 1.55018
7.2908 12.9458 1.4988
7.38232 13.6006 1.56837
9.8136 9.36061 1.39496
6.18869 14.753 1.64923
9.53936 12.9741 1.66925
-5.83104 -4.25442 0.76099
6.27471 14.4181 1.6474
6.52592 14.2959 1.64307
-6.6639 -4.23232 0.84887
8.998 9.2563 1.36788
9.42779 10.5036 1.52613
7.57552 11.3749 1.47666
6.04303 11.9017 1.44304
-5.89103 -6.93054 1.00135
10.536 6.62235 1.36917
9.21678 8.34277 1.36234
7.57433 12.1081 1.56819
7.10123 12.0691 1.53959
5.58225 12.3943 1.50438
5.09506 12.6622 1.51925
4.95694 14.418 1.66899
10.1187 7.23574 1.38115
9.00536 9.57321 1.46023
5.58775 11.955 1.47811
-6.4444 -6.33331 1.01222
7.08524 11.059 1.47121
4.58101 13.9712 1.65418
10.1654 -3.33007 1.18864
-5.78618 -5.13115 0.900902
7.75955 -6.51386 1.14665
10.6786 5.86016 1.38958
-7.17147 -0.956798 0.831041
-5.94251 -5.08631 0.905758
5.6033 -5.9319 0.936483
5.26509 12.0757 1.52251
-6.57551 -4.35487 0.918702
4.92856 -8.03445 1.08529
10.6712 5.27987 1.38988
9.10222 8.07927 1.42081
-5.73619 -4.17419 0.831319
-6.16688 -5.01388 0.944327
4.62166 -8.88115 1.18476
5.33635 -6.28468 0.985175
10.4132 4.87006 1.37102
8.7232 8.47132 1.46484
-5.45158 -3.56734 0.809026
5.46713 11.9104 1.5919
9.24188 6.40315 1.36924
8.19709 8.53146 1.47422
-6.15348 -5.44902 1.02914
4.19049 -8.55722 1.18699
8.85821 6.83094 1.39919
-6.14498 -5.07723 1.01452
9.28854 6.14465 1.41458
8.35346 7.28955 1.40703
8.28604 7.66725 1.43383
6.13505 -5.67595 1.06915
-6.66781 -4.24877 1.01981
8.28602 8.18162 1.50262
-7.14791 -1.01172 0.93497
-6.67848 -2.72564 0.945608
9.15988 4.18608 1.31234
8.57635 6.76666 1.42674
5.37893 -6.48549 1.1032
5.30806 -6.68423 1.12576
7.19955 -4.48713 1.12536
-6.91544 -1.66483 0.956336
-6.78159 -2.14688 0.954163
-5.75838 -4.22592 0.959834
8.29851 6.79274 1.44653
8.7777 4.52685 1.33989
8.80291 5.27039 1.39448
8.19268 7.28481 1.48475
-6.53775 -3.58441 1.01681
9.04153 4.24485 1.36062
8.4238 5.94617 1.40494
7.81182 5.94698 1.33131
-6.12048 -4.14076 1.01612
-5.68892 -4.32068 0.980712
5.47356 9.22342 1.47417
3.75296 10.38 1.52627
-7.15678 -1.06068 1.00432
-6.62128 -3.7654 1.06176
5.29277 -5.92741 1.09383
5.56896 -5.74874 1.10661
7.77783 -3.68507 1.1995
3.49559 10.4804 1.54168
8.56256 4.68693 1.37416
7.69265 -3.83564 1.21528
7.8955 -3.46956 1.22534
8.07631 -3.43862 1.24132
9.12997 2.87562 1.37157
5.18003 -6.03754 1.13882
7.62956 -2.95925 1.18712
-6.69716 -3.17544 1.0846
8.21559 -2.88312 1.26506
8.95865 -1.88096 1.33894
5.10525 8.74024 1.48714
3.03816 9.70686 1.50724
7.98163 -1.94793 1.20633
7.34826 5.85245 1.39284
3.54431 9.80322 1.5345
3.28216 10.087 1.56594
-7.16095 -1.01276 1.07481
-6.8501 -1.95798 1.065
7.06353 6.39433 1.43158
-6.06272 -2.19814 0.971119
-7.02791 -1.33405 1.08259
8.07988 4.90367 1.4332
5.79972 7.47313 1.42838
5.37642 7.75176 1.42891
5.14055 8.14611 1.44942
7.02544 -3.35154 1.17296
7.53078 -3.24652 1.2515
7.9196 -2.85688 1.27851
-7.11761 -0.712017 1.09465
-6.87421 -1.89213 1.10371
7.05159 -3.2115 1.19397
4.07589 -6.28636 1.15272
-6.82819 -2.0089 1.11925
-7.13697 -1.06081 1.1356
7.4775 4.85069 1.40114
-6.9868 -1.40014 1.13663
-7.06005 -1.26229 1.15358
-6.87285 -1.95421 1.16539
7.17506 4.83468 1.40579
-6.87873 -1.8836 1.17496
7.11489 4.93854 1.43203
6.70304 4.9171 1.38082
5.26378 6.31206 1.36263
4.73256 7.26277 1.44116
3.87925 8.05017 1.47898
-7.03709 -1.33236 1.19858
3.09406 -6.39378 1.18955
7.24986 4.49607 1.43066
6.60329 5.31071 1.423
4.17371 -5.77807 1.19589
4.21473 -5.37317 1.15049
-7.06273 -1.21537 1.21863
-6.3738 -2.53503 1.1678
7.53961 2.89581 1.36384
7.13344 3.94902 1.38319
-6.19401 -2.65771 1.15083
6.86784 4.15559 1.37174
5.92555 -3.66911 1.19505
-7.1865 -1.00913 1.25779
-6.15371 -2.20673 1.1276
5.78013 -3.80815 1.18855
5.56307 -3.94603 1.19085
3.63797 7.24214 1.41947
-6.59627 -1.68244 1.19884
4.73871 -4.72373 1.17241
-6.89823 -0.888573 1.24171
4.98944 -4.7054 1.20865
4.37145 6.5563 1.39977
6.67384 3.52072 1.35654
6.71375 3.73207 1.37373
-6.25781 -1.45685 1.15873
3.89614 -5.74665 1.25651
5.12574 5.66589 1.39257
-5.96211 -2.11393 1.16308
3.68231 -5.56121 1.23382
3.41951 6.8327 1.4234
-1.53797 -5.2521 1.04976
6.53142 2.7693 1.34413
-1.96631 -5.26403 1.08968
6.39091 2.83284 1.3399
-2.59338 -5.00596 1.11319
-3.52111 5.3467 1.38468
4.4975 3.91665 1.35502
4.31469 -2.99057 1.21766
4.77632 -2.25482 1.27082
4.22153 3.30888 1.32262
3.86163 -3.05014 1.26829
-3.77525 6.68642 1.95177
4.04067 2.58887 1.33461
-1.34472 -3.8522 1.15184
-2.20089 -3.39786 1.15823
3.88075 2.37705 1.3124
-2.8656 3.53274 1.36351
-2.37226 -2.79056 1.14468
-2.27531 -2.8132 1.15022
1.93711 -2.94608 1.23104
1.95862 -2.9192 1.26078
2.08064 -2.63179 1.24125
-2.05052 2.8194 1.32691
2.85346 -0.564322 1.27416
2.82738 -0.34121 1.25343
-2.02329 -1.56874 1.18157
-2.01539 -1.40874 1.20819
-1.79836 -1.73627 1.24783
-1.94095 -1.10104 1.17865
-1.93404 -1.04231 1.20572
-1.8984 -0.858605 1.20805
-1.88626 -0.691712 1.20033
-1.88551 -0.685124 1.22731
-1.86621 -0.459066 1.20282
-1.83426 -0.337789 1.2013
-1.81841 -0.392047 1.20738
10.2065 -9.28264 -9.31514
2.25429 -18.3596 -9.3384
-7.02605 -8.29394 0.43615
8.24022 -9.02429 -10.726
8.4662 -8.82145 -10.7306
8.43159 -8.49076 -10.1181
7.10774 -12.1726 -11.6075
8.78687 -9.24077 -10.0225
8.08721 -9.18679 -9.38209
5.95138 -12.9614 -10.8589
9.7574 -9.1287 -10.0606
6.22884 -14.2139 -11.6678
8.56415 -8.95213 -9.29712
8.28466 -9.45455 -9.38264
7.53096 -9.52651 -9.02973
6.00317 -14.3058 -11.3043
7.98869 -9.61141 -9.00041
8.12482 -9.40961 -8.93786
7.34194 -10.8658 -9.3194
7.02751 -11.3743 -9.4607
10.4755 -9.5661 -9.94502
6.74531 -11.4896 -9.10366
8.3301 -8.93042 -8.11598
7.64467 -9.61849 -8.14744
8.83803 -8.99419 -8.36533
12.3438 -10.5772 -10.6149
8.0346 -9.83889 -8.32736
6.67994 -13.1044 -9.58756
8.24746 -9.52626 -8.20103
4.98878 -15.8877 -10.7019
-0.46804 13.4097 -8.57909
8.03248 -9.58995 -8.00481
7.62682 -11.2667 -8.64454
8.72078 -8.9027 -7.92331
11.3818 -10.0566 -9.61615
9.3491 -9.15718 -8.19156
12.3759 -10.5429 -10.1704
8.42632 -8.89618 -7.52202
3.97615 -16.4262 -10.3538
4.24536 -15.2473 -9.70996
0.091713 13.6922 -8.31715
8.19019 -9.75344 -7.61563
3.91158 -15.3359 -9.43247
12.0808 -10.3322 -9.50317
7.14993 -11.506 -8.02604
8.0725 -9.14255 -7.20987
5.60528 -14.2246 -9.01942
6.70623 -13.0843 -8.58805
8.71901 -8.94738 -7.26513
10.1494 -9.50215 -8.09059
2.84396 -11.9099 -7.00851
5.69465 -14.3787 -8.73847
10.0751 -9.55012 -7.83113
6.89367 -11.498 -7.53167
3.16878 -19.347 -10.9917
9.29009 -9.34004 -7.36921
12.871 -10.7886 -9.39146
7.11026 -11.4362 -7.48533
4.77464 -14.8037 -8.58364
6.46374 -13.064 -8.0014
0.842532 17.888 -9.75149
15.0309 7.94637 -9.2464
4.29012 -14.4353 -8.121
15.6742 -12.3937 -10.753
15.4202 7.6661 -9.18117
14.3941 7.93443 -8.74158
4.82885 -14.9489 -8.33615
12.7502 -10.7001 -8.74336
1.71489 -18.956 -9.79829
12.0557 -10.3945 -8.13932
0.149005 10.5115 -5.28133
1.97175 -18.7909 -9.59274
14.8907 -11.8118 -9.59631
-0.00855775 13.6945 -6.87357
-6.78847 14.102 -7.8388
11.1838 -10.125 -7.56487
7.9302 -9.93125 -6.3154
8.96641 -8.51036 -6.06798
18.3662 5.71691 -9.38999
-7.87616 14.9229 -8.15061
12.3578 -10.3714 -7.79305
11.0874 -10.1167 -7.19219
15.7865 -12.0951 -9.57576
17.3251 16.4255 -11.3602
7.94165 -11.7155 -6.72517
15.4872 7.65519 -8.11422
14.806 -11.7147 -8.80855
-10.9536 15.6815 -8.75973
16.9571 -12.8401 -9.70088
10.0844 -2.52736 -4.77109
-8.75722 -1.5912 -4.05125
19.6933 19.0163 -12.3746
4.11621 -9.53031 -4.69713
-9.39912 15.3491 -8.07865
-5.23007 4.35213 -3.06352
2.49086 -20.3803 -9.23199
7.29463 -11.9828 -6.29741
9.95047 -9.5802 -6.07841
16.5768 7.56489 -8.04723
10.581 -9.33136 -6.17314
-6.15512 13.9715 -6.66444
1.44024 -17.5575 -7.62202
-10.2498 15.5915 -8.03005
9.91697 -3.48677 -4.49721
-9.00244 -1.68002 -3.93518
7.47731 -11.7457 -5.8689
16.9439 -12.7994 -8.87396
15.1006 7.98597 -7.17362
19.7116 20.5252 -11.9159
10.4735 -9.86646 -5.96492
19.9145 -14.2484 -10.2633
0.936583 -19.9595 -8.32982
-4.25285 12.9945 -5.63119
-9.54467 -1.06668 -3.98333
14.5094 8.01501 -6.77646
21.818 23.7504 -13.173
-12.4859 2.34094 -5.17684
15.6233 7.42551 -7.0041
-4.86376 13.3187 -5.69967
3.86496 -9.31832 -4.0007
13.1649 -10.9012 -6.68301
14.9608 -11.8068 -7.43388
20.3277 22.7729 -11.8654
-8.35305 -1.03114 -3.20038
19.6308 6.05561 -7.97367
1.4613 18.5383 -7.21495
-8.05445 14.5099 -6.39535
8.90181 -8.85498 -4.75278
12.1285 -10.6853 -6.20431
20.3635 23.6305 -12.0414
0.639467 14.7416 -5.65245
-1.56999 11.9969 -4.65203
2.71942 -12.1425 -4.76924
-8.45345 -1.20651 -3.24875
3.22101 22.7314 -8.7141
0.634432 -20.1648 -7.62708
16.381 -12.5482 -7.76769
9.83671 -3.588 -3.94508
-13.2905 16.382 -7.86035
-1.81379 -23.2516 -8.76396
-7.55648 -3.35613 -3.03594
-11.4665 -73.5326 -27.433
1.0577 -9.85462 -3.6497
7.52879 -12.0136 -5.16868
14.6425 8.17901 -6.06378
-7.95906 -2.73189 -3.02896
-1.9519 -20.2977 -7.37037
0.741046 14.6397 -5.22865
-3.67512 12.4194 -4.57937
6.15472 -11.7559 -4.65389
17.1186 -12.9316 -7.58483
19.9503 6.16373 -7.35398
2.0755 20.4749 -7.22872
23.4599 28.3823 -12.8284
-8.99433 -1.30221 -3.10755
-13.4943 16.6567 -7.35658
-40.6844 -108.478 -39.8327
3.06558 -13.6335 -4.79954
-8.16352 14.7453 -5.75814
-39.707 -111.844 -40.5236
20.172 -14.2831 -8.45715
-4.66607 13.3978 -4.82215
-10.5987 -71.8318 -24.5366
14.9299 -12.0239 -6.4202
17.6625 7.9134 -6.41718
1.19072 -18.8902 -6.28499
1.66755 18.8356 -6.25172
1.42474 -9.96935 -3.32845
45.2608 -23.1319 -16.6642
-58.6192 -103.398 -38.3724
-42.4312 -110.782 -38.4551
-2.75296 -20.4466 -6.6675
6.60976 -10.7444 -4.02414
19.1343 -13.507 -7.48862
2.00111 19.7672 -6.32828
-12.1501 16.2205 -6.38916
1.23487 -18.7806 -5.87899
-3.96343 13.5545 -4.38638
-10.0225 15.1863 -5.51417
-2.07942 -21.3764 -6.54547
3.27752 -10.0715 -3.20607
-40.1732 -110.486 -35.3684
0.672946 -19.539 -5.89583
19.1035 11.0438 -6.53815
-20.0679 -86.6157 -26.6108
21.0451 -14.9352 -7.64408
18.3505 5.80722 -5.65511
16.1504 11.8362 -5.80035
-7.26256 14.0591 -4.60646
4.57132 -11.3022 -3.52878
-37.5184 -105.984 -31.8867
3.93105 -11.4215 -3.42302
-8.72874 -1.27265 -2.4927
4.62762 -11.8993 -3.56844
-12.0963 16.169 -5.61721
-8.18913 -40.802 -11.4433
-8.5176 14.5617 -4.58965
-12.6708 1.90027 -3.51443
-15.2312 17.4999 -6.29962
29.598 -19.4802 -9.58658
-29.0138 -102.672 -28.6478
-2.87708 -20.6074 -5.60049
4.11459 -9.91494 -2.85865
50.7506 -16.4779 -14.2777
-8.97649 14.9225 -4.63578
34.3719 -16.3331 -10.1465
55.0906 -16.0836 -15.2136
11.3107 -10.0841 -4.00123
-5.91295 13.6907 -3.89552
-13.0851 16.4065 -5.50751
-23.4573 -31.9157 -10.3358
-5.74593 -27.2436 -7.26888
5.42718 -10.4583 -3.03582
7.12845 -11.3925 -3.45378
-6.60078 14.0104 -3.93686
-9.66149 15.0492 -4.57029
19.4755 -13.872 -5.88284
-7.07471 -28.0685 -7.21279
52.2506 -13.2391 -13.3686
-26.0864 -75.1344 -19.3822
-6.36604 -27.5176 -6.91243
11.7985 -10.398 -3.8574
24.2057 32.1261 -9.75481
-7.31009 14.1887 -3.87112
-10.6973 15.5499 -4.56999
20.9724 5.77074 -5.26551
15.1442 8.00163 -4.07431
-22.7834 -34.255 -9.81886
-48.4966 -107.366 -28.0283
4.43049 -10.1032 -2.59803
15.7588 7.80762 -4.15348
4.12522 -9.78253 -2.48238
-4.77838 -23.8598 -5.64822
6.16433 -10.8147 -2.87233
51.6094 -12.4882 -12.3404
-11.6631 15.8883 -4.53823
-21.4951 -58.2912 -14.4408
-31.2836 -94.0688 -22.8731
15.4117 7.89519 -3.92658
50.2502 -10.8695 -11.6468
-8.95462 14.9176 -3.89574
-6.91449 -24.7288 -5.70776
-22.1842 -54.5182 -12.7874
4.16785 -10.3589 -2.4146
49.3747 -12.6654 -11.124
15.693 7.78757 -3.76045
-9.72001 15.1747 -3.86166
-17.584 -27.6436 -7.03653
-16.9354 -46.8057 -10.7913
-12.5971 -39.3737 -8.91348
5.352 -10.8089 -2.58854
12.8564 -10.5755 -3.64584
10.1502 -9.59279 -2.93681
52.0393 -12.1838 -11.435
-13.3999 16.6035 -4.49074
-27.5606 -20.3408 -7.25319
48.0807 -16.0858 -10.7216
15.4067 8.14344 -3.64348
-23.0983 -54.9012 -12.3958
-30.6171 20.7054 -7.55747
50.8409 -14.1639 -10.6967
-6.02694 -24.6721 -5.15344
4.44057 -12.8828 -2.72403
51.3496 -11.078 -10.6854
8.11336 -9.23213 -2.41247
12.7454 -10.5487 -3.3099
49.4618 -12.732 -10.177
-23.9449 18.0702 -5.95516
-29.7918 -18.8493 -6.96178
-23.6622 -22.557 -6.46185
-8.49415 -26.5831 -5.55144
6.81948 -11.4053 -2.63309
8.00622 -8.37518 -2.32542
53.293 -12.4614 -10.69
-11.6482 15.8951 -3.81051
-23.7759 18.6337 -5.8709
-15.6311 -36.8326 -7.7346
16.8094 12.7186 -4.04215
-6.29091 13.8507 -2.92175
-32.5359 20.9454 -7.39467
-28.2803 -20.4536 -6.67208
-26.9647 -21.1136 -6.57361
-30.8418 20.5523 -6.97914
-28.9047 -19.0659 -6.5351
18.8616 5.93153 -3.6986
-29.5154 -17.8075 -6.4291
-10.7497 -30.9989 -6.11582
4.2854 -11.1374 -2.23249
-16.3553 -40.7222 -8.1616
-11.983 -32.2869 -6.30134
4.47911 -10.8345 -2.10169
14.1562 -11.0595 -3.23246
52.5937 -11.7027 -9.67953
-13.3709 16.5851 -3.80902
-23.9027 18.7482 -5.36467
-52.0554 -101.322 -20.2127
15.6639 8.29429 -3.09643
-25.6915 -22.387 -5.93102
-49.7534 -100.28 -19.4098
-16.2145 17.4916 -4.10859
49.3655 -12.6439 -8.74929
-7.28533 14.0369 -2.68147
-8.7894 16.1894 -3.114
-24.668 -20.3841 -5.52408
51.7247 -12.1752 -8.98674
-26.9566 19.6359 -5.61585
-26.0501 -20.0407 -5.48479
-16.4442 -27.7725 -5.41475
-18.6781 17.8606 -4.30193
-28.2415 19.9457 -5.76899
17.4291 -13.002 -3.55588
-9.45669 15.0161 -2.82607
-36.8168 21.6646 -6.7771
-27.1365 -20.3848 -5.42424
-28.7108 -19.8021 -5.48354
3.94926 -10.8985 -1.79972
-21.2365 18.1424 -4.31585
-12.429 -13.9462 -2.88371
18.5988 -13.1476 -3.52108
-10.2165 15.2928 -2.79724
53.6415 -12.5707 -8.3641
-23.8209 -21.2089 -4.78323
-16.0243 -37.1366 -6.10663
-25.9501 19.4631 -4.85202
-33.0685 20.6197 -5.78503
-27.0434 -20.9904 -5.09754
51.6891 -11.0758 -7.87374
-28.7866 -20.8168 -5.18033
-41.62 23.2387 -6.85368
-30.3563 -20.2463 -5.24148
7.76535 -14.8918 -2.42484
-31.1521 -18.1035 -5.08875
-6.33084 13.9615 -2.13174
-11.9442 16.126 -2.79555
-28.0958 20.2288 -4.8409
-30.1067 -14.3048 -4.61039
-23.5469 -20.1931 -4.26822
-17.1661 -38.2294 -5.77126
-11.1692 -32.6536 -4.74398
41.8597 -13.9199 -6.04864
-20.7368 18.224 -3.67621
-14.2323 26.7788 -4.00185
-27.6404 -20.6981 -4.49756
-26.1637 -21.4625 -4.46376
-29.0729 -20.021 -4.51072
8.16751 -10.3426 -1.69681
49.5757 -12.6894 -6.56797
-29.2591 19.9112 -4.50146
-26.3601 -14.0645 -3.80005
6.5793 -8.51909 -1.3687
52.0609 -12.2355 -6.78262
-27.2495 20.028 -4.22226
19.5129 -14.1543 -3.00466
15.8865 -12.3757 -2.4682
-14.5734 16.6725 -2.65211
-26.389 19.8765 -3.9991
-28.496 20.1451 -4.20393
-9.48595 15.0899 -2.06325
-27.1346 -19.5132 -3.92149
-15.6165 -37.5864 -4.72645
14.163 -11.4537 -2.12683
40.7548 -13.4663 -4.96605
7.1352 -11.6322 -1.55973
12.1581 -10.5347 -1.8074
18.1306 -13.498 -2.54132
-10.1435 15.2125 -2.02861
-14.822 -32.9297 -3.97595
7.81044 -14.5456 -1.79805
12.605 -10.5258 -1.81369
49.4193 -12.6717 -5.60334
-33.6204 20.9636 -4.25416
52.1991 -12.1966 -5.77484
16.3622 -12.5632 -2.18942
-11.8342 15.9904 -2.04763
-45.9759 -86.2892 -10.0326
-13.7771 -21.994 -2.59848
-20.0415 -41.7784 -4.64354
15.3506 8.127 -1.74499
-14.2175 -36.062 -3.91616
15.3406 -12.1011 -1.94683
-12.7659 16.3293 -2.01477
7.44887 -14.2701 -1.53917
10.191 -9.66549 -1.35311
18.7955 -13.7423 -2.2672
-25.8233 -12.3388 -2.68752
-13.6354 16.6992 -2.01425
-24.4305 -47.5947 -4.96112
-40.8699 14.5906 -3.91547
-29.3973 -18.3938 -3.05855
17.7949 -13.3333 -1.99613
44.3347 -14.7508 -4.18215
12.1048 -10.7593 -1.33418
50.0345 -12.7872 -4.31027
-11.7946 -30.6944 -2.63115
-25.463 -49.7841 -4.33412
19.5511 -14.2464 -1.90589
-26.5715 20.1113 -2.5528
8.20871 -10.1123 -1.0032
-28.767 20.3645 -2.62181
-12.1537 -30.0631 -2.4128
-17.1088 -39.1397 -3.07118
-24.6391 -46.3622 -3.71239
-23.301 -46.6629 -3.5517
13.7464 -11.4395 -1.20008
18.8747 -13.7462 -1.57451
-34.0231 21.1815 -2.62354
50.4318 -12.9107 -3.42083
-25.6966 -12.0822 -1.69114
-25.882 -49.9998 -3.38504
15.9378 -12.4243 -1.21417
36.6198 -24.1223 -2.39041
36.3619 -22.916 -2.34412
15.9878 7.8979 -0.934492
15.3845 8.15961 -0.904681
-11.7892 16.0898 -1.01794
-17.2194 -37.9952 -2.12494
-9.88456 -26.8966 -1.40896
-24.1981 -13.9741 -1.31591
-26.9052 -50.7011 -2.77606
10.5052 -9.89373 -0.718938
14.7289 -11.7126 -0.921384
16.7289 10.6444 -0.947908
17.1329 12.0099 -0.986328
8.03509 -14.738 -0.7912
-18.6543 -5.50326 -0.830072
-21.816 -38.8793 -1.94589
11.7396 -15.8495 -0.800159
20.0865 -14.4848 -1.00904
49.4694 -12.6355 -2.03633
-8.49395 -11.2328 -0.537723
51.3856 -12.0316 -2.08052
24.9241 29.9718 -1.35482
-28.8303 19.7093 -1.21489
-58.8278 22.3993 -2.15797
-31.6492 -17.7466 -1.16692
-13.1175 -32.6923 -1.11465
18.2386 -13.6062 -0.739869
19.7739 -13.9149 -0.755827
14.943 4.0486 -0.46343
-17.3113 -39.7701 -1.27863
30.9791 51.196 -1.67072
-20.5491 18.3063 -0.791903
-8.90209 -26.9899 -0.750306
49.8171 -10.5816 -1.43026
-36.0246 22.4086 -1.15137
-15.2273 2.1145 -0.313874
-46.2448 16.6292 -1.1769
-26.6628 -12.0809 -0.615408
-32.5025 -19.509 -0.860868
-18.6088 -31.036 -0.770795
50.8582 -11.8087 -1.12889
-4.1192 8.86261 -0.175564
-27.3072 20.6387 -0.689751
-27.8101 8.84613 -0.610131
42.1619 73.8544 -1.61868
-26.8029 19.7826 -0.643375
14.215 -11.6469 -0.31667
-30.0344 -18.6901 -0.533249
-20.8521 -41.9292 -0.67095
19.4069 -13.995 -0.345842
-14.6806 1.85193 -0.190833
-9.11504 -27.5566 -0.358549
-13.0778 16.6027 -0.222309
-86.1789 36.9966 -1.00939
-16.3582 -36.0295 -0.426998
-14.4965 -33.3122 -0.374331
-9.0249 -24.3173 -0.157075
35.3031 -22.1107 -0.373241
-20.5772 18.3603 -0.193415
-8.98006 -11.5243 -0.0369228
8.10318 -13.5175 -0.0243838
15.2091 7.95517 -0.00862662
-28.3872 -16.4174 0.143133
-30.8857 -19.0714 0.209742
-18.4155 -31.4706 0.290626
-44.7581 24.5192 0.517105
7.78329 -13.8096 0.166315
8.78879 -9.99285 0.13384
-35.3924 -18.8155 0.457965
-8.69637 -24.6277 0.308246
12.11 -10.5561 0.211098
-20.9691 17.9181 0.356698
-10.8239 -16.7956 0.302115
-27.7196 19.7261 0.600156
-30.4263 -20.3978 0.673138
-29.7832 -22.0016 0.664519
11.6042 -10.4281 0.254987
8.62235 -10.6286 0.294658
8.68671 -10.139 0.288486
-58.0509 20.102 1.43648
-24.3962 -15.5456 0.69366
20.1887 -14.6545 0.607766
-26.1979 -7.87005 0.741457
-25.0353 19.6334 0.909813
-51.6363 19.5526 1.5038
12.6585 -10.845 0.454632
18.6119 -8.06699 0.575353
-22.5156 19.097 0.872128
-7.31554 -8.57783 0.365116
13.3735 14.5413 0.690546
-24.5012 -17.4294 1.05354
7.3844 -15.2157 0.595214
9.69876 -9.54367 0.464613
26.615 -4.71519 0.898439
19.9624 19.0663 0.981024
15.4398 26.7316 1.14253
-75.0211 26.7737 2.92555
-48.4027 15.9104 1.83478
26.4339 -5.13416 1.01471
27.4428 37.5782 1.82267
-22.9788 18.7719 1.11485
10.2084 -9.71132 0.544203
24.0409 -3.31103 0.911095
12.8662 14.9027 0.793992
15.9873 20.6584 1.05428
-26.1997 -12.5314 1.18896
-27.5757 -15.1733 1.27714
-9.93495 -14.8226 0.744918
7.70584 -14.611 0.677852
22.2092 51.3663 2.30505
8.65645 -12.4746 0.63996
-7.09032 -6.97931 0.445004
-7.54564 -10.4393 0.583786
8.6606 -9.10207 0.47576
18.7316 22.7485 1.29086
-26.7888 -10.6047 1.38387
17.2341 11.1886 1.0129
-7.26884 -6.76285 0.480886
16.9557 26.3459 1.60096
-6.47586 -7.62295 0.556103
15.7513 21.5723 1.44832
-23.6187 18.1879 1.64165
15.9647 26.0036 1.74966
11.9648 20.2523 1.30346
-24.4183 -11.8994 1.53704
-6.60405 -8.51418 0.622708
8.2078 -16.2659 1.04428
10.3111 12.9707 0.970503
15.9275 21.1632 1.64558
16.9621 30.1943 2.11341
-13.2975 1.82061 0.872677
12.191 34.2002 2.29055
-6.70984 -9.15757 0.734175
10.5993 24.153 1.75624
11.8403 10.4156 1.1146
11.9418 12.6289 1.21658
14.5805 16.848 1.5818
9.42839 -14.5333 1.22124
11.0937 9.26131 1.05453
13.5748 15.2272 1.51461
-13.7758 8.12455 1.20659
-10.7963 2.03477 0.831567
13.201 17.1851 1.66937
12.4122 19.7843 1.8006
10.7681 -7.36852 1.01637
-7.1709 -7.58538 0.842048
13.2812 12.0238 1.45093
12.3343 12.0676 1.42227
-6.63786 -5.84021 0.723831
-6.65396 -6.50661 0.777967
-12.7629 1.80764 1.06621
-6.51135 -8.24416 0.912917
11.9376 12.4619 1.47793
9.70589 -7.62635 1.07219
14.4477 11.7022 1.69814
10.9618 9.65727 1.31922
-11.0603 2.83305 1.04934
-7.1909 -6.69825 0.889236
-12.1244 2.24249 1.10609
12.0199 9.2755 1.44486
9.5848 13.5554 1.5843
7.5017 13.8029 1.53056
8.76214 13.624 1.61488
-6.36299 -6.34094 0.899184
8.38612 -6.96993 1.06446
10.0377 12.5737 1.60284
10.2414 10.4624 1.50317
-6.55015 -5.14145 0.871847
9.87706 9.40585 1.44558
8.44652 11.4841 1.48554
7.04073 13.6519 1.62768
9.8105 8.56246 1.37016
9.45127 10.5273 1.53244
5.90816 13.0137 1.53887
-5.97691 -7.03918 1.00518
6.89735 11.7386 1.48968
5.47692 13.7222 1.6219
-6.55156 -3.82032 0.841756
-6.34259 -5.75618 0.949688
4.43722 -8.79091 1.08465
5.8433 -6.54582 0.982258
9.56814 7.70324 1.37281
9.30587 9.90414 1.52403
8.162 11.6258 1.57917
9.74557 -7.98901 1.37961
6.95757 10.9802 1.4742
-6.58022 -4.37009 0.900683
5.22542 -8.52382 1.1505
-10.3312 6.92631 1.44085
-6.86792 -2.06539 0.837532
9.1883 6.20756 1.31209
6.08476 12.419 1.62624
5.13209 11.8678 1.51737
-6.37596 -4.90197 0.975759
5.13329 -6.30375 0.953039
9.06731 9.19644 1.5285
4.63729 -8.88791 1.21312
8.47943 3.92794 1.16515
11.2439 5.60878 1.5369
4.76925 13.2661 1.74747
-5.85166 -5.11923 0.959307
-8.91065 1.27114 1.12284
8.40859 7.69136 1.43471
-6.12551 -5.06216 1.01083
7.93893 8.3388 1.4726
-6.62597 -3.43683 0.970776
5.34137 -6.41337 1.07335
5.35769 -5.78709 1.0243
8.55143 7.03643 1.45959
8.08829 7.99847 1.50588
-6.99063 -1.67205 0.971393
-6.8108 -2.13929 0.959878
-6.2128 -4.18855 1.00038
5.20987 -6.56572 1.1109
8.52734 6.46363 1.44821
-6.56799 -4.04389 1.04423
-5.78737 -4.25203 0.970911
5.2905 -5.91746 1.08567
7.71543 -3.6637 1.18476
8.49924 4.31571 1.34746
8.46169 4.65033 1.36348
-6.70103 -2.80622 1.04274
7.7982 -3.89123 1.24036
7.28054 -3.16899 1.11607
5.29911 -6.20685 1.17344
8.44493 -1.78586 1.24554
-6.70786 -3.13932 1.10282
7.48304 5.63935 1.40059
5.81764 7.51094 1.42809
8.10389 3.97176 1.37266
8.02066 4.25434 1.37397
5.49539 7.89072 1.45509
5.14756 8.79248 1.53244
3.55704 9.7283 1.55628
-6.76922 -2.72941 1.1168
7.96024 -2.89496 1.29306
8.10657 -2.30928 1.29629
8.04502 -2.08039 1.27945
7.56527 4.26143 1.39375
7.14936 4.80793 1.40928
6.81332 4.96627 1.39549
5.42501 6.50083 1.40249
-7.00677 -1.32226 1.1837
5.0337 7.39191 1.48592
4.75719 7.28072 1.45341
-7.03589 -0.78277 1.18803
3.17946 -6.57118 1.22284
6.77089 4.13219 1.34907
6.57025 5.27821 1.42471
3.86602 7.99953 1.48481
-6.18279 -2.22906 1.11884
-6.07987 -2.59355 1.13141
4.05802 -5.63395 1.17639
-6.77216 -1.74304 1.22549
4.49677 -4.92683 1.16703
6.73912 3.54923 1.36944
5.08795 5.62762 1.38021
3.92124 -5.78335 1.26608
3.37201 6.75944 1.4023
6.56848 3.08284 1.37251
6.50185 2.74604 1.34165
-1.49395 -5.18492 1.04618
-1.99162 -5.2959 1.1128
6.32611 2.40571 1.34704
4.18401 -4.86247 1.27007
-3.00204 5.60352 1.35327
-3.61048 5.19386 1.37653
2.57888 -2.33781 0.787859
4.37578 -3.04221 1.24719
4.78983 3.98059 1.46041
-4.24935 3.90383 1.405
4.73234 -2.25519 1.26697
4.58838 -1.29937 1.18052
3.86269 -3.05542 1.27688
3.81536 -2.67876 1.23094
3.57234 -3.1034 1.27077
-2.19989 -3.43155 1.15269
-2.38938 -2.79994 1.1521
1.95948 -2.60049 1.17386
2.02428 -2.76543 1.24145
-2.04705 2.81234 1.31942
-2.00895 -1.4201 1.16773
-1.76071 -1.76874 1.26583
-1.92107 -1.13931 1.1828
7.03067 -7.02474 -9.01565
10.0479 -9.38539 -9.71472
8.7459 -8.34002 -7.97398
9.63461 -9.29456 -7.96188
2.32564 -18.7659 -10.0463
14.5258 -11.9708 -8.97252
3.82525 -9.63841 -4.66327
-20.3857 -105.291 -42.5135
29.1729 36.2786 -15.6741
-19.1388 -112.831 -38.3527
1.93983 19.4573 -5.80235
27.6922 -11.4564 -8.37146
-18.3778 -25.5976 -5.8791
-24.072 -22.3857 -5.05928
10.2579 -9.46241 -1.73929
9.48579 -9.34619 -1.33062
9.66146 -9.52841 -1.00219
21.3545 -15.1195 -1.42701
50.5807 -13.5849 -2.71537
-28.1423 -11.9016 0.319917
10.3122 7.09863 1.32146
-3.48876 5.30814 1.36214
8.1742 -8.42152 -10.5111
8.04186 -8.45899 -10.2569
8.62026 -8.69684 -10.1231
6.97059 -11.9937 -11.3801
8.21511 -8.46735 -9.31534
8.2598 -8.96319 -9.34997
9.83784 -9.17039 -10.1405
6.27356 -14.2175 -11.6785
5.93968 -14.2819 -11.3119
9.40093 -9.12415 -9.58703
7.87655 -9.48608 -8.91936
8.11225 -9.38663 -8.85259
7.43294 -10.9833 -9.41953
10.6543 -9.68717 -10.0762
6.62133 -11.3759 -8.97636
11.3578 -9.87708 -10.1906
8.49679 -9.419 -8.48875
7.60674 -9.64793 -8.18344
8.25177 -9.52315 -8.268
5.004 -15.7674 -10.6636
-0.516472 13.7872 -8.85515
7.56896 -11.1521 -8.6286
10.8213 -9.92683 -9.50014
7.89735 -9.46423 -7.87039
11.4814 -10.232 -9.74676
7.31176 -11.2932 -8.36842
8.52258 -8.93281 -7.65425
0.0936067 13.7603 -8.38417
8.05159 -9.03835 -7.27802
12.0577 -10.2263 -9.52359
9.39292 -9.30627 -7.79812
6.77714 -13.1856 -8.72989
5.60702 -14.1419 -8.92777
8.62896 -9.33203 -7.33669
7.33152 -11.5053 -7.81451
5.20113 -12.9906 -7.84617
9.25917 -9.39017 -7.38472
3.06875 -18.5194 -10.5245
6.89169 -11.5325 -7.51136
8.19621 -9.43135 -6.99144
12.8576 -10.7604 -9.35908
-0.486797 13.9391 -7.65811
10.1897 -9.97027 -7.80136
15.2346 -11.9126 -10.5215
14.0722 -11.2728 -9.70843
15.5339 10.6451 -10.1301
15.489 7.61377 -9.23226
14.2282 7.84852 -8.60325
12.0412 -10.382 -8.15379
-0.0764239 14.8124 -7.49772
2.24839 -18.2206 -9.27831
11.2472 -10.0728 -7.5807
16.4822 -12.2726 -10.4916
7.72708 -9.74356 -6.22281
15.0331 -11.9155 -9.64216
19.3619 -13.8353 -11.5608
19.391 5.98935 -9.86915
2.50524 -18.1207 -8.88927
13.5736 -11.2023 -8.49452
16.4939 -12.5508 -10.0375
7.70994 -11.3426 -6.58837
8.81 -8.87425 -5.82412
15.4788 7.59086 -8.03229
-8.68979 -1.4358 -4.04317
7.47996 -11.4814 -6.37025
6.57861 -11.2092 -6.00248
10.318 -2.58794 -4.88635
18.6887 -13.6473 -10.6161
-10.8134 15.5172 -8.61516
3.69528 -9.37629 -4.55297
-9.38492 15.3371 -8.07484
16.5408 7.48434 -8.13311
12.9077 -10.7038 -7.44104
-10.2956 15.6585 -8.07708
-6.82233 6.61866 -4.0957
-6.27671 6.26336 -3.77677
1.18139 -14.8276 -6.3228
18.7283 -13.3572 -9.70389
21.0979 21.8767 -12.7817
17.4188 -13.1562 -9.16341
15.6535 7.69593 -7.2985
13.8404 -10.9595 -7.35118
-9.66518 -1.0538 -4.0403
21.2205 23.1168 -12.9139
14.5323 8.03262 -6.76797
16.9937 7.65765 -7.4977
15.5006 7.97944 -7.00286
18.2057 16.8929 -9.79096
1.42197 -16.7155 -6.55401
9.06632 -9.16224 -5.00727
19.4958 6.01743 -7.90496
20.5071 22.9077 -11.9178
0.719496 15.5953 -6.00087
-8.88547 -1.28786 -3.48148
3.26959 22.9946 -8.80204
0.639741 -20.5132 -7.8205
-18.3137 -90.3828 -34.8339
18.245 -13.4873 -8.47273
-13.5745 -85.7864 -31.9195
4.94922 -9.40987 -3.81689
14.6055 8.15904 -6.05724
-1.90895 -19.3054 -7.01907
0.484565 -18.9969 -6.71325
2.29526 21.9866 -7.72721
-3.76609 12.6519 -4.62836
-9.73289 14.9558 -6.24249
-0.672534 -18.5398 -6.54184
5.2606 -6.57823 -2.93719
-13.5735 16.7489 -7.45227
-8.16541 14.7473 -5.78134
-4.65268 13.2432 -4.72875
17.1681 7.70842 -6.26493
1.20398 16.9334 -5.66174
-4.94187 13.1608 -4.63111
44.6508 -22.9379 -16.555
9.33681 -9.17943 -4.16999
13.4056 -11.0837 -5.59374
8.56488 -9.80371 -4.15898
15.7564 -12.3275 -6.39666
18.9976 17.5819 -8.03937
7.90152 -9.37594 -3.78395
-3.8765 13.0388 -4.08885
12.3873 -10.5019 -4.89076
25.2707 32.1071 -12.3453
-42.3434 -115.174 -36.8712
-3.52975 -22.2887 -6.78072
15.7045 9.88734 -5.32606
14.7617 -11.5235 -5.36231
-5.04588 13.4483 -4.03984
-12.1854 16.3538 -5.75353
-25.5335 -83.2441 -24.5533
19.7577 5.4501 -5.69339
16.3404 11.0483 -5.4456
26.897 34.8521 -12.1612
-20.6489 -80.1965 -22.7904
-3.62919 -21.1808 -5.95868
51.4421 -16.4572 -14.5734
-8.81718 14.8158 -4.58099
-23.8988 18.5099 -7.89181
-21.2669 17.8646 -7.18346
-6.54406 13.8908 -3.92465
-47.1731 -114.58 -31.1064
49.8815 -12.4192 -12.8572
-9.13972 -1.0772 -2.27535
-38.1963 -98.9687 -26.1395
-7.2788 14.1227 -3.87351
-23.0686 18.2054 -7.15992
-3.02184 12.3498 -3.04218
-10.6997 15.525 -4.5059
3.40538 -10.409 -2.57679
15.3093 8.16905 -4.10569
-28.1097 -22.0658 -8.37374
5.98412 -12.8754 -3.32953
57.9496 -13.9751 -13.8529
-5.12685 -25.1232 -5.90744
-8.89038 14.9112 -3.96812
15.631 7.66157 -3.9526
9.06611 -8.04036 -2.76218
-26.3891 19.1862 -7.24199
-8.53307 -30.5599 -6.97938
4.18321 -10.544 -2.48333
48.9259 -12.3959 -10.9022
-29.7451 -19.5349 -7.57709
-16.6625 -40.0562 -9.25983
-13.3881 16.6142 -4.43149
15.1709 8.10589 -3.58173
-27.2149 -20.5913 -7.01812
10.0394 -9.93574 -2.92057
8.35455 -9.15976 -2.46996
49.941 -12.6952 -10.5694
53.3901 -11.3219 -11.0159
-25.0751 18.8212 -6.18387
-12.562 -18.3666 -4.42965
-16.8731 -27.4262 -6.32786
-8.56525 -26.8658 -5.56178
6.06851 -11.3968 -2.46194
5.86322 -8.80407 -1.9489
-28.28 -20.4302 -6.58809
-29.6004 -19.5306 -6.61407
19.736 6.12622 -3.81263
-16.1601 -40.2385 -8.04583
-7.3372 -29.7414 -5.68774
-13.3716 16.6236 -3.87606
14.8283 -11.5446 -3.35186
15.9376 7.81663 -3.13696
-4.80702 12.8287 -2.41069
-16.654 17.8209 -4.3137
-54.3595 -109.858 -21.2634
-15.3394 -36.5267 -6.90684
-17.75 -28.6335 -5.8089
-29.4498 19.9527 -6.03412
-17.2116 -29.289 -5.78613
9.89286 -9.72944 -2.34745
-7.0759 13.4401 -2.5264
-49.6623 -94.6574 -17.7355
-27.1888 19.8064 -5.47515
-27.3784 -20.5695 -5.45933
-13.6526 -36.3373 -6.1986
49.2346 -12.4996 -8.10318
-37.4668 22.1296 -6.8563
-43.2513 -82.7817 -14.714
-31.5364 -19.7419 -5.75902
7.26677 -12.2598 -2.21464
-24.7547 -22.0645 -5.00099
-26.0627 -21.3832 -5.04376
-14.1496 -34.8597 -5.58555
7.46449 -14.288 -2.39346
-28.2643 -20.3255 -4.97274
-26.5283 -20.8815 -4.78125
-28.0653 20.094 -4.82892
-27.04 -15.1979 -4.33198
-11.8575 16.011 -2.71474
-27.9896 -20.924 -4.72129
-25.6375 -22.0551 -4.58053
-54.5044 -103.05 -15.7673
-27.6534 -17.197 -4.26656
-28.8543 -19.8877 -4.61197
-29.1314 19.7599 -4.43741
-11.4839 20.5976 -3.03008
-26.767 19.9232 -4.08254
-34.8481 20.5845 -4.97561
14.1199 -11.4152 -2.12389
10.5282 -9.85657 -1.6534
-25.4221 -11.5975 -3.04066
11.4172 -9.98711 -1.66613
-11.9016 16.0936 -2.11229
-15.2006 -33.6696 -3.93741
16.5977 -12.7622 -2.22977
-55.2575 29.2582 -6.31814
-26.4277 -20.8987 -3.40525
53.5381 -11.3776 -5.47565
18.9438 -13.8214 -2.3033
49.1411 -13.2068 -4.8009
-21.9578 -45.0406 -4.42691
-20.8533 18.2477 -2.4319
-25.8803 -11.6133 -2.45623
7.86568 -12.0903 -1.25929
18.8243 -13.6007 -2.00666
-24.866 -22.1839 -2.79911
10.6755 -9.69246 -1.18643
15.0391 -11.9569 -1.54192
-29.8638 20.2474 -2.76262
-26.3532 19.7465 -2.43964
18.482 -13.48 -1.66778
-12.5749 -30.8284 -2.37642
8.07337 -10.0152 -0.933438
-42.3014 14.7113 -3.2387
-17.3615 -39.8468 -2.97558
10.3907 -9.78688 -0.944044
10.2059 -4.96939 -0.716196
12.3344 -10.6862 -1.02461
-10.6006 -29.0977 -1.81188
15.8623 7.79319 -0.977246
15.2562 8.17012 -0.950468
12.8663 -10.9241 -0.868592
18.752 -14.0439 -1.11691
-11.4826 15.7315 -0.942782
-24.7249 -44.1706 -2.40817
-19.1114 -38.2611 -2.03076
-22.4065 18.9442 -1.33537
-30.4427 -17.1775 -1.16206
-12.9811 -32.1265 -1.1392
-16.9085 -39.0994 -1.21131
-14.467 -39.0238 -1.1867
-44.1381 15.879 -1.10278
16.286 14.2126 -0.430398
12.0148 11.6915 -0.325251
-31.4857 -15.7235 -0.77323
27.1853 33.2019 -0.75901
14.5403 -11.9642 -0.345479
-26.4651 -14.0599 -0.451386
-15.7125 -34.502 -0.601876
-79.7692 34.5688 -0.776304
-10.1233 -27.3833 -0.233099
-18.3841 5.3292 -0.100805
-23.1478 -44.423 -0.239423
34.8445 -21.9797 -0.271262
20.7104 -14.3906 -0.0258811
15.3967 7.96931 0.0259446
-44.9532 24.6132 0.318412
-28.1149 -11.7933 0.223845
7.63948 -14.2716 0.187208
-32.5791 -17.1868 0.485638
12.4496 -10.8786 0.181348
-10.6993 -16.5246 0.271831
19.8082 -13.3758 0.455577
28.4529 -5.52123 0.81621
28.1991 57.7933 1.98124
-7.24542 -8.54751 0.393737
-27.3293 -13.0288 1.15275
10.0773 -11.2983 0.603046
-25.6306 -15.1322 1.31731
18.7147 33.7743 1.64639
-9.53081 -14.8881 0.758182
16.0872 21.3507 1.20877
23.5193 45.9686 2.30616
20.0295 38.4051 2.00705
7.76458 -14.7023 0.783767
-5.75568 -6.29003 0.388817
-6.45827 -7.84867 0.528311
17.5401 29.015 1.79454
7.74617 -16.8727 0.961026
9.16433 -8.24285 0.72062
29.1619 58.8145 3.76899
-20.1853 -8.30235 1.3306
-6.42976 -4.33989 0.462614
-10.8605 -8.29098 0.815792
9.66077 19.2303 1.51957
-6.89551 -9.52095 0.79022
11.3513 9.40486 1.04028
7.53343 -15.6265 1.21558
-6.76191 -5.99082 0.64887
8.03308 -12.2806 1.04336
9.72839 -8.36184 0.939601
14.0469 21.9246 1.98141
-14.3245 8.00718 1.25928
11.593 -5.1847 0.962472
