ply
format ascii 1.0 
element vertex 1875
comment /media/mkaihara/Seagate Backup Plus Drive/model_iterations/model_34.ply
property float32 x 
property float32 y 
property float32 z 
end_header 
-7.05581 -1.99871 1.02161
4.97946 -5.29527 1.01622
7.26279 -3.74591 1.14817
7.37986 -3.68066 1.16978
7.89229 -3.36498 1.21983
-7.13609 -1.86981 1.04878
-6.99157 -2.93889 1.09876
-5.9971 -4.36549 1.06662
7.92697 -2.78996 1.22967
8.27666 4.64547 1.39076
5.04542 8.64352 1.46731
8.4143 4.5312 1.41261
7.85205 -2.34723 1.20821
7.1903 5.72395 1.37649
3.00861 9.60452 1.50571
-7.07555 -2.01427 1.10223
7.50333 -3.1178 1.22505
8.27284 4.57208 1.43297
5.83566 7.50524 1.44398
5.33973 7.70367 1.42871
5.17698 8.02106 1.45052
5.13103 8.13248 1.45578
7.3525 -3.1779 1.22353
7.70059 -2.76375 1.24603
-6.73916 -1.67853 1.04576
7.85411 -2.2633 1.25357
7.27941 5.45956 1.39746
-7.08493 -1.94728 1.13988
-6.90333 -2.77918 1.15636
6.85735 5.56223 1.38522
-7.33389 -1.09253 1.15777
-7.12532 -1.81929 1.15139
-7.02848 -2.06219 1.14735
-7.10216 -1.86752 1.15208
-6.87871 -2.92726 1.17329
4.85653 7.53059 1.42555
3.4487 -6.0362 1.11015
-7.25521 -1.29573 1.18028
3.52967 -5.71029 1.08155
3.56642 -5.61542 1.0709
7.11949 4.79909 1.39935
4.70874 7.4529 1.43526
-7.05295 -2.01828 1.19525
-7.07475 -1.94188 1.20353
7.01458 4.86081 1.41167
3.86545 8.03079 1.47626
6.06471 -3.32558 1.15231
6.68056 4.9078 1.38242
4.70949 7.2387 1.44105
3.83805 -5.30285 1.10032
7.15344 4.45459 1.4192
7.51612 2.87407 1.36013
6.36815 5.32364 1.4071
-7.2587 -1.2522 1.25398
6.79658 4.10927 1.36425
-6.43698 -2.76597 1.19515
5.51775 -3.63513 1.13518
5.70021 -3.52441 1.15076
2.79562 7.96837 1.46087
-7.35129 -1.03653 1.2867
5.34103 -3.78855 1.14159
-6.29764 -2.25487 1.15961
-6.25848 -2.41174 1.17409
4.28342 -4.66717 1.10789
4.49711 -4.48028 1.11365
4.59527 -4.45249 1.12265
-6.7845 -1.72833 1.23297
4.37505 6.56417 1.40776
-7.13972 -0.925712 1.28652
-6.13194 -2.25324 1.16334
6.68019 3.71468 1.37046
6.14078 4.3911 1.36963
3.60966 -5.32891 1.17062
5.191 5.73325 1.41508
2.55099 7.3014 1.45384
6.5209 3.06912 1.36295
-1.70679 -5.78321 1.14117
6.44305 -1.38954 1.25074
6.30609 2.79256 1.3281
6.2487 2.39319 1.33527
-4.43063 3.92026 1.38984
4.34936 3.5544 1.34398
4.23283 3.30943 1.33063
4.66889 -1.67905 1.24611
4.82383 -1.38238 1.25557
-2.12735 4.76429 1.30181
3.72542 -2.95173 1.22215
3.67142 -2.54837 1.19337
3.40383 -2.95932 1.22511
4.0188 2.57892 1.33492
-2.59619 -3.53622 1.25118
-2.32811 -3.57335 1.21681
3.76533 2.06371 1.30593
3.74151 1.98563 1.30522
-2.83123 3.47084 1.38042
-2.29862 -2.42134 1.18779
1.94997 -2.77374 1.21014
-2.11799 2.75888 1.31977
-2.02345 2.74718 1.326
2.24625 -1.86609 1.22354
2.37635 -1.49591 1.22104
-2.01296 1.87345 1.29277
-2.06632 -1.44404 1.22861
1.44484 -2.06407 1.24263
-1.99407 -1.08845 1.21448
-1.92625 -0.70802 1.21977
-1.92796 -0.703789 1.24534
-1.95664 -0.344483 1.22835
-1.89408 -0.564942 1.22957
-1.89366 -0.531131 1.23463
8.25545 -8.73651 -7.49677
12.1972 -10.3475 -8.85089
-8.62806 15.398 -6.84618
20.9099 25.4657 -11.8414
-8.77254 -2.51232 -2.57127
-33.7896 -22.5715 -7.50708
-33.4154 -21.8527 -5.8916
-33.1417 -22.5224 -5.95108
-30.65 -19.6568 -2.73843
9.33653 -8.89286 -0.393855
-7.45116 16.0612 -0.437059
-29.055 -11.2432 0.717511
-6.89206 -8.23714 0.458696
17.0867 24.5358 1.62401
11.5769 16.2815 1.65232
-6.67535 -6.64844 0.880828
4.30611 12.4957 1.52363
8.81376 9.18088 1.48875
8.00756 -8.80195 -10.4241
8.87364 -8.57928 -10.5457
6.98619 -11.9847 -11.5592
6.90106 -11.3951 -10.9382
8.18886 -8.30113 -9.57434
7.04972 -12.0737 -11.3678
7.09642 -11.0181 -10.4987
8.03841 -8.41514 -9.24459
6.75642 -11.3309 -10.3304
6.47235 -11.7438 -10.2532
7.79253 -8.89004 -9.0117
6.23184 -14.3719 -11.8531
8.33876 -8.74249 -9.14435
6.3263 -11.9563 -10.215
6.17171 -12.1326 -10.1494
7.5273 -9.48997 -9.04313
7.94547 -9.09648 -8.96629
10.5322 -9.50785 -10.5519
6.14233 -14.1598 -11.4074
6.1201 -13.7053 -11.0348
6.15605 -12.6241 -10.3293
9.24531 -8.87219 -9.39916
9.3338 -9.12027 -9.51714
5.88881 -12.5527 -10.0713
9.40993 -9.03636 -9.30993
6.89519 -11.1786 -9.32022
5.63792 -13.0174 -10.0393
9.74709 -9.13236 -9.46507
7.64478 -9.38724 -8.51104
10.0552 -9.23946 -9.59265
10.9829 -9.54985 -10.2116
11.5157 -9.76158 -10.1374
8.42587 -8.64975 -7.99404
7.46731 -9.34372 -7.90231
8.20938 -8.76272 -7.93604
7.66598 -9.39773 -7.93381
7.87598 -9.44815 -7.88278
8.36256 -8.57801 -7.65763
0.352843 15.8574 -10.1207
7.56548 -9.37025 -7.66326
10.98 -9.66765 -9.30078
7.2654 -10.7592 -8.21574
8.19619 -8.5397 -7.46416
4.62665 -15.4428 -10.1378
8.75545 -8.74182 -7.65444
7.96081 -9.07678 -7.44649
4.05896 -18.0504 -11.3955
8.23865 -8.67011 -7.31123
4.09168 -17.317 -10.8571
0.139218 14.8602 -9.04268
6.68967 -11.3203 -8.00463
7.78034 -9.31247 -7.36228
10.1911 -9.37241 -8.40039
6.85609 -11.3081 -7.93791
8.10222 -9.25145 -7.38127
11.3447 -9.76158 -8.94713
5.42479 -13.9135 -8.85583
7.77406 -9.31233 -7.19337
9.40341 -9.08365 -7.74653
6.93919 -11.1732 -7.78349
8.02419 -9.17403 -7.15103
9.81131 -9.24226 -7.85457
14.9802 7.48602 -9.72833
8.71564 -8.87996 -7.18905
6.96887 -11.0199 -7.49256
2.64913 -11.2459 -6.64397
7.90021 -9.11763 -6.90889
9.66297 -9.19486 -7.57625
10.8609 -9.55469 -8.15956
0.124419 15.3006 -8.63066
3.27661 -20.5521 -11.7037
6.83443 -11.0344 -7.27563
10.1685 -9.3482 -7.73454
12.4353 -10.434 -9.10212
9.29283 -9.05821 -7.25086
4.63701 -14.3523 -8.40754
8.04779 -9.26646 -6.81573
14.9038 7.62015 -9.19204
9.75557 -9.16128 -7.3492
0.830277 17.4769 -9.55578
2.73661 -19.7896 -10.8937
11.2037 -9.70831 -8.04838
4.25723 -14.4964 -8.17706
14.8161 7.74872 -9.0084
15.2287 10.5154 -9.93921
14.1438 7.80349 -8.6337
11.0231 -9.68115 -7.80078
13.3721 -10.8891 -9.17228
3.03835 -19.2715 -10.2564
11.4332 -9.89159 -7.69177
2.16607 -20.3178 -10.3132
10.3287 -9.40344 -7.02312
14.387 -11.3789 -9.20862
13.925 -11.2627 -8.9647
11.0841 -9.72175 -7.34451
7.54792 -9.38625 -5.9641
3.5725 -8.48955 -4.53887
-8.66842 -1.90326 -4.36304
2.21661 -20.0623 -9.9004
4.54313 -9.32055 -5.07073
0.397997 13.6632 -6.69221
7.64701 -9.31734 -5.88123
-8.37553 15.9764 -8.7331
-9.16467 -2.42276 -4.56726
15.1316 -11.6848 -9.18616
19.5673 5.59877 -9.73475
-10.2672 -2.542 -5.00266
1.90774 -20.4913 -9.78597
17.4378 16.3888 -11.3376
7.6271 -11.2747 -6.42201
20.2316 5.461 -9.87019
14.1419 -11.1959 -8.38679
2.94216 -17.3909 -8.20028
19.548 5.78394 -9.41936
18.0316 -13.1403 -10.3046
9.90029 -2.50076 -4.71865
20.4901 5.19357 -9.75415
17.5682 16.5224 -11.1168
1.80576 -20.1311 -9.25057
9.72595 -9.09426 -6.09669
-9.1741 -1.66519 -4.25197
9.48453 -3.48028 -4.60182
6.75312 -11.383 -6.01915
9.94803 -2.6277 -4.6676
19.4405 5.92815 -9.15165
17.9797 17.836 -11.3889
9.39969 -3.09646 -4.45516
15.5788 -11.9875 -8.82009
7.08005 -11.6312 -6.08948
7.18979 -10.9743 -5.84713
9.5917 -3.41638 -4.53784
-9.86608 16.1651 -8.42821
17.8406 -13.0199 -9.81311
19.7307 5.68402 -9.10248
16.2547 7.37316 -7.90579
18.0934 18.2775 -11.378
16.5862 -12.335 -9.10897
-11.0684 16.827 -8.84925
-6.47333 14.7848 -7.07329
-5.20374 4.87999 -3.10691
20.3396 5.52265 -9.16428
9.59059 -3.41664 -4.39423
18.503 18.7559 -11.3278
15.9735 -12.292 -8.6718
14.9957 7.49814 -7.15732
3.85178 -9.33281 -4.28916
-10.9993 16.7245 -8.47102
6.98227 -10.9649 -5.48054
-13.4822 3.30405 -5.84763
0.742358 -22.2296 -9.37372
15.9481 -12.0746 -8.36444
-5.12849 5.64617 -3.18973
0.995549 -22.0853 -9.26815
1.23228 -20.721 -8.69605
14.2954 7.66749 -6.78698
18.8536 19.6501 -11.3821
3.79424 -8.98091 -4.06533
14.908 7.80165 -7.00587
18.2052 19.4458 -11.0584
-9.47303 -1.08723 -3.93579
4.0157 -8.51919 -3.85855
14.1622 7.82042 -6.6433
6.88187 -11.0467 -5.32014
-13.5259 2.52665 -5.62829
-7.85129 15.2042 -6.95038
19.5968 21.2965 -11.7289
15.2135 7.3104 -6.80255
-5.21226 14.2232 -6.0706
14.074 -11.1266 -7.02616
1.53712 19.3955 -7.55949
-8.61792 15.5594 -6.90872
19.1835 5.85046 -7.77233
-1.74482 13.1764 -5.14677
5.31777 -9.43238 -4.17532
-2.36844 13.3775 -5.21639
19.9617 23.0946 -11.7093
4.6747 -8.54068 -3.69728
19.6179 5.62809 -7.76765
0.868186 -26.1188 -9.93333
15.044 -11.5927 -7.14656
20.1862 5.46896 -7.82887
9.47515 -3.45221 -3.77068
0.529065 -22.3342 -8.32742
3.26635 -10.8511 -4.23273
20.5868 23.9538 -11.7338
0.908181 -8.70185 -3.24493
14.1478 -11.204 -6.65369
20.6018 5.23993 -7.81734
18.1697 17.9553 -9.3385
-12.9498 2.26867 -4.77929
21.277 25.4113 -12.0251
2.29802 -13.312 -4.86592
13.1386 -10.6247 -6.07946
0.79336 15.5035 -5.55645
-8.17352 -2.78924 -3.08894
0.408494 -21.5734 -7.71468
-4.16437 13.6537 -5.07466
0.635799 -21.7105 -7.71958
16.0145 -12.095 -7.11203
-15.47 17.8827 -8.33054
5.95553 -11.3881 -4.51805
-10.8514 16.3726 -6.85758
0.0955053 -18.3148 -6.43936
14.3878 -11.4022 -6.41832
20.5571 5.41402 -7.4213
0.654258 -22.7856 -7.87349
-4.94415 14.3419 -5.19483
3.65036 -8.47326 -3.17556
4.89418 -9.06498 -3.52982
-14.2634 17.7063 -7.77985
2.28119 -10.9103 -3.81938
-8.74778 15.8645 -6.17252
3.0529 -13.8051 -4.81905
-14.7305 18.0779 -7.90285
20.3736 5.53941 -7.09782
22.5734 27.9274 -12.0065
36.8532 -20.8032 -14.1398
-5.22933 13.8617 -4.91756
1.92783 20.9665 -6.98959
1.2679 -10.2439 -3.41292
33.1227 -20.822 -12.864
-5.17929 14.2517 -4.92229
-12.3825 16.9497 -6.80687
18.789 -13.3888 -7.49103
3.5667 -8.68804 -3.01099
6.2511 -10.1629 -3.82323
2.31718 -11.0195 -3.5832
-4.43646 -33.3621 -10.7002
-1.11486 -23.4364 -7.47065
15.1901 10.462 -5.82299
-12.9926 17.287 -6.83285
-17.6642 19.0514 -8.16466
3.01229 -9.71403 -3.20828
7.00712 -11.1662 -4.07486
1.37734 -21.7083 -6.72961
-2.51641 -26.844 -8.27841
7.34751 33.9691 -10.6115
0.768686 15.0966 -4.59325
-10.9468 16.5145 -5.96921
-2.63577 -25.9132 -7.84677
-14.0987 17.6263 -6.73244
-5.16515 -33.9019 -10.2133
0.829272 -24.6538 -7.3773
-5.30544 14.5835 -4.61332
2.09772 20.9371 -6.2028
-20.8784 19.4667 -8.41997
18.3957 5.85402 -5.68356
-4.23453 14.2099 -4.35709
-7.79702 15.1227 -4.98915
4.27386 -9.18135 -2.97616
4.66473 -11.6859 -3.67836
-12.535 2.20822 -3.65783
-31.8153 -45.0685 -15.8771
-14.9314 17.9612 -6.7123
7.00914 -11.1629 -3.79394
2.57112 -9.57072 -2.81546
13.0382 -10.5533 -4.77295
-8.42157 -2.45093 -2.48699
21.5709 27.8227 -9.97891
-8.54775 -2.25286 -2.49782
-2.48373 -25.374 -7.15771
-12.9377 1.98256 -3.64474
4.41781 -11.4049 -3.39385
-9.14835 15.7302 -4.99338
-12.8301 17.1098 -5.87185
-5.30115 14.1409 -4.125
-8.20837 -39.8836 -11.1445
-21.0516 19.6445 -7.73895
-9.56076 15.8514 -4.95859
-26.1641 20.0985 -8.77576
11.5718 11.6475 -4.33455
4.3576 -11.3738 -3.22586
48.2771 -14.0341 -13.3171
-7.88295 -37.2139 -10.0023
4.10872 -8.6979 -2.53251
11.2536 -10.0094 -3.9394
-14.1854 17.7604 -5.90842
6.57321 -10.4816 -3.20176
3.19202 -9.68681 -2.63625
-29.0802 -42.5919 -13.3197
-4.22114 -27.7005 -7.25294
3.5616 -10.4305 -2.84139
4.08825 -9.43267 -2.64192
15.7702 -11.858 -5.03357
-7.01777 14.9472 -4.17699
-30.5245 -40.7088 -12.9049
4.34127 -11.2187 -3.04383
4.27178 -7.73483 -2.24858
6.58099 -10.7342 -3.13944
45.8696 -13.8684 -11.9461
-27.6503 20.8609 -8.56202
-11.3182 16.6269 -4.95645
-26.7744 -39.0595 -11.6455
-9.52568 -37.5026 -9.54776
-23.9708 20.1333 -7.69145
4.37361 -10.3867 -2.76842
-11.8411 16.9595 -5.01322
-7.70099 15.0016 -4.06216
10.342 -9.32838 -3.33442
41.1343 -13.6638 -10.3708
15.2665 7.63516 -4.06503
-6.08378 -34.8589 -8.43254
3.98143 -9.12283 -2.35825
48.1353 -12.883 -11.8251
-11.6344 -42.8471 -10.5214
4.22701 -9.0445 -2.38116
3.8959 -11.1732 -2.7878
4.93152 -8.73406 -2.35926
-12.5389 17.0864 -4.9305
11.0859 -9.71498 -3.36856
-6.00518 -30.4649 -7.0875
-26.5643 20.5168 -7.60744
42.3946 -9.27165 -9.84728
-29.7845 21.6249 -8.25123
-34.7082 -22.7451 -9.29884
-5.23683 -24.9404 -5.68488
41.5772 -12.8528 -9.76988
5.48339 -9.52391 -2.45322
-12.3231 2.81188 -2.77331
41.4533 -12.148 -9.54291
43.5005 -12.4119 -9.95119
28.4051 40.0079 -10.752
-5.26705 13.8142 -3.2301
13.513 -10.8738 -3.81722
38.8042 -12.4703 -8.95927
-22.8928 19.9522 -6.58591
-27.5612 -67.954 -15.9164
4.33447 -9.75532 -2.31442
4.5633 -9.22894 -2.22339
-14.2908 17.8041 -4.87404
-30.1911 21.9302 -7.96702
-31.0368 22.0257 -8.13459
-26.1407 -69.359 -15.8928
-10.4763 16.3688 -4.11908
-8.13904 -34.5582 -7.55246
3.20977 -9.74339 -2.187
3.99229 -9.89346 -2.27417
46.844 -10.861 -10.2637
15.0971 7.56212 -3.581
-14.8493 18.2789 -4.98464
5.18984 -9.09996 -2.20058
27.5653 39.8861 -10.1372
-27.1044 -26.5247 -7.87533
15.1421 7.92476 -3.54958
-29.5773 -22.8426 -7.75321
-30.3211 -77.7484 -17.2822
41.3361 -11.1242 -8.85188
-11.2176 16.527 -4.05742
-15.3053 18.0954 -4.82355
-34.2543 22.9941 -8.38263
45.4108 -9.90525 -9.47723
-12.6745 -40.7859 -8.68339
4.16066 -9.79217 -2.16418
4.28577 -9.75971 -2.17234
11.6928 -9.71997 -3.09324
-11.7528 16.8651 -4.10192
-18.8065 -53.9786 -11.4274
-12.4753 -38.7574 -8.06346
4.09461 -9.98116 -2.13554
-33.4258 -22.8562 -7.9832
-26.1246 20.5036 -6.5354
-32.4827 -23.2354 -7.78575
-6.7351 14.8798 -3.16824
-25.0725 -58.915 -12.4399
-32.9022 -21.904 -7.61757
3.45613 -9.41713 -1.9366
46.9189 -10.8709 -9.2472
-12.4816 17.0408 -4.03663
4.01232 -9.39893 -1.94984
-35.6999 -21.6851 -7.90755
-20.6966 -33.6213 -7.50984
-14.896 -42.9828 -8.61011
38.6446 -12.748 -7.69162
-34.9703 23.4872 -7.88311
-33.0169 -22.8021 -7.53852
-31.9905 -23.4054 -7.44139
-20.2725 -50.2253 -10.1939
-16.152 -43.8757 -8.67505
3.83775 -9.24841 -1.84919
43.4949 -11.7227 -8.36409
5.79211 -9.77076 -2.0813
-23.279 -52.7868 -10.565
-19.5077 -48.4221 -9.44443
-14.246 17.7578 -4.03563
-30.4696 -24.5744 -6.95871
-19.8955 -26.5115 -5.92822
-38.2388 24.1293 -7.97729
-26.1289 20.5163 -5.78162
-33.1799 22.7049 -6.9802
3.93522 -10.1153 -1.88159
4.79442 -8.65325 -1.71896
14.142 7.59481 -2.76977
14.2227 8.16175 -2.80971
-30.0467 21.8496 -6.36845
43.1671 -12.213 -7.63656
42.9411 -11.1215 -7.55024
-30.6276 -24.3241 -6.6354
-20.5876 19.607 -4.77344
-19.4191 -48.2696 -8.79341
15.0099 7.52311 -2.81696
-30.8917 21.8695 -6.32197
-22.3509 -53.2904 -9.55107
44.5533 -12.0024 -7.49883
-10.1184 16.063 -3.06227
-19.6757 -48.8137 -8.39598
-34.1602 -23.5809 -6.54143
-22.2591 19.5566 -4.63918
-24.7053 -15.488 -4.60522
-23.6106 20.1555 -4.81088
-38.9348 23.5739 -7.05291
-10.9689 16.4166 -3.04689
3.49517 -9.59191 -1.57847
3.89897 -10.31 -1.70622
-7.42344 15.0556 -2.56241
-30.2609 22.0249 -5.72102
-31.1182 -24.0347 -5.97952
-27.3817 -25.6125 -5.68055
43.1432 -11.216 -6.77493
45.8996 -10 -7.156
-6.37239 14.192 -2.32614
9.87537 -5.17641 -1.65492
-32.8016 -23.6582 -6.02329
-24.8165 -62.7517 -10.0104
10.2641 -9.22861 -2.05672
46.0547 -10.6543 -7.01923
-35.8571 -23.8696 -6.34007
-30.8513 -25.4474 -5.85067
-12.1229 -40.1706 -6.17566
17.1116 -12.3802 -3.09315
-24.7822 20.4041 -4.66479
-23.4727 -52.5946 -8.30109
-7.42493 14.8704 -2.3753
-12.4241 16.9395 -2.99427
6.08959 -11.6338 -1.87584
-13.1013 17.511 -3.0712
-33.7509 22.7997 -5.7262
6.8148 -11.1315 -1.82378
38.3624 -12.6604 -5.68093
-30.5188 -24.4546 -5.45849
-32.0995 23.0685 -5.47587
-19.6407 -47.3386 -7.08027
46.2127 -10.3384 -6.52905
-6.68191 14.7761 -2.21466
-21.3345 -55.6815 -8.10222
7.79864 -9.43768 -1.64276
9.24437 -9.10047 -1.78911
-13.6854 17.4741 -2.99139
13.3384 -10.6386 -2.30815
-21.7044 19.7429 -3.94507
43.07 -11.136 -5.90519
45.9226 -10.0591 -6.22166
-22.0864 19.4363 -3.84693
-32.0173 -23.958 -5.22363
-14.5551 17.8232 -2.97477
-33.1176 22.1044 -5.16933
-37.5933 -15.8733 -5.2693
7.06847 -10.5122 -1.62498
10.8845 8.91172 -1.80751
-33.119 -22.8234 -5.14765
-30.6022 22.3405 -4.79286
-34.8548 -21.7497 -5.14999
42.9192 -11.0997 -5.54699
6.84622 -10.4443 -1.56011
-7.45383 14.9084 -2.06269
-24.4097 20.4965 -3.90284
-32.4802 22.8912 -4.90168
6.356 -12.1896 -1.67422
45.8709 -9.78661 -5.74419
15.1612 7.9432 -2.05882
-17.2345 -41.7419 -5.44652
7.13978 -10.6112 -1.53959
-20.2514 8.97527 -2.62205
-13.6841 -41.3952 -5.12762
-31.2028 -24.0567 -4.60737
-30.6952 -24.5483 -4.59975
43.0143 -11.5224 -5.23298
11.3176 -9.74648 -1.73013
-29.098 22.0636 -4.20141
6.69453 -10.9077 -1.46481
7.53288 -9.27428 -1.36651
11.6753 -9.8012 -1.73113
9.48902 -4.6292 -1.1957
15.1377 7.77896 -1.91903
-10.0971 16.0743 -2.14163
-31.3069 22.8764 -4.34397
39.7269 -13.0778 -4.68943
9.41743 -9.0816 -1.44722
-10.8027 16.2018 -2.11632
6.86691 -12.9278 -1.58512
46.0205 -10.002 -5.10476
10.8853 8.9453 -1.51959
16.9694 -12.6054 -2.26828
43.2196 -11.2095 -4.78356
9.68232 -9.03779 -1.40306
8.42608 -8.51169 -1.25456
-30.2779 -24.2293 -4.0383
-28.5328 -57.2315 -6.67211
15.1335 7.58972 -1.7306
-31.148 -24.0171 -4.03588
-12.5517 17.1106 -2.15437
-12.4802 16.7206 -2.07361
10.2776 -9.15044 -1.34788
-19.7734 -50.2177 -5.29197
6.38421 -12.226 -1.33448
9.55182 -9.01821 -1.24235
16.8341 -12.3161 -2.00453
43.1091 -11.5841 -4.27808
-28.9872 -58.5944 -6.21506
-19.6872 -51.6658 -5.25163
-22.7551 19.9038 -2.8264
46.7652 -10.4036 -4.47407
9.7808 -9.04654 -1.23317
40.5979 -13.3924 -3.98282
-14.6641 17.9759 -2.10079
-29.2453 -13.3337 -2.93016
-30.5071 -59.4714 -6.16147
16.0322 -12 -1.8213
8.68779 -8.77935 -1.11832
-35.5467 -20.1605 -3.58023
13.008 -10.7375 -1.4685
46.3412 -10.7412 -4.07433
9.46321 -9.0869 -1.10269
11.0343 -9.71713 -1.23566
-33.2064 22.8047 -3.35276
17.0377 -12.4245 -1.74614
-16.1934 -42.1383 -3.61613
14.834 -11.5993 -1.50125
-11.354 -31.7863 -2.66447
-29.0289 22.0725 -2.82074
-32.1783 22.7451 -3.04268
-21.6082 -49.3591 -4.16001
7.64693 -9.35722 -0.964433
-49.3429 26.855 -4.25502
-20.8771 19.6488 -2.08589
-32.3981 22.9164 -2.8767
16.5685 -12.3801 -1.51264
43.1437 -11.5455 -3.25316
-36.7115 -69.4617 -5.6699
14.1125 -11.166 -1.28759
-14.9172 -39.5715 -2.91898
10.8472 -9.68733 -0.996235
-22.7762 19.9429 -2.04511
12.9868 -10.7162 -1.12685
18.178 -13.1844 -1.49665
-22.1535 -51.0405 -3.6776
16.2246 -12.2722 -1.34315
-14.0606 -38.9844 -2.68089
44.9902 -11.7011 -2.90509
-29.9795 -60.7434 -4.13342
36.546 -8.86623 -2.30751
44.1008 -10.0941 -2.77688
6.12972 -13.2501 -0.872231
31.6082 -20.9152 -2.26705
-9.58115 15.9946 -1.09608
-14.9445 -38.9843 -2.37725
16.8053 -12.5595 -1.17762
-9.60776 -12.4549 -0.86211
15.1281 7.76131 -0.919993
14.0372 -11.112 -0.958436
-12.4773 16.9088 -1.09793
-15.8193 -39.2094 -2.24529
15.0222 7.89918 -0.832517
-15.6305 -39.9538 -2.10483
-13.8097 17.504 -1.06663
9.62886 -9.08262 -0.607008
-22.7173 -52.1108 -2.57183
12.5597 -10.3252 -0.75359
-15.2631 -42.5473 -2.00652
-16.5004 -40.6536 -1.87801
6.93769 -12.8108 -0.646086
-13.2845 -40.4959 -1.81509
-50.6601 27.5511 -2.33751
18.5762 -13.3458 -0.927914
17.0029 -12.6383 -0.82476
-38.4222 -74.5737 -3.16375
-17.3426 -45.4779 -1.79203
-32.7045 22.4713 -1.45232
43.6358 -11.2434 -1.62201
-32.2952 -64.2407 -2.40458
-24.4791 -53.6459 -1.98458
20.6728 23.9094 -1.05086
-20.9195 19.6039 -0.93489
8.2318 -14.5288 -0.560544
9.4835 -9.05351 -0.424919
11.3901 -10.0274 -0.493131
18.8354 -13.3182 -0.757794
35.5482 -13.4077 -1.26027
22.5967 27.3533 -1.13918
-26.9915 -13.5387 -0.946699
-22.3394 19.8935 -0.912456
-30.8423 21.8443 -1.18053
-23.5815 -54.2144 -1.83021
-13.2623 -37.5192 -1.22523
-20.3352 -51.8732 -1.68616
-15.8464 -42.947 -1.31083
-33.3633 -20.2288 -1.03926
11.5395 -9.78953 -0.405259
16.5266 -12.2923 -0.542697
-39.7625 24.5989 -1.2343
-29.4584 22.4154 -0.916832
-29.9765 21.9694 -0.879671
9.63121 -9.06671 -0.306343
-40.3327 13.9402 -0.94425
-30.0239 -50.2758 -1.31803
21.5831 -14.435 -0.570363
31.1499 -18.8885 -0.821565
14.3462 3.9647 -0.303957
28.9531 50.5958 -1.07408
23.8729 -11.1142 -0.463469
48.4131 -11.1482 -0.92351
-30.0602 -21.6022 -0.674953
-28.9041 -28.3894 -0.642138
-18.1241 -44.4723 -0.798812
12.8342 -10.554 -0.273235
18.7675 -13.5614 -0.353552
-28.8383 -12.8179 -0.414502
-32.1446 -24.0561 -0.558495
-31.2808 -63.0594 -0.948914
-26.1885 -55.7375 -0.842626
-33.2354 -22.6979 -0.525382
-29.4742 22.424 -0.437143
17.2048 -12.8483 -0.254703
29.9183 -18.5509 -0.413677
-29.9416 21.9816 -0.414704
-37.1712 -20.7698 -0.479384
-18.2981 -41.9657 -0.488909
-11.5741 -34.8376 -0.368923
-31.6831 -55.8253 -0.590144
-13.9728 17.7245 -0.173991
-26.3417 -13.2807 -0.238322
-14.648 17.8561 -0.158728
-22.0187 19.6649 -0.152937
-20.4991 19.2277 -0.128833
-10.4665 -13.4555 -0.059802
14.8888 7.82145 -0.0207363
11.1956 -9.84475 -0.0077419
-33.849 -18.5397 0.0588768
-10.9471 -32.535 0.112675
17.1603 -12.4676 0.092301
-18.0431 -41.4234 0.201998
19.0288 -13.4073 0.123923
7.25503 -12.4714 0.105372
26.4029 -10.8326 0.17587
-53.5729 19.1295 0.540952
16.4372 -12.1819 0.195559
38.2326 -7.80581 0.368622
-28.6828 -8.08781 0.348279
-35.5359 -21.4486 0.457898
-10.9621 -31.4079 0.357792
-52.3982 28.7175 0.728933
-12.2701 -34.0013 0.431443
-9.95364 -30.5956 0.387027
6.41295 -13.1084 0.186329
7.27734 -11.2114 0.175802
-27.4559 21.5523 0.533184
11.404 -9.95963 0.227732
-23.5324 20.1247 0.509901
10.9853 -9.80862 0.231233
13.0931 -10.7788 0.267333
37.1422 -7.94913 0.632343
-33.8474 -22.677 0.741295
-30.4109 21.7443 0.732733
6.22271 -13.0015 0.279697
7.08343 -11.1474 0.254489
8.07874 -9.47994 0.243269
29.478 60.6143 1.46423
7.77939 -9.5054 0.277732
10.2007 -9.23928 0.3321
-28.4222 -9.11378 0.718701
-22.7553 19.8621 0.815971
-26.8814 21.1962 0.91744
-28.5503 -8.57257 0.785234
9.24887 -8.95279 0.347768
9.68823 -9.00456 0.360588
-24.9454 21.0245 0.885104
25.7102 -5.20128 0.730523
13.1028 -10.7491 0.504977
15.2421 24.8307 0.898182
6.26807 -12.9309 0.452147
7.52853 -11.7359 0.437565
-28.0925 -7.92287 0.957379
-12.4404 -19.0476 0.749948
-27.7821 -8.6832 1.00611
16.3244 11.1733 0.714626
-29.3385 -18.1799 1.20653
16.283 28.2854 1.16404
-29.9602 -16.3423 1.2647
23.8178 -4.30095 0.874587
-27.3807 -19.4736 1.24524
-7.26851 -7.92513 0.405743
9.10842 -8.88214 0.472937
12.62 13.8051 0.720783
27.7754 57.2991 2.41041
26.5845 56.6013 2.35363
-11.4886 -9.0937 0.577674
8.77561 -8.72103 0.489438
-25.0432 20.6298 1.31578
22.0747 -2.99178 0.902603
-28.3526 -17.2213 1.35908
9.47534 -8.98455 0.535409
12.6569 14.5772 0.830194
6.65164 -12.5969 0.604848
15.1752 19.7179 1.09342
21.4266 29.596 1.59966
-9.41573 -13.6906 0.730536
-9.88039 -15.4525 0.814473
7.661 -11.0417 0.592088
8.67562 -8.76565 0.557342
24.4817 -3.75045 1.11841
-29.458 -8.58444 1.40025
6.80058 -11.1801 0.602044
-8.23978 -8.10886 0.543995
22.4521 45.3 2.41818
-28.1192 -17.3786 1.56268
-9.68784 -13.589 0.794518
9.72393 -9.02218 0.624786
16.4468 45.7054 2.35073
-29.8136 -13.2053 1.55625
-6.73837 -8.21501 0.522775
15.2031 35.3554 1.9633
-29.3283 -11.4849 1.58049
-7.568 -6.95899 0.51957
-6.67878 -7.57109 0.510648
16.6788 30.2136 1.79153
10.6855 12.4948 0.888217
14.5185 19.7573 1.31608
9.40438 -8.98227 0.696794
15.1142 19.6656 1.36917
15.6734 24.2076 1.58759
-26.9048 18.9439 1.80212
-6.948 -8.16534 0.59451
-25.8381 19.8257 1.80918
6.16998 -13.0276 0.806333
-7.07629 -9.11942 0.658266
10.088 12.6007 0.949051
15.3249 25.8206 1.75384
6.54157 -13.1384 0.844489
14.1819 23.1374 1.60264
-8.22688 -8.08665 0.694991
11.6705 11.7511 0.987388
14.9656 19.9045 1.49592
-7.36177 -9.96567 0.770613
7.06812 -11.2637 0.810308
11.345 -9.78578 0.908315
5.9143 -10.842 0.766253
-7.17469 -6.63159 0.610386
14.7835 20.9716 1.62323
16.2937 7.23256 1.15736
-7.01891 -6.13243 0.611437
6.54545 -13.6175 1.00669
9.65181 21.802 1.60832
10.5489 12.7148 1.12924
13.7989 18.5548 1.61262
12.6705 21.0078 1.6974
11.48 12.1269 1.17193
6.63942 -9.90175 0.844168
11.6272 11.8959 1.20366
9.84999 -6.95315 0.857909
12.5019 12.1029 1.27782
9.98002 -8.42806 0.95695
-6.10417 6.6157 0.671179
10.5241 9.26685 1.05323
12.1379 18.1483 1.64264
11.6928 18.629 1.65716
-6.92378 -7.67454 0.801441
11.0716 19.1096 1.69446
9.5681 -9.00843 1.01559
10.6215 14.2578 1.39375
-6.40476 -4.29161 0.6078
9.38049 18.7938 1.67853
10.1269 -6.92981 0.982547
12.5915 11.6826 1.3884
9.95271 19.3243 1.7503
-7.23338 -9.59441 0.978775
6.75324 -9.42977 0.943737
12.3782 11.8414 1.40351
12.2838 12.0808 1.43061
11.552 12.0745 1.38334
-5.02179 -11.4616 1.05292
10.443 13.0656 1.42314
-6.94383 -6.06776 0.794115
-6.79971 -6.67887 0.804965
-5.18306 -11.3678 1.06274
-7.27739 -7.72221 0.913717
9.3247 -7.28739 1.02249
-7.09759 -8.03166 0.937967
-6.99574 -7.66715 0.912742
9.50632 12.6891 1.40565
-6.92891 -8.34415 0.968969
10.9067 9.15144 1.2975
10.6012 13.6538 1.56179
10.6143 9.32216 1.29313
7.84159 14.2345 1.49491
-6.47841 -8.11105 0.95111
-6.87751 -8.98514 1.04441
11.3111 10.9092 1.44995
11.3457 9.25698 1.37022
10.9781 10.912 1.45095
6.61354 15.2834 1.56508
-11.3646 2.91146 1.09949
-6.35045 -4.16376 0.711158
-6.78969 -6.27906 0.857466
9.55911 13.4812 1.59431
-5.97815 6.49578 0.868354
7.988 -6.63214 1.01185
8.04637 13.4167 1.55415
-7.04722 -7.59443 1.04369
9.41353 11.7706 1.52028
7.1069 12.6189 1.46996
7.17074 13.2108 1.53258
9.61482 9.1704 1.37509
5.9737 14.2411 1.601
9.25525 12.588 1.62907
-6.0969 -4.4492 0.790877
6.06993 13.9479 1.60264
6.33168 13.8695 1.6032
-6.95525 -4.41807 0.881075
8.84256 9.09538 1.35243
9.22567 10.2777 1.50213
7.41581 11.1352 1.45412
5.90961 11.6402 1.41955
-6.28217 -7.39031 1.06014
10.3315 6.49312 1.35015
9.05997 8.2001 1.34708
7.40657 11.8393 1.54224
6.9377 11.7916 1.51281
5.4434 12.088 1.47533
4.95449 12.316 1.48564
4.8065 13.9788 1.62679
9.93234 7.10171 1.36342
8.83615 9.39282 1.44111
5.46472 11.6932 1.45382
-6.8231 -6.7054 1.06467
6.94862 10.8459 1.45122
4.41159 13.4588 1.60136
9.78682 -3.20705 1.14834
-6.09224 -5.40342 0.942599
7.31013 -6.13751 1.08349
10.4749 5.74735 1.37039
-7.36039 -0.982996 0.850468
-6.24454 -5.34511 0.945945
5.25327 -5.56219 0.881441
5.14994 11.8129 1.4974
-6.86782 -4.5491 0.954354
4.46278 -7.27695 0.987147
10.4638 5.17641 1.36998
8.94916 7.94288 1.40475
-5.99196 -4.36085 0.863432
-6.47194 -5.26215 0.985197
4.10372 -7.88845 1.05737
4.97182 -5.85634 0.921646
10.2186 4.77811 1.35232
8.58451 8.3359 1.44945
5.35714 11.6713 1.56805
9.09819 6.30285 1.35522
8.07478 8.40364 1.46006
-6.47518 -5.73379 1.07651
3.71479 -7.58983 1.05825
8.72979 6.73108 1.38628
-6.45407 -5.33302 1.05943
9.14227 6.04719 1.39953
8.23772 7.18802 1.395
8.17099 7.56017 1.42149
5.78487 -5.35277 1.01187
-6.95667 -4.43336 1.05864
8.16282 8.05954 1.48804
-7.33709 -1.0395 0.957019
-6.90848 -2.82041 0.974169
9.01571 4.11942 1.29818
8.45455 6.67004 1.41381
5.00472 -6.03566 1.03062
4.92311 -6.2009 1.04842
6.88263 -4.29044 1.07959
-7.11614 -1.7141 0.980874
-6.99391 -2.21501 0.980456
-6.01551 -4.41507 0.997329
8.18629 6.70044 1.43429
8.64981 4.46022 1.32696
8.67554 5.19351 1.38118
8.08256 7.18637 1.47227
-6.7944 -3.72578 1.05189
8.90151 4.17839 1.3461
8.31141 5.86626 1.39324
-6.38606 -4.32097 1.05484
-5.94783 -4.51773 1.01982
5.41644 9.1277 1.46637
3.69851 10.2326 1.51168
-7.34739 -1.08994 1.0282
-6.88937 -3.9186 1.09966
4.95372 -5.54897 1.02801
5.23408 -5.40429 1.04419
7.47995 -3.54478 1.1576
3.44204 10.3237 1.52559
8.44219 4.62047 1.3615
7.39107 -3.68615 1.17169
7.60417 -3.34245 1.18426
7.78018 -3.31349 1.19995
8.97346 2.82553 1.35419
4.83831 -5.6407 1.0682
7.36909 -2.85902 1.15081
-6.94332 -3.29294 1.1198
7.93738 -2.78637 1.22654
8.68922 -1.82523 1.30336
5.06153 8.66626 1.48185
3.00033 9.59141 1.49592
7.75051 -1.8924 1.17586
7.27128 5.79086 1.38515
3.5081 9.70571 1.52626
3.23872 9.9577 1.5527
-7.34956 -1.04044 1.10017
-7.05755 -2.01821 1.09358
6.99156 6.32916 1.42405
-6.25149 -2.26744 0.997617
-7.22092 -1.37163 1.10911
7.97966 4.84223 1.42214
5.75659 7.41787 1.42496
5.34022 7.70009 1.42651
5.10635 8.09243 1.44708
6.77147 -3.23139 1.13472
7.26126 -3.13116 1.21102
7.65353 -2.76178 1.23995
-7.29558 -0.730838 1.11926
-7.07997 -1.9497 1.13305
6.80124 -3.09838 1.15584
3.75207 -5.79004 1.06689
-7.03617 -2.071 1.14952
-7.32558 -1.08984 1.1625
7.39824 4.79873 1.39292
-7.17963 -1.4397 1.16462
-7.25187 -1.29756 1.18163
-7.08021 -2.01409 1.19668
7.10517 4.7871 1.3987
-7.08377 -1.94066 1.20615
7.04509 4.88977 1.42465
6.64881 4.87685 1.37623
5.24318 6.28754 1.36415
4.71431 7.23552 1.44271
3.86465 8.02175 1.48066
-7.22986 -1.36983 1.22797
2.79179 -5.77567 1.08143
7.17585 4.44968 1.4226
6.54893 5.26685 1.41801
3.87549 -5.36782 1.11628
3.93785 -5.0225 1.08044
-7.2526 -1.24902 1.248
-6.5846 -2.61976 1.202
7.44384 2.85834 1.35256
7.06026 3.908 1.37535
-6.4017 -2.74757 1.18491
6.80447 4.11678 1.36546
5.68971 -3.52412 1.152
-7.37524 -1.03668 1.28753
-6.34436 -2.27592 1.15843
5.54185 -3.65224 1.14409
5.32452 -3.77797 1.14442
3.63198 7.23267 1.42428
-6.7836 -1.73109 1.22912
4.48268 -4.4701 1.11415
-7.07315 -0.912185 1.27
4.729 -4.46135 1.15056
4.36298 6.54471 1.40402
6.61165 3.48743 1.3501
6.65248 3.6975 1.36746
-6.4274 -1.49729 1.18657
3.60975 -5.32769 1.17071
5.10916 5.6478 1.39482
-6.14379 -2.17922 1.19435
3.4129 -5.15824 1.15032
3.41924 6.83483 1.43044
-1.69756 -5.78079 1.14425
6.46609 2.74102 1.33668
-2.14268 -5.72574 1.17507
6.32992 2.8053 1.33314
-2.78641 -5.37418 1.18603
-3.49649 5.30865 1.37587
4.48966 3.91011 1.35916
4.15155 -2.87904 1.17731
4.63137 -2.18756 1.23779
4.21452 3.30367 1.32688
3.70641 -2.92947 1.22373
4.02954 2.58192 1.33742
-1.44563 -4.12372 1.22305
-2.32358 -3.58316 1.21315
3.86989 2.37057 1.31523
-2.84873 3.50985 1.35397
-2.4834 -2.91944 1.18999
-2.38093 -2.94077 1.195
1.83709 -2.80317 1.17884
1.86018 -2.78172 1.20888
1.98632 -2.51949 1.19551
-2.03715 2.79688 1.3145
2.80221 -0.555335 1.25894
2.78191 -0.336638 1.24085
-2.09219 -1.62111 1.21353
-2.07979 -1.4529 1.23851
-1.8653 -1.79841 1.28429
-1.99723 -1.13263 1.20483
-1.98866 -1.07148 1.23161
-1.94831 -0.881215 1.23172
-1.9325 -0.709044 1.22188
-1.93133 -0.702116 1.24907
-1.90747 -0.470081 1.22171
-1.87276 -0.34601 1.21884
-1.85771 -0.401526 1.22563
2.37448 -19.6334 -9.97942
-7.56474 -8.93111 0.462765
8.05135 -8.83547 -10.5096
8.29597 -8.66227 -10.5431
8.2474 -8.32189 -9.92334
6.98619 -12.0033 -11.4532
8.55452 -9.01323 -9.78394
7.88223 -8.9728 -9.17138
5.87163 -12.8417 -10.765
9.47401 -8.87747 -9.79213
6.17039 -14.1421 -11.6143
8.32385 -8.71676 -9.06122
8.05328 -9.20884 -9.14755
7.3225 -9.28367 -8.80862
5.93372 -14.2041 -11.2303
7.75261 -9.34657 -8.76173
7.88978 -9.15575 -8.70559
7.15798 -10.6225 -9.11895
6.84922 -11.1185 -9.2567
10.1106 -9.24487 -9.62116
6.56748 -11.2213 -8.90017
8.06787 -8.66468 -7.88328
7.39312 -9.32119 -7.90555
8.55491 -8.72042 -8.1195
7.75709 -9.5173 -8.06554
6.51727 -12.8308 -9.39619
7.96988 -9.22254 -7.94929
5.01433 -16.0688 -10.826
-0.477951 13.9065 -8.89778
7.76243 -9.28538 -7.7602
7.37139 -10.9159 -8.38572
8.417 -8.60578 -7.66861
10.9426 -9.67969 -9.26584
9.03245 -8.86054 -7.9349
11.8478 -10.1028 -9.75717
8.11108 -8.57608 -7.26169
4.04635 -16.8522 -10.6216
4.26018 -15.4094 -9.81579
7.88235 -9.40345 -7.3527
3.95843 -15.6424 -9.62139
11.5578 -9.89437 -9.11152
6.89754 -11.1294 -7.77383
7.80348 -8.85447 -6.99116
5.5104 -14.0513 -8.91658
6.51883 -12.7631 -8.38626
8.40055 -8.63362 -7.01957
9.74229 -9.13183 -7.78544
2.80068 -11.8324 -6.96903
5.5119 -13.9782 -8.50632
9.65009 -9.15755 -7.51986
6.6486 -11.1202 -7.29441
3.34184 -20.6374 -11.7169
8.92415 -8.98435 -7.09828
12.2786 -10.3012 -8.97812
6.85544 -11.0558 -7.24641
4.70416 -14.6715 -8.51394
6.25348 -12.6835 -7.77835
0.891878 18.6196 -10.1488
14.7466 7.79276 -9.06382
4.2227 -14.3007 -8.05237
14.8547 -11.7544 -10.21
15.1054 7.50668 -8.98629
14.1314 7.78653 -8.5745
4.78339 -14.8977 -8.31305
12.1652 -10.2186 -8.36
1.81145 -20.4224 -10.5482
11.4909 -9.91633 -7.77534
2.07929 -20.1614 -10.2852
14.0812 -11.1767 -9.09232
-0.000788627 14.2638 -7.16002
-7.19022 14.9397 -8.30701
10.6601 -9.65991 -7.2279
7.55311 -9.47336 -6.03584
17.8147 5.54429 -9.10223
-8.37411 15.8699 -8.67025
11.7239 -9.846 -7.40956
10.5591 -9.64365 -6.86621
14.9135 -11.4333 -9.06306
16.9181 16.028 -11.0741
7.52917 -11.1275 -6.40041
15.1458 7.48391 -7.92799
14.0368 -11.1146 -8.36732
-11.7318 16.7969 -9.38526
15.9839 -12.1108 -9.16065
9.81576 -2.46116 -4.64886
-9.07137 -1.64916 -4.19258
19.0146 18.35 -11.9258
3.92768 -9.13169 -4.51134
-10.0315 16.3837 -8.62532
-5.31233 4.41714 -3.10603
6.89983 -11.3584 -5.98215
9.47922 -9.1358 -5.80602
16.1661 7.37498 -7.8403
-6.52379 14.8105 -7.06673
1.50314 -18.7411 -8.13152
-10.9649 16.6804 -8.5929
9.62027 -3.38395 -4.3683
7.05936 -11.1106 -5.56403
15.9648 -12.0678 -8.37649
14.7804 7.8136 -7.01382
19.0611 19.8332 -11.4988
1.01714 -22.4668 -9.36361
-4.47372 13.6739 -5.92667
-9.88581 -1.10572 -4.12242
14.2129 7.84839 -6.63043
20.8455 22.6769 -12.558
-12.9692 2.43044 -5.37482
15.251 7.24642 -6.83001
-5.13937 14.076 -6.02526
3.65166 -8.84001 -3.80662
12.4806 -10.3428 -6.34941
14.0598 -11.1013 -7.00024
19.6474 21.9915 -11.4418
18.9947 5.85745 -7.70859
1.54414 19.3821 -7.5405
-8.56471 15.4292 -6.8017
11.4768 -10.1189 -5.88482
19.601 22.727 -11.5631
0.67947 15.424 -5.91353
-1.65096 12.6385 -4.9029
2.71821 -12.2588 -4.8174
-8.73409 -1.24744 -3.35338
0.699851 -23.4213 -8.84277
15.3248 -11.7439 -7.28076
9.52844 -3.47687 -3.82639
-14.2794 17.6021 -8.44653
-7.8655 -3.49402 -3.15663
1.09467 -10.4373 -3.85998
7.07118 -11.3043 -4.87551
14.3261 7.99949 -5.92495
-8.26417 -2.83739 -3.14194
0.78721 15.3444 -5.47968
-3.88557 13.131 -4.84329
5.76942 -11.0471 -4.3854
15.9871 -12.0819 -7.0968
19.2756 5.95338 -7.09828
2.13925 20.9375 -7.3834
22.1363 26.7626 -12.0727
-14.5487 17.958 -7.93221
2.98664 -13.4012 -4.72506
-8.70132 15.7159 -6.13788
18.6892 -13.2371 -7.84875
-4.94619 14.2035 -5.11312
1.35176 -22.0494 -7.32126
1.76969 19.7936 -6.56662
1.44861 -10.3153 -3.44263
40.0175 -20.456 -14.7476
6.19811 -10.094 -3.79122
17.7537 -12.5357 -6.96027
2.13296 20.8774 -6.68071
-13.0531 17.4253 -6.86392
1.43836 -22.4688 -7.01622
-4.22063 14.4374 -4.67328
-10.7043 16.2179 -5.88857
-2.68016 -27.3045 -8.33763
3.07549 -9.50303 -3.03529
0.787322 -23.9496 -7.20755
19.3536 -13.7372 -7.04172
17.7685 5.62132 -5.4692
-7.7116 14.9264 -4.89025
4.24871 -10.5418 -3.30285
3.64022 -10.6239 -3.19583
4.26616 -11.0081 -3.3136
-12.9941 17.3677 -6.03319
-9.06749 15.4995 -4.88448
-13.1435 1.97027 -3.64408
-16.5038 18.9611 -6.82536
26.7309 -17.5972 -8.67068
-3.78974 -27.0334 -7.32424
3.79721 -9.17928 -2.65762
-9.56963 15.9067 -4.94061
48.3969 -14.1308 -13.3684
10.6015 -9.45544 -3.76004
-6.28775 14.5557 -4.14117
-14.0726 17.6433 -5.9219
-7.70129 -36.4485 -9.70669
4.9817 -9.61652 -2.80304
6.59445 -10.5533 -3.21013
-7.02602 14.9099 -4.18894
-10.3046 16.049 -4.87274
-9.48317 -37.586 -9.64315
-8.63852 -37.2982 -9.35232
11.0175 -9.71234 -3.61127
-7.77129 15.0812 -4.11335
-11.4417 16.6299 -4.88603
14.7521 7.79263 -3.96096
4.06172 -9.28629 -2.39869
15.3596 7.60703 -4.04042
3.76104 -8.94212 -2.28023
-6.31194 -31.4579 -7.43193
5.65313 -9.93104 -2.64834
45.7529 -11.0721 -10.9405
-12.4963 17.0213 -4.86028
15.011 7.68776 -3.81663
44.7454 -9.67971 -10.3703
-9.54587 15.9001 -4.15055
3.7331 -9.29904 -2.17979
43.8869 -11.2587 -9.88823
15.2728 7.57693 -3.65191
-10.3718 16.1898 -4.118
-21.303 -33.4906 -8.52849
4.84569 -9.80079 -2.35847
46.0643 -10.7859 -10.1217
-14.4184 17.8637 -4.82967
-31.5418 -23.2806 -8.31011
42.585 -14.2487 -9.49935
14.998 7.92538 -3.53877
-34.4306 23.2838 -8.49921
-8.035 -32.8682 -6.85452
3.97967 -11.5854 -2.46202
45.5681 -9.83174 -9.48107
11.8663 -9.82247 -3.08906
43.9118 -11.3044 -9.0352
-26.2968 19.8442 -6.53905
6.18099 -10.3454 -2.39906
46.9991 -10.9907 -9.42658
-12.4719 17.0169 -4.07701
-26.1575 20.4993 -6.45776
16.2584 12.2983 -3.89776
-6.69221 14.7302 -3.10521
-32.4121 -23.4439 -7.65725
-30.9499 -24.2358 -7.5551
-34.6543 23.0922 -7.84186
-32.9319 -21.7239 -7.45591
18.2014 5.72244 -3.56194
-33.4641 -20.1911 -7.29944
-14.3797 -41.4593 -8.17714
3.79303 -9.87914 -1.99226
-23.0959 -57.5014 -11.5273
-16.0427 -43.2209 -8.43471
3.99594 -9.68483 -1.88955
13.1735 -10.2938 -3.01481
46.4506 -10.3366 -8.54724
-14.3721 17.8251 -4.09113
-26.298 20.6259 -5.90062
15.2403 8.0676 -3.00438
-29.6325 -25.8226 -6.85138
43.7724 -11.2123 -7.75737
-7.72456 14.8799 -2.8395
-9.46706 17.4344 -3.35087
45.6979 -10.7575 -7.93816
-29.9097 21.7863 -6.22977
-29.6647 -22.8223 -6.25617
-20.2925 19.403 -4.67099
-31.4577 22.2163 -6.42487
16.0834 -12.0003 -3.28809
-10.0709 15.9884 -3.00581
-42.0046 24.717 -7.73246
-30.9912 -23.2817 -6.20591
-32.7863 -22.6149 -6.27361
3.4526 -9.54842 -1.58768
-23.18 19.8014 -4.70822
17.0999 -12.0887 -3.24352
-10.8913 16.3002 -2.97807
47.1514 -11.0506 -7.35007
-21.7336 -50.3667 -8.29053
-28.7061 21.529 -5.36533
-37.2663 23.2366 -6.5188
-30.9997 -24.0631 -5.85513
45.6884 -9.79084 -6.95697
-33.0352 -23.8913 -5.95744
-48.2214 26.9242 -7.94152
-34.791 -23.206 -6.02016
6.80162 -13.0523 -2.13675
-35.492 -20.6281 -5.81022
-6.73434 14.847 -2.26352
-12.7866 17.2611 -2.98862
-31.2827 22.5223 -5.38808
-23.3767 -52.0613 -7.87081
-15.3535 -44.8846 -6.52557
37.4314 -12.4483 -5.40951
-22.6048 19.8643 -4.00417
-31.6183 -23.6785 -5.15757
-30.0101 -24.6193 -5.13241
-33.2135 -22.8742 -5.16621
7.48951 -9.4863 -1.56274
43.8316 -11.22 -5.80513
-32.5964 22.1813 -5.013
-29.3114 -15.6408 -4.23534
6.06508 -7.85472 -1.2676
45.8554 -10.778 -5.97153
-30.2486 22.2312 -4.68453
14.6471 -11.4114 -2.28094
-29.2137 22.0031 -4.42446
-31.7151 22.4199 -4.67653
-10.0886 16.0457 -2.18963
-30.9119 -22.2323 -4.4801
-21.8393 -52.5741 -6.62393
13.1045 -10.5988 -1.9728
36.503 -12.0623 -4.448
6.3881 -10.4174 -1.40442
11.2777 -9.7729 -1.68123
16.6279 -12.3803 -2.33579
-10.79 16.1792 -2.15313
6.82786 -12.7216 -1.58187
11.6912 -9.76341 -1.68671
43.6665 -11.1976 -4.94874
-37.8981 23.6301 -4.79375
45.9223 -10.7309 -5.07723
15.0665 -11.5694 -2.02074
-12.6366 17.0723 -2.18159
14.923 7.89861 -1.68808
14.1387 -11.1537 -1.79874
-13.6644 17.4763 -2.15167
6.46718 -12.3935 -1.34544
9.46317 -8.97622 -1.26061
17.2109 -12.5848 -2.08059
-28.4616 -13.6003 -2.97191
-14.6167 17.8991 -2.15425
-34.7225 -67.6459 -7.07849
-33.321 -20.8504 -3.48075
16.3145 -12.225 -1.8343
39.3199 -13.0832 -3.70837
11.1977 -9.95384 -1.23802
44.0965 -11.2706 -3.79559
-15.5577 -40.4856 -3.48421
-37.2602 -72.8574 -6.37489
17.8295 -12.9924 -1.74204
-29.3975 22.2491 -2.82045
7.4923 -9.22936 -0.9201
-31.9818 22.6392 -2.91129
-15.9582 -39.4779 -3.1827
-34.6179 -65.1424 -5.2465
-33.4472 -66.9895 -5.12946
12.6808 -10.5532 -1.11033
17.2655 -12.5752 -1.44368
-38.3227 23.8573 -2.95227
44.3667 -11.3591 -3.00576
-28.2696 -13.2931 -1.87107
-37.6421 -72.7234 -4.95917
14.6523 -11.4229 -1.11931
31.8238 -20.9641 -2.08186
31.7721 -20.0248 -2.0522
15.5032 7.65675 -0.897709
14.9363 7.92016 -0.869837
-12.5559 17.1345 -1.0782
-23.4905 -51.8368 -2.92393
-13.009 -35.4085 -1.86988
-26.7574 -15.4536 -1.46667
-39.4007 -74.2573 -4.10489
9.71969 -9.15413 -0.667772
13.5736 -10.7944 -0.851673
16.1616 10.2813 -0.905606
16.4793 11.5505 -0.937708
6.90556 -12.6656 -0.685834
-19.8607 -5.86022 -0.889381
-28.5983 -50.9652 -2.5783
10.3516 -13.9754 -0.710634
18.2758 -13.1796 -0.920619
43.5499 -11.1244 -1.78826
-9.32279 -12.3305 -0.596411
45.1412 -10.5707 -1.82263
22.783 27.3902 -1.21662
-31.9132 21.8159 -1.34064
-35.8086 -20.0799 -1.33662
-17.4756 -43.5536 -1.50756
16.6665 -12.4342 -0.678265
14.503 3.92841 -0.443504
-24.5062 -56.3126 -1.84103
-22.2924 19.8581 -0.853558
-11.8789 -36.0201 -1.01961
43.9697 -9.34061 -1.25658
-40.8188 25.3899 -1.30066
-52.9165 19.0282 -1.34828
44.6968 -10.3792 -0.986529
-30.2295 22.846 -0.758253
-29.9642 9.53093 -0.658157
33.2512 58.2182 -1.23473
-29.546 21.8061 -0.704201
13.0862 -10.7226 -0.293025
-34.0188 -21.1707 -0.621133
-28.9972 -58.3165 -0.968539
17.694 -12.7605 -0.316745
-12.1326 -36.68 -0.498068
-13.9331 17.6875 -0.230152
-19.2726 -44.2926 -0.524298
30.8614 -19.3297 -0.32791
-22.2865 19.8846 -0.203483
-9.85154 -12.6441 -0.0484454
7.08318 -11.8156 -0.0237574
14.7595 7.71847 0.00015975
-34.9937 -21.6084 0.219221
-23.1374 -39.545 0.338385
-51.8293 28.3926 0.602859
6.75265 -11.9812 0.142525
8.05357 -9.15693 0.121915
-40.3766 -21.4663 0.502709
-11.1391 -31.5453 0.373833
11.1814 -9.74701 0.194564
-22.6765 19.3761 0.391785
-12.2421 -18.9942 0.328765
-30.5267 21.7228 0.666522
-34.6393 -23.2227 0.746545
-34.1289 -25.2125 0.740649
10.709 -9.62384 0.235026
7.83819 -9.66185 0.267397
7.94198 -9.26978 0.263435
-68.7334 23.8011 1.69901
18.3177 -13.297 0.551389
-28.4178 -8.53739 0.793986
-27.4004 21.4875 1.00218
11.6707 -9.9991 0.419287
17.415 -7.54897 0.540608
-24.5011 20.78 0.955737
-7.87845 -9.23867 0.38642
12.8731 13.9961 0.675947
-27.4522 -19.5305 1.16356
6.2094 -12.7941 0.500366
8.95939 -8.81632 0.429584
24.8058 -4.39574 0.842752
18.8242 17.9769 0.939573
14.1883 24.5616 1.06628
-55.4512 18.2268 2.10036
24.6099 -4.78074 0.949971
-24.9745 20.4014 1.21823
9.43369 -8.97455 0.503463
22.5894 -3.11222 0.861621
12.3751 14.3331 0.77494
15.0296 19.4199 1.00533
6.58147 -12.4786 0.579098
18.726 43.2825 1.96848
7.70531 -11.1037 0.569789
-7.53553 -7.41775 0.467132
-8.24252 -11.4037 0.628833
-29.2618 -11.5837 1.49886
16.5507 10.7443 0.983301
-7.71177 -7.1754 0.504418
15.6232 24.2723 1.49135
-6.94006 -8.16986 0.589285
14.8054 20.274 1.37561
-25.6199 19.7282 1.78708
14.7313 23.9912 1.63016
-7.10793 -9.16265 0.662715
6.89532 -13.6645 0.878508
10.0127 12.5946 0.952256
14.9554 19.8701 1.55918
15.3908 27.392 1.93466
10.6956 29.9959 2.02563
-7.28301 -9.94038 0.788425
9.71785 22.1464 1.62349
11.5181 10.1318 1.09341
11.5697 12.2347 1.1887
13.8787 16.0371 1.51781
8.25904 -12.7313 1.07129
10.8415 9.04995 1.03909
13.041 14.6268 1.46637
-14.2561 8.40709 1.25088
-11.0871 2.08867 0.853085
12.5971 16.3979 1.60489
11.7636 18.7477 1.71898
10.1339 -6.93515 0.958898
-7.65647 -8.09941 0.891641
12.8637 11.6444 1.4154
11.9581 11.6986 1.38878
-6.99982 -6.15876 0.757538
-7.04991 -6.89366 0.81783
-7.02799 -8.89981 0.97695
11.5696 12.0769 1.4423
9.10965 -7.15878 1.00878
10.7103 9.43481 1.29766
-11.3528 2.90706 1.0765
-7.60969 -7.08773 0.93423
11.716 9.04018 1.41713
9.30682 13.161 1.54808
7.26961 13.3767 1.49249
8.50332 13.2212 1.57671
-6.73691 -6.71324 0.945312
7.88451 -6.55385 1.00357
9.76557 12.2318 1.56891
10.0037 10.2189 1.47714
-6.87615 -5.3977 0.909571
9.67267 9.2107 1.42409
8.25912 11.2289 1.46139
6.83442 13.2523 1.58905
9.64108 8.41297 1.35459
9.24477 10.2968 1.50768
5.75267 12.6721 1.50696
-6.37965 -7.51335 1.06514
6.74538 11.4807 1.46539
5.31022 13.3059 1.58112
-6.82076 -3.97803 0.871756
-6.69027 -6.0719 0.995333
3.92923 -7.78711 0.965554
5.44699 -6.10254 0.919098
9.39971 7.56707 1.35642
9.11968 9.70537 1.50203
7.98221 11.3693 1.55317
6.82746 10.7751 1.45496
-6.87339 -4.56542 0.935659
4.71804 -7.69794 1.04321
-10.5666 7.08352 1.47576
-7.08168 -2.13063 0.86033
9.04326 6.10908 1.29856
5.94783 12.1396 1.5981
5.02758 11.6271 1.49457
4.77581 -5.86603 0.890383
4.12252 -7.90425 1.08394
8.3559 3.87033 1.15439
10.998 5.48569 1.5107
4.61499 12.8411 1.69921
-6.15427 -5.38441 1.00284
-9.11509 1.29929 1.14716
8.29065 7.58273 1.42218
-6.43214 -5.31587 1.05533
7.82632 8.22015 1.45945
-6.88117 -3.56998 1.00356
4.97192 -5.97108 1.00319
5.02571 -5.42972 0.964757
8.43148 6.93705 1.44654
7.9755 7.88643 1.49256
-7.19502 -1.72194 0.996538
-7.02412 -2.20724 0.986357
-6.48183 -4.37031 1.03836
4.83392 -6.0933 1.03507
8.41254 6.37584 1.43595
-6.84422 -4.21452 1.08288
-6.04621 -4.44262 1.00893
4.95236 -5.54052 1.02049
7.4214 -3.52495 1.14362
8.37993 4.25453 1.33505
8.34447 4.58539 1.35121
-6.93383 -2.90456 1.07468
7.4892 -3.73788 1.1953
7.02533 -3.05881 1.08098
4.94414 -5.79251 1.09938
8.20423 -1.73598 1.21458
-6.95312 -3.2549 1.13846
7.40629 5.58087 1.39307
5.77385 7.45471 1.42456
7.99936 3.9198 1.36134
7.92147 4.20099 1.36345
5.45448 7.83252 1.45154
5.1035 8.71793 1.52679
3.52489 9.64247 1.54964
-7.00202 -2.8242 1.15082
7.69085 -2.79786 1.25371
7.85621 -2.23886 1.2608
7.80579 -2.01941 1.24598
7.47565 4.2107 1.38371
7.08078 4.76129 1.40237
6.75409 4.92275 1.38997
5.39804 6.46883 1.40246
-7.19823 -1.35936 1.21263
5.00845 7.35543 1.48563
4.73976 7.25461 1.45519
-7.212 -0.803365 1.21476
2.86628 -5.93054 1.11051
6.70969 4.09444 1.34323
6.51959 5.23714 1.42043
3.85293 7.97419 1.48703
-6.37543 -2.29935 1.1496
-6.28198 -2.68053 1.16458
3.77291 -5.24104 1.0996
-6.96775 -1.79427 1.25704
4.23627 -4.64324 1.10471
6.67509 3.51502 1.36265
5.07151 5.60977 1.38249
3.63301 -5.36176 1.17958
3.37275 6.76367 1.40975
6.50504 3.05255 1.36537
6.43695 2.71807 1.33425
-1.65038 -5.71128 1.14109
-2.17184 -5.76529 1.201
6.26157 2.3806 1.33923
3.93917 -4.58059 1.20183
-2.96616 5.53599 1.33793
-3.58932 5.16259 1.36924
4.20907 -2.92785 1.20542
-4.25241 3.90544 1.40583
4.58958 -2.18845 1.23429
4.4817 -1.27011 1.15851
3.70743 -2.93457 1.23201
3.67726 -2.5837 1.19264
3.42302 -2.97615 1.22448
-2.32298 -3.61921 1.20755
-2.50109 -2.929 1.19763
1.86676 -2.48464 1.12889
1.92852 -2.64267 1.19357
-2.03362 2.78978 1.30702
-2.07376 -1.46506 1.19736
-1.827 -1.83244 1.30311
-1.97814 -1.17278 1.20977
6.91696 -6.92773 -8.89531
9.71273 -9.08493 -9.41339
9.27201 -8.95676 -7.6821
2.44373 -20.0128 -10.7071
3.68052 -9.32018 -4.5182
27.2422 33.8475 -14.5955
2.08531 20.7175 -6.17612
-21.8872 -30.4883 -7.00851
-27.8199 -25.8739 -5.85796
9.5585 -8.81872 -1.62561
8.80279 -8.67384 -1.23908
8.955 -8.83237 -0.932339
19.3812 -13.7229 -1.29827
44.3922 -11.9237 -2.37938
-30.9918 -13.1072 0.339288
10.1265 6.9696 1.30532
-3.46364 5.26925 1.35319
7.99995 -8.25868 -10.3149
7.86095 -8.28538 -10.0541
8.39722 -8.48701 -9.8874
6.85325 -11.8306 -11.2324
7.99391 -8.25439 -9.0897
8.03443 -8.73534 -9.1209
6.2255 -14.1705 -11.6447
5.87755 -14.1973 -11.2508
9.1137 -8.85927 -9.31774
7.64917 -9.23154 -8.68909
7.87847 -9.13452 -8.62353
7.2344 -10.7183 -9.20116
10.2689 -9.34829 -9.73435
6.44138 -11.1011 -8.7689
8.19695 -9.10158 -8.21331
7.35739 -9.35113 -7.94166
7.98166 -9.2287 -8.02177
5.03618 -15.9678 -10.8006
-0.528238 14.3143 -9.19462
7.32519 -10.8197 -8.38136
7.63005 -9.16151 -7.62836
11.044 -9.85412 -9.39656
7.07452 -10.9554 -8.12803
8.21771 -8.62663 -7.40163
0.106061 14.3241 -8.72956
7.78331 -8.75333 -7.05713
11.5472 -9.80296 -9.14006
9.0143 -8.94234 -7.50387
6.59683 -12.8798 -8.53617
5.52723 -14.0087 -8.8499
7.07329 -11.1289 -7.56894
5.12251 -12.8584 -7.7721
3.16402 -19.3095 -10.9713
6.63486 -11.1331 -7.26194
7.87967 -9.0823 -6.74256
12.2584 -10.2678 -8.94177
-0.493117 14.3388 -7.8749
9.74469 -9.54577 -7.48003
13.3645 -10.7136 -9.2385
15.2166 10.423 -9.91188
15.1707 7.45444 -9.03518
13.9779 7.70724 -8.44454
11.4775 -9.90475 -7.78947
-0.0696286 15.2459 -7.71384
2.36202 -19.4324 -9.88909
10.7303 -9.61916 -7.2495
7.37232 -9.31115 -5.95786
14.2227 -11.2806 -9.14008
18.2257 -13.0317 -10.9001
18.7974 5.80425 -9.56066
2.65424 -19.4649 -9.54088
12.9324 -10.6832 -8.11008
15.5362 -11.8286 -9.47192
7.33559 -10.8131 -6.29273
15.1407 7.42243 -7.84955
7.12028 -10.9526 -6.08837
6.24984 -10.6747 -5.72834
10.0398 -2.51934 -4.75947
17.5466 -12.8204 -9.98426
-11.563 16.5943 -9.21534
3.55103 -9.05584 -4.40647
-10.0205 16.3776 -8.62488
16.1395 7.30014 -7.92835
-11.0165 16.7563 -8.64536
-6.98769 6.77601 -4.1905
-6.4143 6.39726 -3.85476
1.2024 -15.4704 -6.59578
20.3201 21.0548 -12.2847
16.374 -12.3746 -8.6294
15.2999 7.51927 -7.12614
-10.0133 -1.09268 -4.18259
20.3269 22.1286 -12.343
14.2285 7.86206 -6.6189
16.5653 7.46161 -7.30095
15.1494 7.79579 -6.83641
1.48947 -17.9036 -7.01553
18.8642 5.82068 -7.64222
19.8202 22.121 -11.4921
0.765792 16.344 -6.28819
-9.19215 -1.33318 -3.59844
0.706661 -23.8608 -9.08045
17.0787 -12.632 -7.94526
14.2934 7.98185 -5.92004
0.534044 -22.3184 -7.87011
-3.985 13.3885 -4.8993
-10.3762 15.9437 -6.65534
-0.841712 -22.4058 -7.88461
-14.6497 18.0766 -8.0441
-8.70568 15.7222 -6.16431
-4.92855 14.0291 -5.01028
1.27783 17.7728 -5.9402
-5.23711 13.9462 -4.9083
39.5158 -20.3036 -14.6651
12.575 -10.4015 -5.25887
8.058 -9.23183 -3.92604
7.43508 -8.83091 -3.57332
-4.13873 13.9198 -4.36683
11.6204 -9.85557 -4.59882
15.2815 9.61852 -5.17304
13.7756 -10.7566 -5.01455
-5.37271 14.317 -4.30121
-13.1078 17.5903 -6.18827
15.8641 10.7233 -5.27613
-9.38885 15.7747 -4.87646
-26.3409 20.401 -8.69872
-23.2499 19.53 -7.8531
-6.95851 14.7676 -4.17161
-7.73491 15.0049 -4.11422
-25.3451 20.0013 -7.86632
-3.22075 13.1616 -3.24243
-11.4408 16.5982 -4.81594
3.11964 -9.57974 -2.38242
14.9191 7.95852 -3.99301
-32.5044 -25.5179 -9.69171
5.43351 -11.7146 -3.04197
50.7096 -12.2303 -12.1224
-6.92198 -33.868 -7.94731
-9.47961 15.8968 -4.2288
15.2213 7.45855 -3.84129
-29.2619 21.2744 -8.03038
-11.662 -41.7411 -9.52219
3.74595 -9.46383 -2.24139
43.5391 -11.0321 -9.7023
-34.008 -22.3361 -8.67282
-14.4055 17.8749 -4.76578
14.7947 7.9022 -3.4849
-31.2063 -23.6135 -8.05682
9.35323 -9.25925 -2.72924
44.312 -11.2652 -9.37828
47.1762 -10.0051 -9.73229
-27.6819 20.7769 -6.82587
-20.5305 -33.3733 -7.70431
5.5684 -10.4758 -2.27223
-32.4022 -23.4101 -7.55884
-33.8228 -22.3183 -7.56833
-14.3781 17.873 -4.16477
15.4827 7.59178 -3.03941
-5.10314 13.6136 -2.55603
-18.0536 19.3171 -4.67341
-20.7273 -49.3528 -9.33654
-21.6744 -34.9649 -7.10059
-32.8953 22.2863 -6.73933
9.18488 -9.03406 -2.18631
-30.2023 22.0008 -6.08058
