ply
format ascii 1.0 
element vertex 1874
comment /media/mkaihara/Seagate Backup Plus Drive/model_iterations/model_94.ply
property float32 x 
property float32 y 
property float32 z 
end_header 
-5.08882 14.7767 -5.35609
3.6363 -8.44146 -3.16399
4.87072 -9.02253 -3.51371
-14.7584 18.3234 -8.05456
2.27336 -10.8798 -3.80917
-9.03552 16.3923 -6.38176
3.01802 -13.6569 -4.76908
-15.2423 18.7089 -8.18208
20.0443 5.44975 -6.98134
21.752 26.9077 -11.5619
35.6548 -20.1275 -13.6838
-5.38914 14.2971 -5.07591
1.90545 20.6224 -6.87047
1.26747 -10.2509 -3.41525
-5.33464 14.6926 -5.07821
-12.8067 17.5333 -7.04473
18.4499 -13.1472 -7.3577
3.55863 -8.67011 -3.00487
6.20816 -10.0942 -3.79806
2.31288 -11.0067 -3.57923
-4.63478 -34.801 -11.1574
-1.15062 -24.0796 -7.67277
14.9294 10.2819 -5.72005
-13.4428 17.8888 -7.07407
-18.3256 19.7663 -8.47427
6.94394 -11.0666 -4.03949
1.38818 -21.9715 -6.81023
-2.60907 -27.7736 -8.56166
7.08621 32.7139 -10.2119
0.771183 14.9872 -4.55748
-11.3322 17.0992 -6.18404
-2.74093 -26.9004 -8.14185
-14.6029 18.2586 -6.97715
-5.382 -35.2786 -10.6246
0.84197 -25.2311 -7.54782
-5.48527 15.0902 -4.77747
2.0696 20.5659 -6.08856
-21.6749 20.2104 -8.74436
18.1159 5.76487 -5.59544
-4.36379 14.6622 -4.49923
-8.06517 15.6484 -5.16622
4.25057 -9.13221 -2.96074
4.62732 -11.5951 -3.65073
-12.6838 2.23444 -3.70163
-33.852 -47.9511 -16.8882
-15.4708 18.6119 -6.95844
6.93928 -11.0523 -3.75741
2.56211 -9.54038 -2.80689
12.8875 -10.4317 -4.71879
-8.47138 -2.46542 -2.50179
20.7977 26.8213 -9.61427
-8.59965 -2.26653 -2.51309
-2.59623 -26.4811 -7.46574
-13.0932 2.0064 -3.68887
4.3783 -11.3053 -3.36522
-9.47682 16.2988 -5.17728
-13.2925 17.7286 -6.08723
-5.48858 14.6514 -4.27767
-8.7128 -42.3033 -11.8156
-21.8745 20.4131 -8.04423
-9.90481 16.4252 -5.14136
-27.2277 20.9159 -9.13477
11.3641 11.4374 -4.25346
4.31722 -11.2706 -3.19763
46.4756 -13.5105 -12.8225
-8.42225 -39.7401 -10.6754
4.0839 -8.6455 -2.51778
11.1366 -9.90553 -3.89926
-14.715 18.4249 -6.13233
6.52361 -10.4036 -3.17858
3.17455 -9.63585 -2.62291
-30.8937 -45.2468 -14.146
-4.45448 -29.2121 -7.64381
3.53506 -10.355 -2.82159
4.06255 -9.37428 -2.62614
15.5327 -11.6795 -4.959
-7.28979 15.5318 -4.34409
-32.3244 -43.1085 -13.6621
4.30253 -11.1208 -3.01818
4.25082 -7.69657 -2.23779
6.52061 -10.6364 -3.11167
44.2114 -13.3669 -11.5165
-28.8247 21.7471 -8.92769
-11.7382 17.2461 -5.14393
-28.2263 -41.1755 -12.2733
-10.1576 -39.9767 -10.1725
-24.9429 20.9501 -8.00555
4.34216 -10.3136 -2.74962
-12.281 17.5917 -5.2029
-7.98684 15.5629 -4.21736
10.2472 -9.24313 -3.30449
39.8032 -13.2217 -10.0372
15.0404 7.5218 -4.00294
-6.47186 -37.0561 -8.9592
3.96109 -9.07725 -2.34685
46.352 -12.4057 -11.3891
-12.5327 -46.1411 -11.3246
3.84637 -11.0322 -2.75393
4.90117 -8.68045 -2.34523
-13.0095 17.7292 -5.1186
10.9745 -9.61753 -3.33539
-6.32046 -32.0465 -7.45178
-27.6692 21.3704 -7.92558
41.0191 -8.97052 -9.52918
-31.1024 22.582 -8.61797
-35.9903 -23.5853 -9.64099
40.2277 -12.4357 -9.45464
5.4443 -9.45648 -2.4364
-12.4728 2.84604 -2.80716
40.0991 -11.7509 -9.23292
42.0388 -11.9949 -9.61867
-5.48243 14.3866 -3.36752
13.3365 -10.7317 -3.76825
37.6261 -12.0918 -8.689
-23.8205 20.761 -6.8546
-31.0422 -76.5299 -17.9174
4.30088 -9.68035 -2.29728
4.5308 -9.16344 -2.20816
-14.842 18.4919 -5.06458
-31.554 22.9202 -8.32815
-32.4551 23.0322 -8.50775
-29.7099 -78.8226 -18.0527
-10.8848 17.0089 -4.2828
-8.65733 -36.7463 -8.02654
3.18403 -9.66642 -2.17042
3.95726 -9.80717 -2.25509
45.1561 -10.4694 -9.89561
14.8736 7.44995 -3.52626
-15.4296 18.9942 -5.18193
5.15484 -9.03882 -2.18627
26.0767 37.7283 -9.58208
14.9115 7.80387 -3.49375
-30.5872 -23.6226 -8.01673
-11.6542 17.1715 -4.21808
-15.8979 18.7967 -5.01253
-35.91 24.1054 -8.78901
43.83 -9.56015 -9.14883
-13.6823 -44.0245 -9.36803
4.12698 -9.71352 -2.14744
11.5644 -9.61314 -3.05991
-12.2105 17.5234 -4.26433
-20.7554 -59.566 -12.6043
-13.3347 -41.4215 -8.61385
4.06097 -9.90001 -2.11883
-34.6349 -23.683 -8.27082
-27.2209 21.364 -6.81092
-33.6493 -24.0698 -8.0642
-7.02051 15.5148 -3.30652
-27.7092 -65.1064 -13.7418
-34.0539 -22.6707 -7.88312
3.42906 -9.34389 -1.92214
45.239 -10.4816 -8.91772
-12.9697 17.7081 -4.19682
3.98125 -9.32644 -1.93538
-36.998 -22.4735 -8.19399
-21.7028 -35.2556 -7.87274
-16.0968 -46.4444 -9.29918
37.4577 -12.3564 -7.45702
-36.6957 24.6459 -8.27302
-34.2003 -23.6195 -7.80762
-33.1375 -24.2447 -7.70708
-22.097 -54.7422 -11.1062
-17.4304 -47.3447 -9.35694
3.81511 -9.19476 -1.83885
42.0235 -11.326 -8.08277
5.74503 -9.69159 -2.06499
-25.4708 -57.7553 -11.5549
-21.1492 -52.4926 -10.2344
-14.8117 18.4633 -4.19776
-31.5685 -25.4607 -7.20857
-20.5983 -27.4478 -6.13631
-40.2113 25.3738 -8.38946
-27.2326 21.3828 -6.02679
-34.7579 23.7845 -7.31291
3.90065 -10.0273 -1.86585
4.76456 -8.59937 -1.7086
13.9351 7.48348 -2.72767
14.0058 8.03711 -2.76522
-31.4048 22.8371 -6.65711
41.7073 -11.7999 -7.37995
41.5136 -10.7516 -7.30073
-31.7254 -25.1959 -6.87222
-21.4241 20.4038 -4.96858
-21.1176 -52.4894 -9.55836
14.7858 7.41061 -2.77341
-32.2938 22.8621 -6.60959
-24.4654 -58.3286 -10.4502
42.999 -11.5835 -7.23882
-10.5297 16.7169 -3.18888
-21.4235 -53.1478 -9.13794
-35.4274 -24.4557 -6.78314
-23.1578 20.3461 -4.82731
-24.5906 20.992 -5.01133
-40.926 24.7792 -7.41385
-11.4119 17.0803 -3.1718
3.46491 -9.50931 -1.56543
3.85921 -10.2054 -1.6896
-7.76228 15.7445 -2.68213
-31.6431 23.0307 -5.98283
-32.2326 -24.8955 -6.19277
-28.3568 -26.5246 -5.88195
41.697 -10.8399 -6.54927
44.2859 -9.64828 -6.90579
-6.66382 14.8436 -2.43545
9.81325 -5.14387 -1.64446
-33.9942 -24.5184 -6.24142
10.1652 -9.13962 -2.03735
44.4216 -10.2764 -6.77176
-37.225 -24.7801 -6.58103
-31.9924 -26.3886 -6.0662
-13.0739 -43.3173 -6.6565
16.8297 -12.1763 -3.04317
-25.8254 21.2628 -4.86171
-25.6261 -57.4176 -9.05945
-7.75733 15.5378 -2.48409
-12.9214 17.6178 -3.11555
6.01477 -11.4913 -1.85365
-13.637 18.2273 -3.19815
-35.3716 23.8942 -6.00134
6.73892 -11.0077 -1.80419
37.1779 -12.2694 -5.50697
-31.6126 -25.3311 -5.65333
-33.6391 24.1747 -5.73875
-21.2908 -51.3139 -7.67232
44.5692 -9.97059 -6.29824
-7.00292 15.4881 -2.32373
-23.6212 -61.6473 -8.96707
7.73393 -9.35947 -1.62955
-14.2351 18.1761 -3.1127
13.1641 -10.4994 -2.27864
-22.5943 20.5523 -4.10737
41.6171 -10.7601 -5.70736
44.3 -9.70346 -6.00316
-22.977 20.2199 -4.00247
-33.1735 -24.8232 -5.41152
-15.1412 18.5411 -3.09554
-34.6646 23.1367 -5.41079
-38.8722 -16.4134 -5.4478
6.99723 -10.4063 -1.60916
10.7193 8.77609 -1.77841
-34.3022 -23.6388 -5.33083
-32.0227 23.3773 -5.01541
-36.1057 -22.5303 -5.33409
41.4881 -10.7295 -5.36337
6.77724 -10.339 -1.54494
-7.79705 15.596 -2.15969
-25.4443 21.365 -4.06848
-34.0322 23.9848 -5.13586
6.27245 -12.0299 -1.65306
44.2538 -9.44141 -5.54296
14.925 7.8193 -2.02546
-18.4875 -44.7756 -5.84067
7.0667 -10.5027 -1.52439
-20.7259 9.18544 -2.68316
-14.7816 -44.7131 -5.53665
-32.3183 -24.9169 -4.77146
-31.7976 -25.43 -4.76432
41.5661 -11.1343 -5.05815
11.1956 -9.64142 -1.71195
-30.4269 23.071 -4.39321
6.62322 -10.7917 -1.44979
7.47296 -9.20062 -1.35599
11.5454 -9.69207 -1.71235
9.43282 -4.60174 -1.18852
14.9041 7.65878 -1.8882
-10.5268 16.7587 -2.23398
-32.7936 23.9624 -4.55007
38.4503 -12.6573 -4.54015
9.3328 -8.99995 -1.43456
-11.251 16.8742 -2.20513
6.7654 -12.7372 -1.56258
44.3927 -9.64808 -4.92547
10.7164 8.80624 -1.49449
16.6846 -12.3938 -2.23106
41.757 -10.8299 -4.62298
9.59372 -8.95503 -1.39057
8.36113 -8.44606 -1.24515
-31.3498 -25.0871 -4.18073
-31.36 -62.9018 -7.33172
14.9015 7.47327 -1.70293
-32.2557 -24.8712 -4.17887
-13.0698 17.8168 -2.24397
-12.9821 17.3929 -2.15757
10.1791 -9.0627 -1.33531
-21.6386 -54.9538 -5.78971
6.29132 -12.0481 -1.31579
16.5559 -12.1125 -1.97219
41.6468 -11.191 -4.13426
-31.9456 -64.574 -6.8482
-21.6499 -56.8155 -5.77375
-23.6978 20.7281 -2.94329
45.0739 -10.0271 -4.31352
9.6907 -8.96315 -1.22213
39.2625 -12.9517 -3.85319
-15.2668 18.7146 -2.1874
-30.0136 -13.6841 -3.0066
-33.621 -65.5414 -6.78939
15.779 -11.8104 -1.79327
8.61604 -8.70679 -1.10936
12.8406 -10.5993 -1.45014
44.6649 -10.3524 -3.92821
9.37747 -9.00452 -1.09301
10.9173 -9.61406 -1.22295
-34.7976 23.8971 -3.51266
16.7545 -12.218 -1.71787
-17.4513 -45.4112 -3.89642
14.6154 -11.4282 -1.47976
-11.9929 -33.5744 -2.8139
-30.3581 23.0829 -2.9492
-33.7116 23.8285 -3.18684
-23.5012 -53.6829 -4.52401
-52.342 28.4867 -4.51226
-21.7391 20.4597 -2.17156
-33.942 24.0082 -3.01287
16.2938 -12.1746 -1.48827
41.67 -11.1509 -3.14326
-41.1581 -77.8748 -6.35653
13.9139 -11.0086 -1.27003
-16.0026 -42.4506 -3.13113
10.7325 -9.58486 -0.986068
-23.7224 20.7711 -2.12944
12.819 -10.5776 -1.11278
17.8504 -12.9467 -1.47047
15.9591 -12.0711 -1.32185
-15.0899 -41.8382 -2.87702
43.3929 -11.2854 -2.80318
-33.1746 -67.217 -4.57425
35.5059 -8.61369 -2.24268
42.589 -9.74788 -2.68278
6.01918 -13.0111 -0.857136
30.5768 -20.2325 -2.19468
-10.0125 16.7143 -1.14559
-15.9926 -41.7179 -2.54409
16.5221 -12.3477 -1.15845
-9.7323 -12.6164 -0.873159
14.8912 7.63972 -0.904712
13.8418 -10.9572 -0.945598
-12.9917 17.6056 -1.14289
-16.9155 -41.9265 -2.40115
14.7856 7.77471 -0.818543
-16.7524 -42.8211 -2.25628
-14.3791 18.2254 -1.11015
9.54001 -8.99874 -0.601662
-24.859 -57.0235 -2.81509
12.4038 -10.1969 -0.74464
-16.5145 -46.0358 -2.17163
-17.6941 -43.5947 -2.01448
6.82349 -12.5995 -0.635937
-14.3474 -43.7353 -1.96088
-53.8073 29.2622 -2.48063
18.2276 -13.0952 -0.91121
16.7106 -12.4209 -0.811204
-43.5761 -84.5771 -3.58989
-18.8346 -49.3905 -1.94714
-34.2426 23.5278 -1.51908
42.1459 -10.8594 -1.56772
-35.9561 -71.523 -2.6788
-26.8105 -58.7552 -2.17489
19.8983 23.0134 -1.00957
-21.7828 20.4125 -0.972331
8.07003 -14.2429 -0.550083
9.39691 -8.97077 -0.421269
11.2611 -9.91369 -0.487873
18.4807 -13.0672 -0.744203
34.4989 -13.0118 -1.22411
21.6363 26.1906 -1.08864
-27.6505 -13.8693 -0.969429
-23.2683 20.7204 -0.949161
-32.2521 22.8425 -1.23293
-25.917 -59.584 -2.01293
-14.1756 -40.1022 -1.31047
-22.3064 -56.9002 -1.85099
-17.1382 -46.4483 -1.41885
-34.4718 -20.901 -1.07358
11.4099 -9.67945 -0.401014
16.2532 -12.0889 -0.534271
-41.8784 25.9072 -1.29801
-30.8239 23.454 -0.957693
-31.3457 22.9725 -0.918189
9.54251 -8.98315 -0.303742
-41.9872 14.5118 -0.981224
-32.3501 -54.1705 -1.42154
21.1222 -14.1265 -0.558938
30.1912 -18.307 -0.797475
14.1711 3.91633 -0.299806
26.6672 46.5997 -0.985821
23.3875 -10.8881 -0.454665
46.5681 -10.7231 -0.889441
-31.027 -22.2971 -0.696629
-30.0362 -29.5016 -0.667662
-19.5605 -47.9965 -0.863695
12.671 -10.4197 -0.270114
18.4086 -13.3019 -0.347416
-29.5692 -13.1428 -0.424581
-33.2928 -24.9156 -0.578523
-34.7661 -70.0857 -1.05715
-28.7487 -61.1864 -0.927163
-34.4018 -23.4946 -0.543805
-30.8448 23.4662 -0.455611
16.9044 -12.6238 -0.250799
29.0352 -18.0032 -0.402547
-31.2997 22.9783 -0.431634
-19.6132 -44.9818 -0.525646
-12.3186 -37.0774 -0.394015
-34.5177 -60.8193 -0.645068
-14.5539 18.4612 -0.179986
-26.964 -13.5944 -0.243612
-15.2541 18.5945 -0.164015
-22.9143 20.4645 -0.157499
-21.3285 20.0053 -0.132449
-10.6174 -13.6497 -0.0607132
14.654 7.69809 -0.019829
11.0708 -9.73481 -0.00790703
-34.938 -19.1363 0.0609642
-11.6065 -34.4947 0.117865
16.8655 -12.2532 0.0902433
-19.3194 -44.3535 0.214271
18.6684 -13.1533 0.12103
7.14614 -12.284 0.103597
25.8234 -10.5947 0.171409
-56.4991 20.1741 0.573203
16.1645 -11.9795 0.191885
37.098 -7.57397 0.356981
-29.3582 -8.27835 0.357149
-36.7933 -22.2077 0.474111
-11.5783 -33.1731 0.376236
-13.0092 -36.0489 0.455574
-10.5095 -32.3038 0.406957
6.2995 -12.8762 0.182905
7.18941 -11.0757 0.173527
-28.669 22.5043 0.558985
11.2746 -9.84656 0.22492
-24.5139 20.9637 0.53325
10.8644 -9.70053 0.228474
12.9195 -10.6357 0.263499
36.0641 -7.71815 0.613313
-35.0407 -23.4767 0.767276
-31.7857 22.7269 0.768257
6.11301 -12.772 0.274692
6.99879 -11.0141 0.251327
8.00568 -9.39409 0.240941
26.5226 54.5362 1.31983
7.70932 -9.41965 0.275115
10.0997 -9.14769 0.328646
-29.0926 -9.32886 0.736259
-23.6893 20.6771 0.851694
-28.0555 22.1217 0.959913
-29.222 -8.77438 0.804353
9.16572 -8.87219 0.344507
9.59824 -8.92082 0.357094
-26.0248 21.9339 0.925755
25.2097 -5.09993 0.715954
12.9293 -10.6065 0.498032
14.5839 23.7581 0.860435
6.1607 -12.7092 0.444402
7.42972 -11.5817 0.43173
-28.7386 -8.10522 0.980079
-12.727 -19.4865 0.766619
-28.4171 -8.88174 1.02973
15.9968 10.949 0.700745
-30.1808 -18.7019 1.24115
15.4836 26.8962 1.10793
-30.7968 -16.7988 1.30014
23.3924 -4.22405 0.858684
-28.1593 -20.0274 1.28047
-7.31555 -7.97646 0.408571
9.02777 -8.80337 0.468633
12.3206 13.4775 0.704285
25.1078 51.7951 2.18051
23.9958 51.0893 2.12604
-11.6079 -9.18817 0.583885
8.70152 -8.64729 0.485203
-26.1058 21.5049 1.37416
21.7118 -2.9425 0.88756
-29.1292 -17.6931 1.39632
9.38827 -8.90186 0.530368
12.3387 14.2106 0.809893
6.54757 -12.3996 0.59541
14.6704 19.0619 1.05771
20.4093 28.1906 1.52455
-9.55004 -13.8858 0.740701
-10.0495 -15.717 0.827993
7.57177 -10.9129 0.585131
8.60285 -8.69204 0.552573
24.0318 -3.68143 1.09758
-30.1679 -8.79137 1.43466
6.71886 -11.0456 0.594799
-8.30003 -8.16821 0.548184
20.6941 41.7524 2.22983
-28.8878 -17.8537 1.60536
-9.82482 -13.7811 0.805505
9.63268 -8.9374 0.618805
14.9171 41.4534 2.13293
-30.5886 -13.5486 1.59704
-6.78121 -8.26729 0.526263
14.1558 32.9196 1.82876
-30.0614 -11.7721 1.62045
-7.6128 -7.00022 0.522935
-6.71651 -7.61388 0.513752
15.7851 28.5946 1.69623
10.448 12.2171 0.868909
14.0283 19.0901 1.27217
9.31854 -8.90017 0.690333
14.6122 19.0123 1.32419
15.0189 23.1965 1.52185
-27.9658 19.6908 1.87587
-6.99284 -8.21809 0.59852
-26.8908 20.6333 1.88564
6.06269 -12.8009 0.792478
-7.12947 -9.188 0.663299
9.85818 12.3135 0.92781
14.6267 24.6441 1.67444
6.42896 -12.912 0.830101
13.5991 22.1866 1.53726
-8.28677 -8.14557 0.700262
11.4311 11.51 0.9675
14.4601 19.2321 1.44583
-7.42566 -10.0522 0.777306
6.98269 -11.1274 0.800546
11.2179 -9.67602 0.898
5.84593 -10.7165 0.757482
-7.21313 -6.66717 0.613971
14.2534 20.2193 1.56542
16.0318 7.11631 1.13891
-7.05343 -6.16264 0.614801
6.42865 -13.3747 0.988962
9.20981 20.8032 1.53483
10.3097 12.4264 1.10393
13.3578 17.9616 1.56136
12.1876 20.2069 1.63297
11.2356 11.8688 1.14725
6.57736 -9.80905 0.836308
11.3848 11.6478 1.1788
9.77613 -6.90097 0.851386
12.2389 11.8483 1.25117
9.89107 -8.35285 0.948329
-6.2088 6.72923 0.684161
10.3483 9.11193 1.03584
11.7432 17.558 1.58941
11.2944 17.9941 1.60087
-6.96516 -7.72048 0.806451
10.6729 18.4212 1.63355
9.47955 -8.92496 1.00612
-6.42752 -4.30689 0.610472
9.02231 18.0759 1.61443
10.0478 -6.87557 0.974778
12.3351 11.4446 1.36028
9.5704 18.5818 1.68306
-7.29218 -9.67248 0.986753
6.69673 -9.35079 0.935868
12.1227 11.597 1.37469
12.0256 11.8267 1.40068
11.3072 11.8186 1.35417
-5.07473 -11.5824 1.06367
10.1975 12.7584 1.38979
-6.97714 -6.09692 0.798304
-6.83396 -6.71255 0.809336
-5.2358 -11.4833 1.07324
-7.32281 -7.77047 0.919645
9.25543 -7.23317 1.01482
-7.14294 -8.08304 0.944148
-7.03757 -7.71305 0.918423
9.28392 12.3921 1.37283
-6.97444 -8.39904 0.975485
10.726 8.99981 1.2761
10.3405 13.318 1.52342
10.4358 9.1653 1.27147
7.61269 13.8187 1.45115
-6.51763 -8.16022 0.957029
-6.92719 -9.05012 1.05203
11.0928 10.6986 1.42203
11.156 9.10212 1.34737
10.7654 10.7006 1.42289
6.38189 14.7476 1.50994
-11.4919 2.94408 1.11306
-6.37238 -4.17816 0.714161
-6.82187 -6.30886 0.861892
9.31952 13.1432 1.55429
-6.07798 6.60448 0.884539
7.94165 -6.59359 1.00592
7.83114 13.0576 1.51241
-7.08925 -7.63978 1.05015
9.21002 11.516 1.48735
6.92081 12.2881 1.43125
6.97187 12.8442 1.48983
9.4542 9.01712 1.35211
5.77234 13.7605 1.54653
9.03852 12.293 1.59078
-6.1168 -4.46376 0.793993
5.87253 13.4938 1.55003
6.13178 13.4312 1.55215
-6.98409 -4.43643 0.885284
8.69447 8.94294 1.32974
9.05211 10.0843 1.47378
7.25208 10.8892 1.42181
5.75661 11.3384 1.38243
-6.31478 -7.42875 1.06588
10.1995 6.41013 1.33288
8.92259 8.07567 1.32661
7.23038 11.5574 1.50529
6.76861 11.5039 1.47564
5.28859 11.7436 1.43286
4.80289 11.9383 1.43953
4.6264 13.4543 1.56501
9.79815 7.00571 1.34496
8.68304 9.22996 1.41605
5.3159 11.3742 1.41374
-6.85779 -6.73955 1.07041
6.79593 10.6074 1.41908
4.24968 12.9635 1.54163
9.72704 -3.18743 1.14124
-6.11429 -5.42304 0.946472
7.27542 -6.10835 1.07829
10.35 5.67883 1.35402
-7.39727 -0.987913 0.855607
-6.26803 -5.36528 0.949971
5.24158 -5.54978 0.879427
5.00291 11.475 1.45405
-6.89592 -4.56776 0.958815
4.44707 -7.2513 0.983694
10.3459 5.11804 1.35449
8.81713 7.82561 1.38393
-6.01076 -4.37458 0.866702
-6.4975 -5.28299 0.989571
4.08524 -7.85287 1.05269
4.96111 -5.8437 0.91961
10.109 4.72683 1.33776
8.45155 8.20669 1.42687
5.20971 11.3496 1.52427
8.98683 6.22564 1.33856
7.94738 8.27093 1.43685
-6.50219 -5.75778 1.08144
3.7018 -7.56329 1.05462
8.61777 6.64463 1.36839
-6.47964 -5.35421 1.06411
9.03354 5.9752 1.38278
8.12599 7.09042 1.37593
8.0548 7.45257 1.40112
5.76928 -5.33831 1.00907
-6.98556 -4.45183 1.06362
8.03949 7.93766 1.46536
-7.37342 -1.04464 0.962668
-6.93601 -2.83167 0.978794
8.93068 4.08052 1.28585
8.34697 6.58508 1.39568
4.99276 -6.0212 1.0281
4.91081 -6.18537 1.04576
6.8593 -4.27587 1.07585
-7.14784 -1.72175 0.9861
-7.02315 -2.22428 0.985362
-6.03465 -4.42918 1.00108
8.08176 6.61478 1.4158
8.56612 4.41701 1.314
8.58338 5.13828 1.36638
7.97268 7.08858 1.45205
-6.82069 -3.74025 1.05662
8.81741 4.13886 1.33327
8.21593 5.79879 1.37708
-6.40869 -4.33634 1.05918
-5.9665 -4.53198 1.0236
5.30853 8.94551 1.43663
3.59448 9.94358 1.46804
-7.3836 -1.09531 1.0342
-6.91679 -3.93424 1.10469
4.94438 -5.53847 1.026
5.2231 -5.39293 1.04192
7.45101 -3.53105 1.15302
3.33975 10.0154 1.47899
8.35949 4.57515 1.34802
7.363 -3.67213 1.16713
7.5739 -3.32912 1.17943
7.7478 -3.29968 1.19484
8.90094 2.80266 1.34312
4.82946 -5.63034 1.06617
7.34188 -2.84846 1.14644
-6.97108 -3.30614 1.12501
7.90321 -2.77436 1.22115
8.64445 -1.81582 1.29651
4.96413 8.49907 1.45271
2.91424 9.31425 1.45152
7.71782 -1.88442 1.17079
7.18924 5.72542 1.36929
3.41267 9.44053 1.48353
3.14428 9.66572 1.50601
-7.38598 -1.04559 1.10658
-7.08784 -2.02689 1.09914
6.9061 6.25165 1.40636
-6.27269 -2.27515 1.00182
-7.25478 -1.37807 1.11524
7.90016 4.79392 1.40778
5.66949 7.30539 1.40297
5.25345 7.57465 1.40282
5.01633 7.94941 1.42099
6.75065 -3.22144 1.13112
7.2351 -3.11987 1.20653
7.62276 -2.75067 1.23484
-7.33251 -0.734527 1.12593
-7.11065 -1.95816 1.13884
6.78012 -3.08875 1.15213
3.75013 -5.78701 1.06625
-7.0661 -2.07983 1.15529
-7.3615 -1.09518 1.16918
7.3261 4.75184 1.37911
-7.21275 -1.44635 1.17094
-7.28622 -1.30371 1.18819
-7.11075 -2.0228 1.20274
7.0364 4.74067 1.38491
-7.11449 -1.9491 1.21229
6.97591 4.84165 1.41038
6.58381 4.82907 1.36249
5.17571 6.20633 1.34612
4.63933 7.12004 1.4191
3.78751 7.86088 1.45013
-7.26372 -1.37625 1.2347
2.79428 -5.78065 1.08223
7.10983 4.40866 1.40925
6.48078 5.2119 1.40293
3.87436 -5.3662 1.11582
3.93772 -5.0223 1.08025
-7.28709 -1.25496 1.25494
-6.60871 -2.62938 1.20725
7.39003 2.83762 1.34258
7.00108 3.87515 1.36357
-6.42393 -2.75715 1.18985
6.74591 4.08126 1.35345
5.67916 -3.51757 1.14971
-7.41173 -1.04179 1.29493
-6.36651 -2.2839 1.16335
5.53249 -3.64605 1.14201
5.31684 -3.77251 1.14261
3.56692 7.10231 1.39777
-6.81149 -1.73823 1.23512
4.48027 -4.46766 1.11339
-7.10649 -0.916466 1.27704
4.72481 -4.45737 1.14939
4.29974 6.4494 1.38295
6.56117 3.46071 1.33952
6.59957 3.668 1.35631
-6.45197 -1.50302 1.19208
3.61015 -5.3282 1.17068
5.04993 5.58208 1.37813
-6.164 -2.18642 1.19919
3.41504 -5.16139 1.15085
3.36078 6.71709 1.40489
-1.69626 -5.77731 1.14399
6.42353 2.7229 1.32761
-2.14187 -5.7242 1.1752
6.28819 2.78672 1.32406
-2.78656 -5.37486 1.18668
-3.54847 5.3892 1.39923
4.45343 3.87831 1.3476
4.15263 -2.87977 1.17732
4.62859 -2.18625 1.23675
4.18566 3.2808 1.31717
3.70999 -2.93225 1.22453
4.0078 2.56776 1.32954
-1.44137 -4.11319 1.22075
-2.31942 -3.57734 1.21207
3.85073 2.35861 1.30804
-2.87318 3.54165 1.36845
-2.47923 -2.91499 1.1892
-2.37667 -2.93604 1.19409
1.8463 -2.81652 1.18375
1.86924 -2.79455 1.21375
1.99522 -2.53025 1.1999
-2.04932 2.81613 1.32573
2.80459 -0.555826 1.25918
2.78358 -0.336892 1.24075
-2.08808 -1.61837 1.21287
-2.07596 -1.45064 1.23803
-1.86083 -1.79478 1.28311
-1.99368 -1.13095 1.2046
-1.98523 -1.06995 1.23147
-1.94518 -0.880059 1.23181
-1.92968 -0.708192 1.22221
-1.92857 -0.701303 1.24944
-1.9051 -0.469564 1.22242
-1.87059 -0.345605 1.21971
-1.85537 -0.401054 1.22638
2.37858 -19.7109 -10.0184
-7.62269 -8.99959 0.466438
8.00576 -8.78627 -10.4517
8.25238 -8.61772 -10.4892
8.2041 -8.27899 -9.87248
6.94791 -11.9409 -11.3947
8.5026 -8.9594 -9.72612
7.83922 -8.92482 -9.12282
5.8432 -12.7846 -10.7181
9.41001 -8.81821 -9.7274
6.14028 -14.0798 -11.5641
8.2744 -8.6657 -9.00871
8.00548 -9.15514 -9.09487
7.28148 -9.23268 -8.76095
5.90219 -14.1354 -11.1771
7.70641 -9.29184 -8.71115
7.84372 -9.10324 -8.65629
7.11837 -10.5658 -9.07099
6.80969 -11.0568 -9.20621
10.0313 -9.17287 -9.54715
6.52954 -11.1591 -8.85173
8.02096 -8.61502 -7.83859
7.34899 -9.26646 -7.85988
8.50212 -8.66732 -8.07056
7.70721 -9.457 -8.01528
6.47643 -12.7545 -9.34149
7.92025 -9.16595 -7.9012
4.99813 -16.0292 -10.7998
-0.471135 13.9454 -8.92184
7.71538 -9.23 -7.71458
7.32213 -10.8448 -8.33211
8.36363 -8.55173 -7.62104
10.8486 -9.59721 -9.18781
8.97367 -8.80362 -7.88442
11.7312 -10.0039 -9.66293
8.05898 -8.5214 -7.21607
4.03975 -16.8423 -10.6156
4.24597 -15.3706 -9.7917
7.83118 -9.34322 -7.30636
3.95115 -15.6282 -9.6129
11.4472 -9.80014 -9.02589
6.85198 -11.0579 -7.72496
7.76056 -8.80668 -6.95379
5.47965 -13.9797 -8.87223
6.47757 -12.6864 -8.33687
8.34823 -8.58045 -6.97683
9.667 -9.06178 -7.72648
2.78742 -11.7839 -6.94156
5.46723 -13.8706 -8.44259
9.57383 -9.08561 -7.46162
6.60668 -11.0523 -7.25079
3.35189 -20.7358 -11.772
8.86232 -8.92271 -7.0502
12.1526 -10.196 -8.88764
6.81221 -10.9882 -7.20298
4.67587 -14.5922 -8.46916
6.21083 -12.6009 -7.72881
0.897925 18.5468 -10.1064
14.5543 7.6903 -8.94201
4.19753 -14.2247 -8.01079
14.6638 -11.604 -10.081
14.9058 7.40676 -8.86409
13.9493 7.68533 -8.46035
4.7595 -14.8329 -8.27782
12.0449 -10.1183 -8.27887
1.81491 -20.5237 -10.6001
11.3813 -9.82229 -7.70257
2.0824 -20.2444 -10.3272
0.00748621 14.2787 -7.16625
-7.35995 15.3034 -8.51304
10.5647 -9.57394 -7.16448
7.49973 -9.40699 -5.9944
-8.58479 16.2791 -8.89753
11.6037 -9.74535 -7.33493
10.4658 -9.55891 -6.80672
14.7203 -11.2856 -8.94747
16.5789 15.7039 -10.8459
7.46604 -11.0355 -6.34868
14.9394 7.38133 -7.81682
13.873 -10.9856 -8.27135
-12.0761 17.2953 -9.66779
15.7641 -11.945 -9.03667
9.75814 -2.44659 -4.62075
-9.1345 -1.66064 -4.22228
18.56 17.9089 -11.6343
3.90919 -9.08995 -4.49137
-10.3134 16.8511 -8.87531
-5.36555 4.46239 -3.13933
6.84177 -11.2644 -5.93385
9.40619 -9.06592 -5.76223
15.9359 7.26954 -7.72584
-6.69102 15.2018 -7.25727
1.4994 -18.7536 -8.1374
-11.2913 17.1827 -8.85565
9.56517 -3.36445 -4.34269
7.00122 -11.0205 -5.51999
15.7499 -11.9062 -8.26557
14.577 7.70541 -6.91431
18.5843 19.334 -11.2045
1.02129 -22.6941 -9.4573
-4.56185 13.9624 -6.05435
-9.96327 -1.11437 -4.15521
14.019 7.74067 -6.537
20.2363 22.0112 -12.1837
-13.1302 2.4607 -5.44247
15.0389 7.14523 -6.73231
-5.26318 14.4303 -6.18036
3.63388 -8.79784 -3.78909
13.8816 -10.9609 -6.91296
19.1164 21.3934 -11.1257
18.7051 5.76793 -7.58896
1.53605 19.1652 -7.45233
-8.81839 15.893 -7.01001
11.365 -10.0209 -5.82863
19.0442 22.0778 -11.2274
0.684261 15.3438 -5.88033
-1.66582 12.8099 -4.97071
2.71261 -12.2431 -4.81152
-8.79219 -1.25573 -3.37608
0.704108 -23.7764 -8.97517
15.1083 -11.5782 -7.17949
9.47449 -3.45708 -3.80421
-7.90808 -3.51294 -3.1739
1.09719 -10.4748 -3.87339
7.01203 -11.2113 -4.83636
14.1242 7.8862 -5.83872
-8.31221 -2.85388 -3.16042
0.790353 15.2459 -5.44194
-3.98677 13.4916 -4.97989
5.72528 -10.9644 -4.35347
15.7532 -11.9054 -6.99457
18.9745 5.86023 -6.98547
2.09581 20.4307 -7.19865
21.3615 25.8228 -11.6426
-15.0514 18.5813 -8.21099
2.96376 -13.3084 -4.69353
-8.98595 16.2359 -6.34482
18.3617 -13.0053 -7.7131
-5.08323 14.6122 -5.26373
1.36442 -22.3539 -7.42105
1.75263 19.5023 -6.46591
1.44851 -10.3243 -3.44557
38.624 -19.744 -14.2379
6.15722 -10.0286 -3.76727
17.4611 -12.3293 -6.84723
2.10849 20.5476 -6.57105
-13.5058 18.0326 -7.10646
1.45816 -22.8747 -7.1412
-4.34062 14.8681 -4.816
-11.0747 16.7822 -6.09695
-2.79548 -28.4269 -8.67611
3.0601 -9.45751 -3.0213
0.797893 -24.4673 -7.36133
18.9898 -13.479 -6.9112
17.5073 5.53857 -5.38714
-7.97266 15.4374 -5.06117
4.21965 -10.4717 -3.28165
3.61245 -10.5452 -3.17303
4.2304 -10.9179 -3.28741
-13.4685 18.0038 -6.25729
-9.39313 16.0597 -5.0644
-13.3033 1.99423 -3.68868
-17.1318 19.6843 -7.08846
26.0543 -17.1522 -8.45382
-3.9993 -28.5067 -7.71823
3.77774 -9.13334 -2.64477
-9.91178 16.479 -5.12157
46.5986 -13.606 -12.8741
10.4991 -9.36418 -3.72442
-6.52287 15.107 -4.30177
-14.587 18.29 -6.1417
-8.18675 -38.7246 -10.3076
4.94711 -9.55039 -2.78439
6.54083 -10.4684 -3.18504
-7.29734 15.491 -4.35589
-10.6758 16.6299 -5.05214
-10.1441 -40.1933 -10.3065
-9.28615 -40.0826 -10.0444
10.903 -9.6114 -3.57446
-8.06055 15.647 -4.27091
-11.8666 17.2495 -5.07091
14.5324 7.67637 -3.90004
4.03938 -9.23624 -2.3862
15.1333 7.49463 -3.97903
3.74036 -8.89367 -2.26831
-6.65326 -33.1406 -7.82562
5.61186 -9.8593 -2.6298
44.1584 -10.6862 -10.561
-12.964 17.66 -5.0452
14.7877 7.5732 -3.75803
43.2227 -9.35009 -10.0189
-9.90943 16.5082 -4.31215
3.7052 -9.22993 -2.16422
42.3993 -10.8769 -9.55475
15.0445 7.4635 -3.59559
-10.7697 16.8128 -4.2791
-22.3164 -35.0832 -8.93163
4.80783 -9.72473 -2.3408
44.4416 -10.4058 -9.76686
-14.9755 18.5549 -5.01876
-32.6597 -24.1057 -8.60338
41.1591 -13.7718 -9.18332
14.7704 7.80489 -3.48327
-36.108 24.418 -8.91452
-8.57667 -35.0781 -7.31108
3.93722 -11.4642 -2.43723
43.9814 -9.48916 -9.15244
11.7323 -9.71148 -3.05485
42.4204 -10.9203 -8.72997
-27.3711 20.6549 -6.8074
6.12313 -10.2488 -2.37738
45.3053 -10.5944 -9.08852
-12.9577 17.6806 -4.23817
-27.2554 21.3597 -6.73007
15.9318 12.0508 -3.81709
-6.97971 15.3671 -3.24256
-33.5802 -24.2888 -7.93206
-32.0657 -25.1096 -7.82629
-36.3373 24.2136 -8.22365
-34.0813 -22.4822 -7.71508
17.9214 5.63435 -3.50593
-34.6045 -20.8793 -7.54721
-15.4966 -44.6768 -8.80765
3.7599 -9.7935 -1.97567
-25.5609 -63.6348 -12.7515
-17.2913 -46.5814 -9.08668
3.96621 -9.61357 -1.87617
13.0141 -10.1692 -2.97903
44.8038 -9.97003 -8.24573
-14.9418 18.5321 -4.25519
-27.4131 21.5004 -6.15181
15.0045 7.94259 -2.95631
-30.7253 -26.7749 -7.10294
42.2796 -10.8296 -7.49434
-8.04654 15.5024 -2.96073
-9.90547 18.244 -3.50906
44.0881 -10.3783 -7.66004
-31.2544 22.7656 -6.51059
-30.6702 -23.5959 -6.46728
-21.1125 20.187 -4.86089
-32.9109 23.2425 -6.72235
15.8373 -11.8167 -3.23873
-10.4773 16.6346 -3.1292
-44.2712 26.0505 -8.14995
-32.078 -24.0982 -6.42264
-33.9482 -23.4163 -6.49502
3.42524 -9.47345 -1.57572
-24.1261 20.6096 -4.90114
16.8161 -11.8878 -3.19064
-11.3276 16.9539 -3.09919
45.4355 -10.6483 -7.08411
-23.6969 -54.9154 -9.03607
-29.9847 22.4878 -5.60481
-39.1285 24.3974 -6.84471
-32.1079 -24.9234 -6.06358
44.0959 -9.44944 -6.71581
-34.2461 -24.7671 -6.17496
-51.1279 28.5467 -8.4201
-36.0813 -24.0667 -6.24259
6.69781 -12.8536 -2.10528
-7.06245 15.5723 -2.37655
-13.3058 17.9622 -3.11133
-32.7471 23.5764 -5.64057
-25.5319 -56.8601 -8.5936
-16.7001 -48.8192 -7.09475
36.3112 -12.0757 -5.249
-23.5354 20.6818 -4.16947
-32.746 -24.5231 -5.34079
-31.0841 -25.5004 -5.31535
-34.4031 -23.6936 -5.35053
7.42661 -9.40666 -1.55002
42.3316 -10.8359 -5.60785
-34.12 23.2178 -5.24728
-30.1216 -16.0731 -4.35178
6.03144 -7.81109 -1.26073
44.2266 -10.3949 -5.76079
-31.6449 23.2571 -4.90081
14.4363 -11.2471 -2.24885
-30.543 23.0041 -4.62581
-33.2013 23.4701 -4.89557
-10.5172 16.7276 -2.2839
-31.9531 -22.9811 -4.63037
12.9385 -10.4645 -1.94841
35.4336 -11.7088 -4.31896
6.32423 -10.3133 -1.39089
11.1556 -9.66708 -1.6635
16.3541 -12.1763 -2.29817
-11.2355 16.8475 -2.24306
6.72861 -12.5371 -1.55974
11.5599 -9.65364 -1.66824
42.1731 -10.8144 -4.78081
-39.8254 24.8314 -5.03701
44.285 -10.3481 -4.89752
14.8439 -11.3984 -1.9916
-13.1553 17.7731 -2.27181
14.6916 7.77604 -1.66075
13.9411 -10.9977 -1.77423
-14.2213 18.1885 -2.23983
6.37239 -12.212 -1.32646
9.37888 -8.89623 -1.2497
16.9188 -12.3711 -2.0461
-29.1941 -13.9504 -3.04787
-15.215 18.6316 -2.24274
-38.8546 -75.6956 -7.91968
-34.4536 -21.5592 -3.59857
16.0501 -12.0268 -1.80534
38.065 -12.6655 -3.59132
11.0745 -9.84428 -1.22482
42.5668 -10.8794 -3.66517
-16.6989 -43.4547 -3.73917
-42.1309 -82.3812 -7.20777
17.5091 -12.7588 -1.71155
-30.7542 23.2755 -2.94988
7.42782 -9.14972 -0.912462
-33.4953 23.7101 -3.04819
-17.0727 -42.2349 -3.40463
-38.5026 -72.4522 -5.83516
-37.4481 -75.0026 -5.74305
12.521 -10.4201 -1.09682
16.972 -12.3614 -1.41986
-40.2937 25.0839 -3.10288
42.8137 -10.9612 -2.90175
-28.9852 -13.6296 -1.91796
-42.4888 -82.0864 -5.59815
14.4396 -11.257 -1.10362
30.7839 -20.2789 -2.0154
30.768 -19.3918 -1.98884
15.2595 7.53632 -0.882753
14.7014 7.79555 -0.855279
-13.082 17.8522 -1.12306
-25.6457 -56.5925 -3.19275
-44.5848 -84.0276 -4.64612
9.62771 -9.06739 -0.661721
13.3925 -10.6503 -0.840772
15.8602 10.0895 -0.887694
16.1447 11.316 -0.917556
6.79554 -12.4635 -0.6754
-20.177 -5.95357 -0.903006
-30.9178 -55.0985 -2.7882
10.1732 -13.7342 -0.698977
17.9394 -12.9369 -0.904364
42.0543 -10.7422 -1.72794
-9.44068 -12.4865 -0.603871
43.5429 -10.1962 -1.75918
21.8189 26.2308 -1.16297
-33.3782 22.817 -1.40064
-37.0528 -20.7777 -1.38276
-18.8322 -46.9338 -1.6256
16.3893 -12.2272 -0.667563
14.3251 3.8802 -0.43759
-27.0384 -62.1312 -2.03283
-23.2174 20.6817 -0.887708
-12.7034 -38.5198 -1.09133
42.4662 -9.021 -1.21457
-43.055 26.7802 -1.3699
-55.8038 20.066 -1.41963
43.1286 -10.0148 -0.952934
-31.6642 23.9298 -0.792495
-30.8663 9.81763 -0.676602
30.2633 52.9857 -1.11993
-30.8892 22.797 -0.734498
12.9158 -10.5829 -0.289578
-35.1875 -21.8981 -0.642347
-31.9292 -64.2131 -1.06867
17.3841 -12.537 -0.31176
-12.987 -39.2626 -0.534546
-14.5086 18.4179 -0.238463
-20.7585 -47.7074 -0.566443
29.9086 -18.7327 -0.318904
-23.2053 20.7042 -0.210228
-9.98152 -12.811 -0.0491014
6.98805 -11.6567 -0.0236544
14.5295 7.59813 0.000728122
-36.2254 -22.3691 0.226954
-24.5113 -41.8934 0.356809
-55.0696 30.1676 0.64371
6.65928 -11.8154 0.140403
7.98452 -9.0783 0.120734
-41.9336 -22.2942 0.522221
-11.7589 -33.3003 0.392966
11.059 -9.64024 0.192213
-23.5894 20.1558 0.409522
-12.5199 -19.4251 0.335754
-31.9056 22.7037 0.699
-35.8935 -24.0637 0.773406
-35.409 -26.1582 0.768111
10.5955 -9.5217 0.232332
7.76556 -9.57218 0.264798
7.87294 -9.18908 0.261029
-73.578 25.478 1.82233
17.9785 -13.0507 0.540726
-29.0835 -8.7375 0.813229
-28.607 22.4335 1.04878
11.5355 -9.88312 0.414217
17.1748 -7.44471 0.532884
-25.551 21.6702 0.999063
-7.94278 -9.31417 0.389691
12.564 13.66 0.660351
6.10516 -12.5791 0.491989
8.88168 -8.73973 0.425742
24.3411 -4.31327 0.826664
18.2732 17.4506 0.912734
13.5623 23.4778 1.02014
-58.4856 19.2241 2.21837
24.1524 -4.69175 0.931997
-26.0215 21.2564 1.27179
9.34749 -8.89243 0.49874
22.2088 -3.05968 0.846887
12.068 13.9773 0.756302
14.5366 18.7828 0.973056
6.48023 -12.2864 0.570208
17.2381 39.8419 1.81321
7.61431 -10.9723 0.562993
-7.58239 -7.46391 0.470287
-8.33196 -11.5275 0.635577
-29.9931 -11.8733 1.53676
16.2252 10.533 0.964296
-7.75951 -7.21987 0.507815
14.9693 23.2562 1.42956
-6.98486 -8.22265 0.593261
14.2941 19.5738 1.32863
-26.6583 20.5276 1.86225
14.1092 22.9778 1.56181
-7.16083 -9.23082 0.667732
6.76771 -13.4114 0.862404
9.78415 12.3071 0.9309
14.4508 19.1997 1.50697
14.6379 26.0518 1.84045
9.98311 27.997 1.89083
-7.34594 -10.0263 0.79524
9.26671 21.1178 1.54828
11.3106 9.94918 1.07395
11.3215 11.9722 1.16346
13.5001 15.5996 1.47667
8.13679 -12.5427 1.0555
10.664 8.90173 1.02229
12.7134 14.2594 1.42977
-14.5336 8.57072 1.27696
-11.2011 2.11015 0.862949
12.2365 15.9284 1.55912
11.3616 18.1069 1.66038
10.0546 -6.88086 0.951311
-7.70894 -8.15497 0.897947
12.6027 11.4081 1.38683
11.7132 11.459 1.36048
-7.03409 -6.18895 0.761613
-7.08802 -6.93097 0.822552
11.3244 11.8209 1.41184
10.5282 9.27435 1.27568
-11.4799 2.93961 1.08979
-7.65497 -7.12992 0.940086
11.5231 8.89131 1.39385
9.07787 12.837 1.50995
7.06651 13.0026 1.45059
8.28549 12.8822 1.53618
-6.77061 -6.74688 0.950363
7.84008 -6.51686 0.997863
9.54769 11.9587 1.53385
9.81935 10.0305 1.4499
-6.90636 -5.42147 0.914027
9.5106 9.05628 1.4002
8.0825 10.9886 1.43002
6.63949 12.874 1.54337
9.49217 8.28295 1.33366
9.07058 10.1027 1.47918
5.58314 12.2982 1.46209
-6.41403 -7.55391 1.07111
6.58427 11.2062 1.4301
5.13542 12.8672 1.52843
-6.84755 -3.99369 0.875779
-6.72073 -6.09959 1.00026
3.91298 -7.75486 0.961633
5.43105 -6.08465 0.916369
9.26703 7.46017 1.33722
8.95735 9.53251 1.47519
7.8068 11.1193 1.51883
6.67744 10.5381 1.42272
-6.90158 -4.58419 0.940048
4.69713 -7.66378 1.03863
-10.7382 7.19872 1.50159
-7.11209 -2.13979 0.8648
8.93531 6.03608 1.283
5.785 11.8069 1.55382
4.88499 11.2968 1.45155
4.76668 -5.85482 0.888636
4.10404 -7.86879 1.07917
8.2823 3.83618 1.14417
10.868 5.42078 1.49275
4.46088 12.411 1.64143
-6.17699 -5.40436 1.00701
-9.18864 1.30981 1.15759
8.17252 7.47459 1.40177
-6.45744 -5.33685 1.05997
7.70491 8.0925 1.43661
-6.9083 -3.58409 1.00818
4.96054 -5.95737 1.00084
5.01641 -5.41965 0.962904
8.32054 6.8457 1.42735
7.8571 7.76923 1.47019
-7.22749 -1.72971 1.0019
-7.05369 -2.21654 0.991318
-6.50556 -4.38637 1.04276
4.82289 -6.07935 1.03266
8.30945 6.29762 1.4182
-6.87155 -4.23141 1.08782
-6.0657 -4.457 1.01276
4.94309 -5.53012 1.01851
7.39316 -3.51152 1.13917
8.3019 4.21485 1.32249
8.26342 4.54079 1.33795
-6.96158 -2.91622 1.07974
7.45995 -3.72326 1.19052
7.00193 -3.04861 1.07728
4.93373 -5.78027 1.097
8.1656 -1.72781 1.20875
-6.98096 -3.26797 1.14376
7.3251 5.5196 1.37758
5.68607 7.34113 1.40247
7.92937 3.88544 1.34926
7.84954 4.16278 1.35089
5.36488 7.70353 1.42718
5.0049 8.54909 1.49663
3.42984 9.38137 1.50662
-7.03047 -2.8357 1.15628
7.65965 -2.7865 1.2485
7.82262 -2.22928 1.25527
7.77258 -2.01082 1.24055
7.40916 4.17314 1.37118
7.01253 4.7153 1.38859
6.68761 4.87418 1.37601
5.32658 6.38294 1.38341
-7.23174 -1.36569 1.21925
4.9293 7.23883 1.46152
4.66422 7.13861 1.43133
-7.24763 -0.807326 1.2218
2.86775 -5.9334 1.11094
6.65239 4.05937 1.3315
6.45192 5.18266 1.40536
3.7764 7.81509 1.4565
-6.39785 -2.30746 1.15451
-6.30301 -2.68955 1.16931
3.77314 -5.24132 1.09952
-6.99747 -1.80194 1.26335
4.23519 -4.64202 1.10426
6.62369 3.48786 1.35189
5.01307 5.54487 1.36604
3.63317 -5.36192 1.17947
3.31548 6.64793 1.38472
6.45949 3.03109 1.35552
6.39489 2.70023 1.32526
-1.6489 -5.7072 1.14071
-2.17137 -5.76469 1.20131
6.22389 2.3662 1.33088
3.93993 -4.58141 1.20185
-3.01679 5.63293 1.36406
-3.64055 5.2377 1.39159
4.20977 -2.92831 1.20532
-4.2932 3.94364 1.4216
4.58706 -2.18724 1.23331
4.47814 -1.26914 1.15727
3.711 -2.93734 1.23281
3.68079 -2.58615 1.1934
3.42802 -2.98042 1.22585
-2.31883 -3.61335 1.20648
-2.49698 -2.92463 1.19686
1.87599 -2.49635 1.13349
1.93753 -2.65442 1.19818
-2.04585 2.80906 1.31824
-2.06984 -1.4627 1.19686
-1.82252 -1.8287 1.30185
-1.97445 -1.17094 1.20944
9.64107 -9.01851 -9.34538
9.20624 -8.89381 -7.62876
2.44725 -20.0862 -10.7461
3.66647 -9.28653 -4.50237
26.0921 32.414 -13.9704
2.06333 20.4071 -6.07976
9.47597 -8.7426 -1.61192
8.72976 -8.60179 -1.22908
8.87904 -8.75741 -0.924694
19.0034 -13.4552 -1.27377
42.8294 -11.5037 -2.29681
9.99125 6.87646 1.28789
-3.51494 5.34893 1.37611
7.95784 -8.21588 -10.2619
7.81901 -8.24179 -10.0017
8.34723 -8.43708 -9.82987
6.81692 -11.7712 -11.1769
7.94844 -8.20793 -9.03912
7.98807 -8.68568 -9.06964
6.19741 -14.1135 -11.5986
5.84752 -14.1317 -11.1999
9.05279 -8.80072 -9.25684
7.60492 -9.1791 -8.64042
7.833 -9.08276 -8.57526
7.19186 -10.6573 -9.14962
10.1849 -9.2723 -9.65626
6.4038 -11.0388 -8.72066
8.14226 -9.04145 -8.15989
7.31347 -9.29623 -7.8958
7.93283 -9.17313 -7.97412
5.02194 -15.9348 -10.7788
-0.521521 14.3575 -9.22159
7.27822 -10.7522 -8.32999
7.58443 -9.10759 -7.58411
10.9495 -9.77057 -9.31778
7.02989 -10.8883 -8.07919
8.16609 -8.57297 -7.35619
0.114743 14.3678 -8.75562
7.74014 -8.70562 -7.01906
11.4385 -9.71122 -9.05561
8.94808 -8.87705 -7.44988
6.55579 -12.8039 -8.48684
5.49969 -13.9459 -8.81108
7.02771 -11.0594 -7.52252
5.10234 -12.8138 -7.74568
3.15859 -19.3075 -10.9706
6.59111 -11.0619 -7.21644
7.83052 -9.02639 -6.70166
12.1316 -10.162 -8.85089
9.66465 -9.46788 -7.41991
13.2101 -10.5902 -9.13351
14.985 10.263 -9.75642
14.9702 7.35524 -8.91236
13.8007 7.60862 -8.33385
11.3679 -9.8107 -7.71647
2.36505 -19.5 -9.9232
10.6357 -9.53484 -7.1868
7.32312 -9.24961 -5.91924
14.0451 -11.1402 -9.02781
17.9451 -12.832 -10.7347
18.5185 5.71792 -9.41635
2.66327 -19.5699 -9.59162
12.8001 -10.5748 -8.02867
15.32 -11.6644 -9.34216
7.2796 -10.7319 -6.24651
14.9356 7.32126 -7.7401
7.06766 -10.8732 -6.04523
6.20492 -10.5995 -5.68898
9.97897 -2.50396 -4.72985
17.2771 -12.6242 -9.83317
-11.8937 17.0746 -9.48594
3.53759 -9.02319 -4.39107
-10.3057 16.8507 -8.87803
15.9124 7.19692 -7.81392
-11.3436 17.2598 -8.90908
-7.08277 6.86992 -4.25028
-6.49887 6.48327 -3.9083
1.19625 -15.4351 -6.58157
19.7812 20.4934 -11.9521
16.1421 -12.2001 -8.5091
15.0879 7.41453 -7.02456
-10.0932 -1.10139 -4.21643
19.7496 21.4971 -11.9853
14.0328 7.75335 -6.52491
16.3254 7.35306 -7.19259
14.9359 7.6854 -6.73725
1.4859 -17.9135 -7.0198
18.5778 5.73213 -7.52413
19.2828 21.5174 -11.1736
0.770018 16.25 -6.24946
0.710992 -24.2275 -9.2183
16.824 -12.4443 -7.82861
14.0929 7.86932 -5.83427
0.537498 -22.7054 -8.00465
-4.08822 13.7542 -5.03662
-10.7048 16.453 -6.87152
-0.869505 -23.0153 -8.09577
-15.1641 18.714 -8.33136
-8.99257 16.2461 -6.37365
-5.06635 14.436 -5.1591
1.27129 17.5623 -5.86632
-5.39594 14.3813 -5.06522
38.1512 -19.6028 -14.1624
12.4307 -10.2824 -5.1996
7.99871 -9.16432 -3.89789
7.38605 -8.77306 -3.55036
-4.28244 14.4198 -4.52798
11.4977 -9.75158 -4.55112
15.0288 9.45908 -5.08492
13.5974 -10.6175 -4.95077
-5.56791 14.8475 -4.46461
-13.5935 18.2442 -6.42157
15.5806 10.5313 -5.17914
-9.71623 16.3287 -5.05081
-27.4218 21.2385 -9.0579
-24.1492 20.2862 -8.15918
-7.22239 15.333 -4.33498
-8.0218 15.5659 -4.27128
-26.3717 20.8118 -8.18696
-3.3244 13.6081 -3.35552
-11.8641 17.2145 -4.99751
3.10136 -9.52538 -2.36943
14.6953 7.83886 -3.93115
-33.7414 -26.4888 -10.0589
5.37711 -11.5945 -3.01181
48.7673 -11.762 -11.6601
-7.38581 -36.1227 -8.47139
-9.84547 16.5128 -4.39567
14.9969 7.34837 -3.78287
-30.5358 22.2008 -8.38156
-12.6087 -45.1208 -10.2877
3.71696 -9.39109 -2.22482
42.0907 -10.6651 -9.38117
-35.2395 -23.1449 -8.98562
-14.9635 18.5682 -4.95281
14.5743 7.78416 -3.43119
-32.3121 -24.4501 -8.34105
9.26921 -9.17608 -2.70526
42.7988 -10.8804 -9.05969
45.4829 -9.6458 -9.38453
-28.8699 21.6685 -7.12003
-21.481 -34.9169 -8.05863
-33.5692 -24.2532 -7.82994
-35.0387 -23.1207 -7.83932
-14.9486 18.5827 -4.33199
15.2462 7.47571 -2.99146
-5.34527 14.2647 -2.68168
-18.7886 20.1038 -4.86525
-22.5657 -53.7285 -10.1603
-22.7769 -36.743 -7.45979
-34.4362 23.3301 -7.05567
9.10185 -8.95223 -2.16699
-31.5782 23.0029 -6.35825
-32.4225 -24.3607 -6.47596
-20.7782 -55.2988 -9.4337
42.1653 -10.7056 -6.94017
-45.2473 26.7244 -8.28081
-37.5031 -23.4793 -6.86094
6.4187 -10.8336 -1.96765
-29.5628 -26.3527 -5.98312
-30.9485 -25.3932 -6.00036
-20.8106 -51.2699 -8.21896
6.45134 -12.3565 -2.0822
-33.4826 -24.0802 -5.90275
-31.4479 -24.7559 -5.67947
-32.6813 23.3978 -5.62144
-13.1957 17.8158 -3.01809
-33.2398 -24.8508 -5.61935
-30.5608 -26.2921 -5.47211
-32.1141 -19.972 -4.96577
-34.1286 -23.5252 -5.46751
-33.9311 23.0143 -5.16645
-31.0294 23.0944 -4.72996
-41.3778 24.4405 -5.90669
12.9034 -10.4329 -1.94635
9.68057 -9.06378 -1.52542
10.5201 -9.2038 -1.53999
-13.2384 17.899 -2.34523
15.0389 -11.5646 -2.02581
-31.2774 -24.7356 -4.04383
45.3239 -9.63271 -4.6328
17.0417 -12.4345 -2.07736
41.882 -11.2566 -4.09068
-34.816 -71.4225 -7.04708
-23.6372 20.682 -2.75191
-29.1966 -13.1029 -2.7804
6.92633 -10.6461 -1.11585
16.959 -12.2541 -1.81256
-29.6663 -26.4691 -3.35434
9.81989 -8.91612 -1.09515
13.6642 -10.8642 -1.40521
-34.8416 23.6209 -3.2189
-30.4042 22.7805 -2.80986
16.6668 -12.1574 -1.50817
-17.8099 -43.6682 -3.38234
7.3294 -9.09301 -0.851871
-26.5983 -61.0488 -4.58451
9.54748 -8.99348 -0.870801
9.70029 -4.72376 -0.680809
11.2723 -9.76615 -0.939784
-15.2495 -41.8687 -2.62362
15.1451 7.43918 -0.923978
14.5828 7.8078 -0.899289
11.7462 -9.97332 -0.795975
16.8087 -12.589 -1.00464
-12.7182 17.4217 -1.03774
-37.6455 -67.2624 -3.70372
-27.8149 -55.6888 -2.9847
-35.4302 -19.9925 -1.36826
-18.5966 -46.027 -1.65672
-25.893 -59.8813 -1.88933
-22.9395 -61.8758 -1.91598
15.3265 13.3717 -0.392269
11.473 11.1621 -0.299945
23.3842 28.5529 -0.628816
13.1816 -10.8465 -0.315194
-22.5649 -49.5548 -0.895142
-19.6331 5.69048 -0.106825
-35.9471 -68.9965 -0.418771
29.5096 -18.6144 -0.232338
18.4933 -12.8508 -0.0244849
14.7194 7.61653 0.0338089
6.49161 -12.1286 0.157165
11.3439 -9.91258 0.164513
-12.3866 -19.1301 0.30127
25.8516 -5.01738 0.746436
20.9614 42.9473 1.50081
-7.87637 -9.29339 0.421188
-30.9127 -14.7372 1.28946
15.7835 28.4803 1.4076
-10.8833 -16.9992 0.85223
14.5843 19.3547 1.11042
18.3509 35.8656 1.82226
16.3447 31.3376 1.65804
6.52872 -12.3617 0.659598
-6.97965 -8.48262 0.56431
15.245 25.2145 1.57666
6.26344 -13.6428 0.778258
-6.74966 -4.55682 0.482069
-11.672 -8.9102 0.869135
-7.56109 -10.4399 0.857494
10.896 9.02697 1.00728
6.21221 -12.8864 1.00508
-7.17921 -6.3611 0.683547
7.04739 -10.7739 0.917134
12.6993 19.8186 1.80453
-15.1275 8.45546 1.33368
10.9638 -4.90398 0.913165
9.43579 -8.85559 1.03304
10.2937 12.3901 1.45276
6.49977 -6.18436 0.831072
10.9377 9.03967 1.33353
6.37071 13.2564 1.40274
4.51655 12.4968 1.29818
9.64238 12.106 1.55712
7.56104 10.3501 1.33669
6.53029 12.6554 1.51646
8.19609 -6.6153 1.10724
10.0459 9.50062 1.47777
7.0496 10.6357 1.37378
8.72154 9.26756 1.43925
4.73896 -5.85063 0.848018
9.85032 5.43246 1.285
6.95611 11.0481 1.52218
5.8658 10.5361 1.42866
-7.03699 -2.10046 0.853302
8.40229 8.53798 1.42043
-7.20618 -0.81934 0.868646
-6.889 -3.97112 0.945758
4.36469 12.0537 1.5603
-7.04114 -2.33572 0.894555
-7.4714 -0.988731 0.927917
-9.1976 1.34535 1.1629
8.28153 7.56046 1.42416
4.84018 -5.26482 0.934066
7.70282 8.13303 1.47378
-7.27562 -4.51715 1.1563
7.2557 -3.8659 1.14043
7.4556 -3.53544 1.15077
7.45904 -3.26678 1.13728
8.11257 4.12641 1.3007
7.41335 -3.7014 1.18346
8.30241 4.56125 1.35625
7.69722 -3.01618 1.19937
7.91253 -1.91728 1.17087
5.66386 7.32176 1.39614
5.20315 -5.60786 1.1716
-7.1538 -1.83223 1.15722
-7.19745 -1.33238 1.16484
5.26373 6.3246 1.36256
-6.42171 -2.31833 1.14026
6.79369 4.17459 1.35661
-7.34845 -0.958841 1.25752
2.98734 -6.17299 1.15426
-6.9757 -1.77063 1.26567
3.99965 -5.11275 1.12938
4.70519 -4.47729 1.15092
3.55037 -5.23378 1.16098
4.98893 5.52124 1.35947
-7.2627 -1.15983 1.34314
3.84669 -5.22463 1.20833
-7.06831 -0.810895 1.35048
6.31101 2.82334 1.3301
3.69534 -4.57532 1.13641
-2.24905 -5.3748 1.17082
4.93855 -6.43262 1.59752
3.81368 -4.4236 1.15581
4.16034 -4.32959 1.22966
-6.42886 1.48317 1.37001
-2.90804 4.86905 1.19114
-1.34041 -4.98233 1.14409
4.03973 -3.76143 1.22252
4.46381 -2.75797 1.21378
-4.4764 3.94067 1.38809
4.79939 -1.93884 1.24559
-2.7513 4.72959 1.29224
4.34305 -2.67942 1.2311
-1.01412 -4.20631 1.16503
-1.42508 -4.00152 1.17934
-2.14604 -3.81125 1.21567
3.98947 2.54945 1.32881
1.84813 -3.18824 1.22154
-2.04184 -2.42924 1.2724
2.58104 -1.81908 1.32271
2.47809 -1.91955 1.32374
-2.16684 -1.77712 1.21308
2.36522 -1.30256 1.19725
-2.00225 -1.48804 1.2028
7.73052 -8.27573 -9.97759
8.13898 -8.16561 -9.53354
6.728 -11.7555 -11.0659
7.98406 -8.33765 -9.10529
8.02764 -8.89569 -9.06317
6.25043 -13.8973 -11.4642
9.00905 -8.8487 -9.26385
7.23999 -9.4249 -8.71699
7.35467 -10.8288 -9.30772
8.14444 -8.8716 -8.16819
8.89591 -8.91071 -8.35617
6.36693 -12.4826 -9.12922
5.23222 -16.0856 -10.9629
7.25765 -10.5785 -8.26258
10.5743 -9.6112 -9.1733
7.87094 -8.32454 -6.98993
0.11565 15.6602 -9.43326
12.1057 -10.2279 -9.5595
8.24441 -9.11684 -7.34784
-0.321088 13.2567 -7.71961
7.40449 -10.8264 -7.22635
7.80531 -8.97836 -6.57562
5.82447 -12.6218 -7.57829
14.9174 10.1211 -9.73522
14.0877 7.81465 -8.45491
0.300269 14.7425 -7.73609
5.73435 -10.0021 -6.03361
10.5618 -9.58326 -7.1913
12.7132 -10.6114 -8.08112
15.3292 -11.5657 -9.34636
10.0277 -2.52245 -4.71376
16.0319 7.3594 -7.80584
9.59187 -3.44789 -4.52578
14.5859 7.91647 -7.24011
19.7629 20.2215 -11.8818
14.0766 -11.1336 -7.59845
15.5501 7.3876 -7.21517
9.65952 -3.26096 -4.24398
14.1072 7.85582 -6.48307
15.4432 7.9301 -6.91114
16.9204 15.7774 -9.22101
-9.43857 -1.36775 -3.75661
0.615278 -25.2369 -9.84762
0.871979 16.8822 -6.57056
15.931 -11.9632 -7.63364
14.9385 11.4748 -6.89026
10.4464 -9.43491 -5.0999
-0.378868 -23.2049 -8.23927
-0.889888 -26.3918 -9.18061
-4.12779 13.9008 -5.01703
-13.9114 18.2078 -7.90592
1.39504 17.6751 -5.87342
-5.22535 14.4104 -5.04651
-2.82368 -26.3493 -8.39572
-11.2739 17.3106 -6.48106
-4.28175 14.4618 -4.60909
3.8108 -12.5497 -3.96577
-5.60217 15.4249 -4.76419
3.56613 -10.4082 -3.18609
-3.93604 -28.0351 -7.6408
-23.7977 19.911 -8.25934
3.21088 -10.364 -2.85601
5.03734 -9.67722 -2.82346
-27.4001 21.3941 -8.79981
-30.6043 22.3528 -9.62674
-32.2756 -45.5869 -13.5037
-9.74264 16.4484 -4.46743
-9.28513 -44.3083 -10.7838
-35.1965 -23.0141 -9.38288
-21.5859 20.4687 -6.52096
-15.0035 -42.577 -9.85309
10.3029 -9.23364 -3.05167
-29.7248 -76.8098 -17.1712
42.749 -10.4866 -9.12557
-28.6317 21.1832 -6.87751
14.6523 7.97343 -3.14543
-5.06974 13.8969 -2.70004
-32.4639 -24.3635 -6.61576
6.7111 -12.7037 -2.23037
-21.7807 19.4673 -4.23656
-32.1098 22.8824 -5.58721
46.5508 -10.1034 -6.67982
-36.069 -69.4133 -9.92271
-31.1093 23.2753 -4.69713
-35.1093 -22.8522 -4.37086
14.6651 8.00276 -1.66385
-23.774 20.8021 -2.52839
-31.3302 23.5588 -2.80704
42.7227 -10.4825 -3.25101
-23.8838 -54.2334 -4.13415
7.99753 -11.2775 -0.907514
7.1892 -9.05146 -0.752785
16.8397 -12.32 -1.3663
14.8376 8.0679 -0.999357
29.1148 -18.7651 -1.8994
14.9423 7.67473 -0.585816
-24.305 -54.1689 -1.3714
-19.1425 -52.1687 -1.26757
-23.4025 20.7922 -0.55261
-36.6265 -21.6646 -0.350382
-39.0072 -25.7194 -0.26287
19.625 -13.4719 -0.183659
15.5373 7.98264 0.133655
-32.2844 22.838 0.384229
25.0473 -4.9208 0.869159
-6.78889 15.0045 0.654296
16.0752 10.182 0.865842
10.7498 12.8215 0.715632
13.9243 18.4863 1.05642
6.66902 -12.6339 0.643631
7.43678 -10.6941 0.564709
6.25867 -10.2861 0.588403
15.6481 25.2662 1.56499
-7.31683 -8.0479 0.55107
-6.66955 -8.0414 0.5385
10.2734 -9.38793 0.756172
8.94604 17.8439 1.33438
-7.34835 -10.2788 0.905139
10.5787 -4.76896 0.830516
-14.4775 7.97707 1.28606
6.62229 -11.5944 1.04713
-6.20749 -4.26558 0.677482
-7.44399 -7.89271 0.932119
6.35749 13.1708 1.33065
9.56906 9.05036 1.25329
7.08277 10.7833 1.34644
7.31128 12.5761 1.49884
8.07147 -6.50636 1.09783
-9.0576 1.37031 1.11619
6.9919 -4.50739 0.991362
7.21589 11.5685 1.6702
5.51604 -5.48514 0.982095
-7.39028 -0.918477 0.944104
7.13347 5.61755 1.21448
4.96463 -5.50232 0.987111
9.24957 -3.11526 1.30567
-6.95005 -4.29616 1.12567
7.11475 -4.32756 1.13536
7.63103 -3.54765 1.1547
-6.99507 -1.73088 1.03582
8.7921 -2.07955 1.26444
7.568 4.91802 1.2892
-6.43731 -2.15783 0.999386
5.19365 -5.47559 1.15306
5.93892 5.0888 1.2516
7.88936 -2.16084 1.28213
3.85059 -6.17814 1.17696
4.6043 7.04549 1.39663
-7.38196 -0.925105 1.2254
-6.37467 -2.32147 1.13183
-6.52969 -2.71804 1.19379
6.87901 4.23762 1.37957
4.203 -4.63594 1.1129
-7.21095 -1.14786 1.35136
3.58095 -5.28424 1.19164
4.14452 -5.60233 1.33649
3.72835 -4.32876 1.16251
3.92286 -3.60826 1.16889
4.43343 3.75368 1.35112
3.65094 -2.86243 1.20052
-2.19725 -3.86939 1.20923
4.03349 2.53531 1.34922
-2.3741 -2.97921 1.17613
-2.26298 -2.52753 1.10792
17.3463 -12.665 -9.82859
12.0387 -10.039 -6.93199
0.536852 -22.3978 -7.88206
21.7575 27.4539 -11.7497
-34.4226 -26.0964 -9.13613
43.322 -10.6622 -7.14881
29.0731 -9.78216 -3.86193
44.1596 -10.899 -5.35408
6.498 -6.60711 0.286727
9.31868 8.27211 1.4319
5.62858 11.4944 1.6269
-7.09883 -1.93721 1.097
7.64622 -8.05906 -8.70688
6.36511 -13.936 -11.5501
5.9345 -10.7817 -9.19247
6.72728 -10.68 -9.35697
7.39912 -10.7375 -9.22676
9.93231 -9.14016 -9.5395
7.78332 -9.04931 -8.25231
7.74414 -9.4484 -8.35948
6.41353 -11.0163 -8.54715
7.2213 -9.50332 -7.93581
7.11699 -8.89644 -7.56928
5.62646 -12.4898 -9.04753
13.8639 7.84955 -9.64241
4.94276 -14.2727 -9.04069
8.94806 -9.79368 -7.93973
9.57659 -9.17013 -7.98794
12.0583 -10.1073 -9.52123
5.39032 -13.1365 -8.24006
9.66404 -9.17504 -7.55365
3.28005 -20.1361 -11.348
