ply
format ascii 1.0 
element vertex 1877
comment /media/mkaihara/Seagate Backup Plus Drive/model_iterations/model_35.ply
property float32 x 
property float32 y 
property float32 z 
end_header 
17.3503 -7.74977 0.38273
7.24728 -10.9959 0.29812
-9.37887 -12.1077 0.387361
-12.6311 -19.3903 0.553108
7.67233 -9.34101 0.27541
7.85733 -9.39658 0.284434
-25.0969 21.0937 0.850225
-28.5574 -9.15774 0.752168
9.65596 -8.98437 0.339388
17.6302 -12.8793 0.550746
18.4797 -13.3066 0.56667
-22.5148 19.7123 0.778383
-27.1321 21.4431 0.901402
-28.5725 -8.57547 0.780561
-32.6031 -17.3839 1.00334
-13.1816 -19.9048 0.63483
14.8533 -11.541 0.502124
22.9053 -3.33275 0.651558
-12.0489 -18.7877 0.645976
25.1839 -4.77092 0.746293
16.699 25.9151 0.923447
-27.589 -20.3243 1.01404
7.26326 -11.3775 0.405344
6.99658 -10.7444 0.390554
15.0372 24.496 0.881946
-7.58547 -8.76513 0.354326
13.0998 -10.7191 0.51706
-7.28145 -9.46373 0.365626
-28.2133 -7.96327 0.97515
-11.7622 -17.1938 0.697824
7.89629 -9.3793 0.405755
16.2834 11.1251 0.706071
10.9014 -9.49241 0.525246
11.9464 -10.0936 0.570034
23.7722 47.8697 2.00662
-7.41646 -8.09699 0.41026
9.68364 -8.98932 0.493384
22.9753 -3.22583 0.89089
28.0473 57.9788 2.49309
-7.4069 -9.83117 0.481392
10.4704 -9.54954 0.556032
12.7903 -10.5636 0.670411
21.7078 -2.66057 0.891824
-28.7219 -17.4249 1.37361
8.76435 -8.72502 0.511199
-6.89329 -8.42862 0.467916
9.46778 -8.95633 0.544955
12.8142 14.71 0.861332
-28.544 -8.37708 1.30686
14.9378 19.4566 1.10215
15.3481 26.4263 1.36138
22.4365 44.12 2.1886
6.23153 -13.8842 0.678515
10.8853 -9.54983 0.65504
18.5799 -1.64896 0.853494
20.0544 38.1844 2.02252
15.2958 26.9502 1.45268
-11.1252 2.75944 0.551394
-7.20673 -9.49927 0.57495
9.19658 -9.01399 0.61
11.4383 -8.77574 0.675282
20.225 -2.31776 0.980826
11.7333 11.9578 0.831773
16.6722 40.0953 2.13441
7.78414 -9.48725 0.604116
10.2202 -9.30832 0.684689
14.8703 25.216 1.46563
20.7627 40.2631 2.29913
21.1293 -2.63219 1.0829
-7.37311 -8.47071 0.582513
9.41486 -8.96408 0.67703
17.018 24.9557 1.58659
16.9168 30.6683 1.82781
13.0716 -10.7745 0.900253
10.6541 12.4548 0.876422
14.4246 19.5803 1.30624
11.1185 -9.64099 0.7959
15.2237 19.8352 1.37877
-25.7595 19.7464 1.77226
-6.94033 -8.14243 0.591771
10.3481 12.5108 0.90908
-7.22736 -9.33001 0.660942
10.0842 12.5623 0.934123
-27.1969 19.1477 1.88725
6.15082 -12.9901 0.822832
11.2816 12.1957 0.954736
-6.86035 -6.7706 0.558835
11.3716 12.1261 0.97872
-6.78122 -8.37943 0.645059
6.29282 -12.6496 0.825489
14.8528 19.7619 1.48635
14.3784 23.5085 1.64372
13.7862 31.861 2.08335
-6.08777 6.48393 0.545378
-8.13546 -7.70863 0.677767
-7.08933 -8.13272 0.662484
5.7611 -12.5292 0.833819
-7.45602 -6.86461 0.63032
7.0373 -11.2125 0.818587
7.01496 -10.6019 0.793487
11.3858 -9.82841 0.92909
12.1827 -10.1914 0.984469
16.3219 7.22861 1.13737
15.0992 19.56 1.56322
-7.2153 -6.28814 0.620559
10.3021 -9.40924 0.90057
-7.35595 -6.24047 0.63257
11.5772 12.2163 1.14668
9.73141 21.9075 1.63222
-7.23793 -9.60758 0.803641
11.7429 12.7363 1.18831
-6.93876 -4.44666 0.566584
-6.72778 -8.17111 0.721728
-6.68461 -4.42371 0.552615
9.30332 -8.89466 0.896162
10.0295 -7.86893 0.89812
12.861 16.2095 1.49602
-6.65107 -6.64355 0.653009
9.84317 -8.31218 0.94219
11.6168 17.3699 1.57089
11.5597 18.4295 1.62504
9.74419 18.5463 1.57982
9.17359 19.8255 1.64298
7.5126 22.3911 1.7756
10.9338 18.8724 1.66158
10.0462 -7.62224 0.96433
-7.00573 -7.16624 0.767777
-17.0791 -6.1947 1.42026
9.50125 -7.70275 0.958939
9.48546 18.9454 1.67223
-6.36775 -4.25184 0.60674
-6.80531 -8.19048 0.844103
4.83842 -5.73765 0.596772
9.18034 20.1974 1.75971
7.90753 19.3342 1.67962
5.03272 -5.80039 0.618765
12.8884 11.6299 1.40663
11.8829 11.9363 1.37911
6.75315 -9.42109 0.942264
12.3421 11.805 1.40384
6.82055 20.0227 1.7316
-6.3439 -4.37931 0.627958
-7.13026 -9.43684 0.970782
11.6521 12.2074 1.39625
10.5463 9.22618 1.19313
-5.00944 -11.4291 1.05435
6.1359 -6.05588 0.752584
9.24362 -7.20114 1.0079
-6.77606 -6.67401 0.807866
10.531 12.4802 1.42551
8.82179 -7.35088 0.998286
10.9302 12.3213 1.44146
-7.28421 -7.7374 0.931516
8.21187 -7.31071 0.976264
10.3068 12.5979 1.46328
-7.04764 -7.71557 0.926433
-6.91284 -8.31004 0.970045
10.6998 12.4378 1.48984
10.6135 13.6909 1.56949
-7.09068 -8.29749 0.994161
11.313 10.9275 1.44675
-6.30244 -4.22309 0.697306
-6.83557 -8.56127 1.0023
-6.31608 -4.3858 0.708518
11.1598 8.61239 1.32285
10.7196 9.39738 1.3292
6.5931 15.662 1.5985
10.6022 11.406 1.47359
-11.1703 2.8624 1.08888
6.16759 -5.97507 0.818734
8.02442 -6.65234 1.00124
10.8196 9.26513 1.38286
9.62538 12.6651 1.54037
9.81101 12.5907 1.57268
7.75016 12.3948 1.45224
8.00581 13.3834 1.55248
11.2996 8.11427 1.41782
7.22417 12.8553 1.48838
9.14591 11.4618 1.49212
7.08889 13.7241 1.58106
5.95636 14.1536 1.57673
9.27689 10.5762 1.45411
9.12567 12.4324 1.60249
11.4621 7.70769 1.44098
9.32801 10.088 1.43061
4.97854 -5.82575 0.82276
-6.83107 -4.64596 0.871169
5.6635 14.1102 1.61419
-7.04316 -4.49648 0.890856
9.00721 10.7926 1.50946
-6.74785 -6.75744 1.02136
5.91874 -5.84203 0.898383
9.75973 8.59292 1.40171
9.03116 9.4328 1.40467
9.33656 10.4081 1.51608
4.86383 14.0967 1.6099
4.24709 -8.07732 0.98854
6.53287 10.9296 1.40141
-6.78759 -3.9169 0.862302
6.42245 12.0424 1.51455
-6.88094 -3.85504 0.873474
9.77144 7.25034 1.36075
6.74265 11.5076 1.48566
9.86595 7.07378 1.3639
5.50287 11.7312 1.46548
5.51225 12.2572 1.51834
4.77239 12.4201 1.50592
9.89361 6.72448 1.36344
-6.87726 -4.55393 0.94439
7.42399 -6.24461 1.10588
-7.31229 -0.783491 0.842812
-6.26257 -5.37994 0.950654
5.25608 -5.5754 0.884229
8.93701 7.94523 1.39329
4.42736 -7.19829 0.979019
10.4688 5.18275 1.3681
9.02071 7.84758 1.40562
5.20737 -5.61907 0.90517
8.66291 7.97416 1.39723
8.97281 9.12836 1.4977
-7.03098 -5.63754 1.06614
10.1924 4.77263 1.34101
-6.90459 -3.84392 0.951888
9.19366 6.18037 1.3437
5.27956 11.5729 1.54242
-6.87945 -3.05942 0.914504
-6.86393 -3.24509 0.917838
4.8879 -5.96108 0.940982
5.98572 -6.14121 1.04423
9.42517 5.65339 1.35876
8.51843 7.27256 1.38498
-6.93597 -4.30154 1.00513
-6.86761 -4.5256 1.01344
8.32308 8.6523 1.48966
5.09885 11.4673 1.55879
-6.5366 -5.60601 1.07151
3.71747 -7.5922 1.05347
8.56319 7.79748 1.44932
6.08904 -5.62775 1.03964
9.22018 6.09639 1.40089
-6.1235 -5.40327 1.03031
8.60215 6.65472 1.3871
8.14417 7.56159 1.41387
-7.08488 -1.77886 0.933961
-6.99862 -2.3011 0.940555
-6.43294 -5.30834 1.06393
8.87777 5.69166 1.35206
8.21512 8.10487 1.48756
-7.24561 -1.25014 0.942453
-6.88396 -4.1106 1.03633
7.47553 6.25788 1.26282
8.13116 7.08704 1.39881
8.02853 8.18617 1.48601
-6.89633 -2.82046 0.969711
-6.89761 -2.96006 0.9701
4.60801 10.2049 1.47199
9.03849 4.12957 1.30811
-7.2301 -1.60224 0.972856
6.8516 -4.26667 1.07283
4.93584 -5.95285 1.02533
-7.31423 -1.11426 0.989968
-6.99888 -2.19451 0.980846
-7.03583 -2.26359 0.987099
-5.9853 -4.39111 0.991852
5.19841 -6.57751 1.1174
6.92267 -4.18351 1.08905
8.12643 7.21733 1.4726
-7.13441 -1.71415 0.986096
-7.06645 -1.95122 0.985654
8.83722 4.87892 1.37118
8.37833 5.90588 1.39387
-6.90703 -3.61168 1.06183
8.90723 4.18045 1.34974
3.3977 10.6795 1.53498
-7.29397 -1.19685 1.01145
-6.00038 -4.43422 1.02593
-5.98089 -4.53285 1.02717
7.16147 -3.94162 1.12366
8.12054 6.525 1.4409
5.4085 9.1416 1.47121
-6.37067 -4.31358 1.05452
4.93968 -5.53344 1.03051
7.19923 -3.83718 1.13551
7.57556 -3.69413 1.16631
3.66979 10.1815 1.50765
3.48548 10.4884 1.54161
-7.34978 -1.07926 1.03672
-7.05741 -1.99917 1.02186
4.97863 -5.29439 1.01605
7.26124 -3.74512 1.14793
7.37826 -3.67987 1.16953
7.89045 -3.3642 1.21956
-7.13774 -1.87025 1.04905
-6.99314 -2.93955 1.09903
-5.99831 -4.36638 1.06685
7.92516 -2.78933 1.2294
8.27318 4.64352 1.39018
5.04138 8.63659 1.46611
8.41079 4.5293 1.41203
7.8503 -2.34671 1.20795
7.1869 5.72124 1.37584
3.00502 9.59298 1.50385
-7.07716 -2.01473 1.1025
7.50172 -3.11714 1.2248
8.26939 4.57017 1.43237
5.83195 7.50046 1.44306
5.33612 7.69845 1.42773
5.17326 8.01528 1.44946
5.12726 8.12649 1.4547
7.35096 -3.17724 1.22328
7.6989 -2.76315 1.24576
-6.74061 -1.6789 1.04601
7.85236 -2.2628 1.25329
7.2761 5.45707 1.39682
-7.08655 -1.94773 1.14016
-6.90485 -2.77979 1.15663
6.8542 5.55967 1.38458
-7.33569 -1.0928 1.15808
-7.12696 -1.81972 1.15168
-7.03006 -2.06266 1.14763
-7.10379 -1.86795 1.15236
-6.88023 -2.92791 1.17356
4.85322 7.52544 1.42456
3.44814 -6.03523 1.10999
-7.25696 -1.29605 1.18059
3.52917 -5.70951 1.08141
3.56595 -5.61468 1.07076
7.11656 4.79711 1.39877
4.70554 7.44781 1.43427
-7.05454 -2.01874 1.19555
-7.07636 -1.94233 1.20382
7.01168 4.8588 1.41108
3.86227 8.02415 1.47501
6.06378 -3.32508 1.15214
6.67779 4.90576 1.38185
4.7064 7.23394 1.44008
3.83758 -5.30221 1.10019
7.15065 4.45285 1.41864
7.51374 2.87316 1.3597
6.36535 5.32129 1.40647
-7.26045 -1.2525 1.25431
6.7941 4.10777 1.36375
-6.43827 -2.76652 1.19541
5.51702 -3.63465 1.13503
5.69941 -3.52392 1.15061
2.79297 7.96073 1.45943
-7.3531 -1.03679 1.28705
5.34034 -3.78807 1.14145
-6.29885 -2.25531 1.15986
-6.25968 -2.4122 1.17433
4.28296 -4.66668 1.10777
4.49662 -4.4798 1.11354
4.59475 -4.452 1.12253
-6.78597 -1.72871 1.23326
4.37245 6.56024 1.4069
-7.14142 -0.925937 1.28685
-6.13308 -2.25366 1.16358
6.67792 3.71341 1.37
6.13849 4.38946 1.36912
3.60924 -5.32831 1.17049
5.18849 5.73046 1.41438
2.54877 7.29497 1.45251
6.51894 3.06819 1.36254
-1.70702 -5.78401 1.14133
6.44201 -1.38932 1.25054
6.30432 2.79177 1.32772
6.24707 2.39256 1.33492
-4.43241 3.92185 1.39048
4.34806 3.55332 1.34356
4.23164 3.30849 1.33025
4.66854 -1.67893 1.24602
4.82342 -1.38227 1.25546
-2.12867 4.76738 1.30277
3.72532 -2.95166 1.22212
3.67136 -2.54834 1.19335
3.40381 -2.95931 1.2251
4.01791 2.57834 1.33461
-2.59627 -3.53635 1.25125
-2.32815 -3.57343 1.21686
3.76465 2.06333 1.30568
3.74087 1.98527 1.30498
-2.83222 3.47211 1.38101
-2.2986 -2.42133 1.18781
1.95019 -2.77405 1.21025
-2.11851 2.75964 1.32022
-2.02393 2.74793 1.32645
2.24644 -1.86624 1.22362
2.37651 -1.49601 1.2211
-2.01326 1.87378 1.29307
-2.06628 -1.44403 1.22864
1.44507 -2.06437 1.24278
-1.99403 -1.08844 1.21451
-1.92621 -0.708016 1.21982
-1.92793 -0.703787 1.24539
-1.95663 -0.344486 1.22842
-1.89405 -0.564941 1.22962
-1.89363 -0.53113 1.23468
8.25259 -8.73352 -7.49424
12.1908 -10.3421 -8.84632
-8.63888 15.4176 -6.85506
20.8797 25.4287 -11.8239
-8.77526 -2.5131 -2.57208
-33.8449 -22.6085 -7.51936
-33.4688 -21.8876 -5.90102
-33.1952 -22.5588 -5.96069
-30.6937 -19.6849 -2.74236
9.33191 -8.88846 -0.393662
-7.46848 16.0985 -0.438075
-29.0881 -11.2561 0.718311
-6.89465 -8.24024 0.458862
17.055 24.4903 1.62104
11.5621 16.2606 1.65022
-6.67729 -6.65037 0.881082
4.29992 12.4777 1.52141
8.80737 9.17422 1.48768
8.0052 -8.79941 -10.4211
8.87086 -8.57663 -10.5425
6.98417 -11.9814 -11.5561
6.8991 -11.392 -10.9353
8.18641 -8.29869 -9.57155
7.04779 -12.0706 -11.3649
7.09434 -11.015 -10.4958
8.03597 -8.41263 -9.24186
6.75444 -11.3278 -10.3276
6.47048 -11.7406 -10.2504
7.79015 -8.88739 -9.00904
6.23004 -14.3681 -11.85
8.33606 -8.7397 -9.14147
6.32448 -11.9531 -10.2123
6.17003 -12.1295 -10.1469
7.52486 -9.48696 -9.04031
7.94302 -9.09375 -8.96362
10.5278 -9.50386 -10.5475
6.14081 -14.1566 -11.4049
6.11879 -13.7027 -11.0327
6.15433 -12.6208 -10.3267
9.24193 -8.86898 -9.3958
9.33037 -9.11696 -9.51373
5.88716 -12.5494 -10.0688
9.40647 -9.03309 -9.3066
6.89286 -11.175 -9.31724
5.63638 -13.0141 -10.0369
9.74322 -9.12876 -9.46139
7.64233 -9.3843 -8.50842
10.0511 -9.23574 -9.58884
10.9783 -9.54589 -10.2074
11.5104 -9.75714 -10.1329
8.42306 -8.64691 -7.99145
7.46482 -9.34066 -7.89977
8.20654 -8.75973 -7.93338
7.66338 -9.39461 -7.93121
7.8733 -9.445 -7.88019
8.35971 -8.57511 -7.65508
0.353254 15.8586 -10.1215
7.56289 -9.36709 -7.66072
10.9751 -9.66336 -9.29669
7.26266 -10.7552 -8.21277
8.1934 -8.53684 -7.46169
4.62568 -15.4402 -10.1361
8.75258 -8.739 -7.652
7.95811 -9.07375 -7.44404
4.05825 -18.0482 -11.3942
8.23586 -8.66721 -7.30882
4.09125 -17.3161 -10.8565
0.139597 14.8616 -9.04347
6.68722 -11.3163 -8.00184
7.77773 -9.30941 -7.35989
10.1865 -9.36818 -8.39666
6.85361 -11.3042 -7.93519
8.09935 -9.24823 -7.37873
11.3392 -9.75693 -8.94293
5.42311 -13.9095 -8.85337
7.77136 -9.30915 -7.19095
9.39975 -9.08016 -7.74359
6.93661 -11.1692 -7.78074
8.02137 -9.17086 -7.1486
9.80721 -9.23843 -7.85136
14.9713 7.48155 -9.7224
8.71231 -8.87659 -7.18637
6.96633 -11.016 -7.48996
2.64847 -11.2435 -6.64263
7.89742 -9.11445 -6.90652
9.6589 -9.19101 -7.57312
10.8561 -9.55046 -8.15599
0.124798 15.3014 -8.63109
3.27671 -20.5545 -11.7051
6.83205 -11.0307 -7.27323
10.1641 -9.34416 -7.73124
12.4285 -10.4282 -9.09718
9.28915 -9.05464 -7.24805
4.6355 -14.348 -8.40514
8.04473 -9.26298 -6.81322
14.8948 7.61555 -9.18637
9.75145 -9.15744 -7.34616
0.830666 17.4765 -9.5555
2.73685 -19.7933 -10.8957
11.1984 -9.70377 -8.04466
4.25556 -14.4912 -8.17421
14.8072 7.74405 -9.00285
15.2183 10.5081 -9.93218
14.1355 7.79886 -8.62846
11.0179 -9.67658 -7.79714
13.3642 -10.8826 -9.16695
3.03862 -19.2749 -10.2582
11.4276 -9.88673 -7.68804
2.16619 -20.3215 -10.3151
10.3238 -9.399 -7.01986
14.3782 -11.372 -9.2031
13.9162 -11.2556 -8.95913
11.0786 -9.71689 -7.34089
7.54503 -9.38269 -5.96189
3.5717 -8.48775 -4.53793
-8.67116 -1.90386 -4.36445
2.21699 -20.0682 -9.90328
4.54216 -9.31869 -5.06973
0.398329 13.6629 -6.69203
7.6441 -9.31383 -5.87906
-8.38422 15.9934 -8.74257
-9.16775 -2.42357 -4.56882
15.1214 -11.6769 -9.18002
19.5535 5.59483 -9.7278
-10.2711 -2.54297 -5.00459
1.90782 -20.4952 -9.7878
17.4213 16.3732 -11.3266
7.62372 -11.2698 -6.41927
20.217 5.45704 -9.86295
14.1333 -11.1891 -8.38178
2.94121 -17.3865 -8.19828
19.5341 5.77981 -9.41255
18.0174 -13.1299 -10.2966
9.89734 -2.50001 -4.71721
20.4752 5.18978 -9.74695
17.5514 16.5065 -11.1059
1.806 -20.1369 -9.25318
9.72183 -9.09044 -6.09416
-9.17719 -1.66575 -4.25342
9.48178 -3.47927 -4.60046
6.74999 -11.3778 -6.01648
9.94504 -2.62691 -4.66616
19.4267 5.92391 -9.145
17.9611 17.8175 -11.3769
9.39702 -3.09558 -4.45387
15.5676 -11.9789 -8.81382
7.07667 -11.6258 -6.0867
7.1867 -10.9697 -5.84471
9.58888 -3.41538 -4.53649
-9.87665 16.1828 -8.43757
17.8264 -13.0096 -9.80538
19.7166 5.67994 -9.09585
16.2441 7.36832 -7.90048
18.0745 18.2583 -11.3658
16.574 -12.326 -9.10236
-11.0825 16.8486 -8.8608
-6.48013 14.8009 -7.08113
-5.20613 4.88227 -3.10843
20.3247 5.51859 -9.15746
9.58777 -3.41563 -4.39292
18.483 18.7355 -11.3152
15.9619 -12.2831 -8.66561
14.9864 7.49346 -7.15275
3.8506 -9.33006 -4.28793
-11.0128 16.7454 -8.48174
6.97916 -10.9601 -5.4782
-13.4902 3.30603 -5.85117
0.742421 -22.2403 -9.37818
15.9372 -12.0664 -8.35881
-5.13116 5.64917 -3.19151
0.995749 -22.0962 -9.2727
1.23226 -20.7253 -8.69784
14.2868 7.66281 -6.78273
18.8323 19.6277 -11.3689
3.79318 -8.97849 -4.06427
14.8987 7.79675 -7.00136
18.1851 19.4241 -11.0458
-9.47636 -1.08762 -3.9372
4.01482 -8.51743 -3.85777
14.1536 7.81561 -6.63911
6.87876 -11.0418 -5.31783
-13.5336 2.5281 -5.63157
-7.86059 15.2225 -6.95895
19.5726 21.27 -11.7141
15.2039 7.30578 -6.79815
-5.21749 14.2382 -6.07712
14.0648 -11.1194 -7.02161
1.53678 19.3861 -7.55568
-8.62864 15.5791 -6.91762
19.17 5.84632 -7.76673
-1.74562 13.1848 -5.15013
5.31585 -9.42904 -4.17389
-2.36982 13.387 -5.22019
19.9351 23.0637 -11.6934
4.67337 -8.53831 -3.69628
19.6038 5.62403 -7.76196
0.868743 -26.1461 -9.94359
15.0334 -11.5846 -7.14161
20.1715 5.46495 -7.82305
9.4724 -3.4512 -3.76957
0.529338 -22.3575 -8.33598
3.26485 -10.8464 -4.23095
20.5585 23.9207 -11.7173
0.908258 -8.70319 -3.24541
14.1386 -11.1967 -6.64943
20.5865 5.23604 -7.81144
18.1496 17.9354 -9.32794
-12.9569 2.26992 -4.78197
21.2461 25.3742 -12.0073
2.29715 -13.3078 -4.86443
13.1306 -10.6183 -6.07581
0.793518 15.4996 -5.55495
-8.17588 -2.79005 -3.08985
0.408586 -21.5924 -7.72137
-4.16889 13.6693 -5.08061
0.635964 -21.7257 -7.7249
16.0025 -12.0859 -7.10677
-15.4927 17.9092 -8.34302
5.95316 -11.3838 -4.51635
-10.8664 16.3955 -6.86731
0.0953678 -18.3285 -6.44408
14.3783 -11.3947 -6.41415
20.5418 5.40999 -7.41569
0.654486 -22.8038 -7.8797
-4.95025 14.3603 -5.20163
3.64927 -8.4708 -3.17467
4.89257 -9.06205 -3.52871
-14.2844 17.7325 -7.79155
2.28063 -10.908 -3.81863
-8.75989 15.8867 -6.18134
3.05099 -13.797 -4.81632
-14.7522 18.1047 -7.91471
20.3584 5.53527 -7.09243
22.5355 27.8804 -11.986
36.7941 -20.7699 -14.1173
-5.23604 13.88 -4.92421
1.92698 20.9528 -6.98482
1.26781 -10.2439 -3.41293
33.0719 -20.7901 -12.8444
-5.1858 14.2702 -4.92884
-12.4005 16.9744 -6.81695
18.7722 -13.3768 -7.48438
3.56589 -8.68618 -3.01037
6.24844 -10.1586 -3.82167
2.31677 -11.0181 -3.58275
-4.44582 -33.4301 -10.7218
-1.11661 -23.4679 -7.48052
15.1784 10.4539 -5.81835
-13.0117 17.3125 -6.84308
-17.6924 19.0819 -8.17789
3.01053 -9.70846 -3.20652
7.00342 -11.1603 -4.07278
1.37791 -21.7218 -6.73374
-2.52082 -26.8883 -8.29191
7.33637 33.9153 -10.5944
0.768838 15.0927 -4.59197
-10.963 16.5391 -5.97828
-2.64079 -25.9604 -7.86087
-14.1201 17.6531 -6.74283
-5.17554 -33.968 -10.2331
0.829929 -24.683 -7.3859
-5.31297 14.6048 -4.6202
2.09666 20.9225 -6.19829
-20.9124 19.4985 -8.43386
18.3829 5.84993 -5.67952
-4.23997 14.2289 -4.36307
-7.80824 15.1447 -4.99657
4.27222 -9.17789 -2.97508
4.66236 -11.6801 -3.6766
-12.5417 2.20939 -3.65982
-31.9047 -45.195 -15.9216
-14.9543 17.9888 -6.72275
7.0051 -11.1565 -3.79182
2.57036 -9.56813 -2.81473
13.0303 -10.5469 -4.7701
-8.42405 -2.45166 -2.48773
21.5356 27.777 -9.96223
-8.55032 -2.25354 -2.49858
-2.48902 -25.4261 -7.1722
-12.9447 1.98363 -3.64674
4.41533 -11.3987 -3.39205
-9.16212 15.754 -5.0011
-12.8496 17.136 -5.88097
-5.30896 14.1622 -4.13137
-8.23138 -39.9941 -11.1752
-21.0868 19.6773 -7.75202
-9.57519 15.8755 -4.96626
-26.2098 20.1336 -8.79121
11.5627 11.6383 -4.33097
4.35505 -11.3673 -3.22408
48.1895 -14.0087 -13.293
-7.90705 -37.3268 -10.0324
4.10698 -8.69424 -2.53148
11.2474 -10.0039 -3.93726
-14.2079 17.7885 -5.91792
6.57013 -10.4767 -3.20032
3.19069 -9.68293 -2.63524
-29.1599 -42.7085 -13.356
-4.2318 -27.7696 -7.2708
3.55979 -10.4254 -2.84004
4.08644 -9.42857 -2.64081
15.7582 -11.849 -5.02978
-7.02912 14.9715 -4.18397
-30.6039 -40.8146 -12.9384
4.33878 -11.2124 -3.04217
4.27024 -7.73203 -2.24779
6.57738 -10.7284 -3.13777
45.7893 -13.8441 -11.9253
-27.7008 20.899 -8.57777
-11.3359 16.653 -4.96435
-26.8394 -39.1541 -11.6736
-9.55392 -37.6131 -9.57568
-24.0125 20.1683 -7.70494
4.37145 -10.3817 -2.76712
-11.8596 16.986 -5.02121
-7.71289 15.025 -4.06863
10.3368 -9.32373 -3.33278
41.0697 -13.6423 -10.3545
15.2564 7.63007 -4.06224
-6.10139 -34.9587 -8.45645
3.97986 -9.11931 -2.35737
48.0486 -12.8598 -11.8038
-11.6741 -42.9925 -10.5568
4.22479 -9.03976 -2.37995
3.89289 -11.1646 -2.78574
4.92945 -8.73043 -2.35831
-12.5588 17.1135 -4.93844
11.0799 -9.70974 -3.36677
-6.01976 -30.5381 -7.10436
-26.6116 20.5533 -7.6211
42.3287 -9.25723 -9.83199
-29.8409 21.6659 -8.26698
-34.7661 -22.7831 -9.31434
-5.24552 -24.9811 -5.69406
41.5116 -12.8325 -9.75451
5.48083 -9.51951 -2.45212
-12.3298 2.8134 -2.77483
41.388 -12.1289 -9.52792
43.4294 -12.3917 -9.93498
28.3289 39.9004 -10.7228
-5.27597 13.8379 -3.2358
13.5039 -10.8665 -3.81469
38.747 -12.4519 -8.9461
-22.9326 19.9868 -6.59745
-27.7052 -68.3087 -15.9992
4.33219 -9.75023 -2.31325
4.56109 -9.2245 -2.22235
-14.3141 17.8332 -4.88211
-30.2496 21.9727 -7.98257
-31.0979 22.0691 -8.15072
-26.2865 -69.7455 -15.981
-10.4934 16.3957 -4.12595
-8.16253 -34.6574 -7.57396
3.20794 -9.73792 -2.18583
3.98994 -9.88768 -2.27289
46.7627 -10.8421 -10.246
15.0871 7.55709 -3.57854
-14.8738 18.3091 -4.99299
5.18749 -9.09587 -2.19962
27.4954 39.7848 -10.1111
-27.1492 -26.5686 -7.88832
15.1317 7.91933 -3.54707
-29.6231 -22.878 -7.76521
-30.5118 -78.2372 -17.3905
41.2721 -11.107 -8.83822
-11.236 16.5541 -4.06418
-15.3304 18.1251 -4.83157
-34.3258 23.0421 -8.40022
45.3348 -9.88866 -9.4614
-12.7184 -40.9269 -8.71322
4.15835 -9.78679 -2.16303
4.28316 -9.75377 -2.17107
11.6861 -9.71435 -3.09148
-11.772 16.8928 -4.10876
-18.8892 -54.2156 -11.4773
-12.5135 -38.8759 -8.08794
4.09229 -9.97558 -2.13439
-33.4805 -22.8936 -7.99627
-26.1716 20.5405 -6.54725
-32.5356 -23.2732 -7.79842
-6.7469 14.906 -3.17397
-25.184 -59.1769 -12.495
-32.9544 -21.9387 -7.62966
3.45416 -9.41181 -1.93555
46.8375 -10.852 -9.23118
-12.5021 17.0689 -4.04339
4.01014 -9.39385 -1.94883
-35.7586 -21.7208 -7.92057
-20.7419 -33.6949 -7.5262
-14.9483 -43.1337 -8.64016
38.5872 -12.7291 -7.68022
-35.0446 23.5371 -7.89997
-33.0706 -22.8392 -7.55076
-32.0425 -23.4435 -7.45348
-20.3509 -50.4193 -10.2332
-16.2079 -44.0274 -8.70489
3.83598 -9.24421 -1.84838
43.4237 -11.7035 -8.35043
5.78911 -9.76573 -2.08026
-23.3723 -52.9984 -10.6072
-19.5789 -48.5986 -9.4787
-14.27 17.7877 -4.04252
-30.5196 -24.6147 -6.97011
-19.9278 -26.5546 -5.93781
-38.3235 24.1828 -7.99505
-26.1763 20.5535 -5.79219
-33.2477 22.7513 -6.99455
3.93281 -10.1092 -1.88049
4.79231 -8.64946 -1.71823
14.1328 7.58984 -2.76788
14.213 8.15618 -2.80771
-30.1049 21.8919 -6.38086
43.0964 -12.193 -7.62409
42.8721 -11.1036 -7.53812
-30.6776 -24.3638 -6.64622
-20.6233 19.641 -4.7818
-19.4922 -48.4512 -8.82636
14.9999 7.51807 -2.815
-30.9517 21.9121 -6.33433
-22.4416 -53.5065 -9.58966
44.4782 -11.9822 -7.48622
-10.1356 16.0903 -3.06757
-19.7511 -49.0005 -8.42799
-34.2177 -23.6206 -6.55243
-22.2976 19.5904 -4.64726
-24.7333 -15.5055 -4.61044
-23.6526 20.1914 -4.8195
-39.0202 23.6256 -7.06844
-10.9875 16.4444 -3.05214
3.49297 -9.58591 -1.57752
3.89625 -10.3028 -1.70508
-7.43746 15.0841 -2.56738
-30.3203 22.068 -5.7323
-31.1689 -24.0739 -5.98926
-27.4263 -25.6542 -5.68981
43.0733 -11.1978 -6.76397
45.8218 -9.98306 -7.14387
-6.38439 14.2189 -2.33065
9.87202 -5.17465 -1.65436
-32.8558 -23.6973 -6.03324
-24.9369 -63.0561 -10.0589
10.2588 -9.22378 -2.05566
45.9758 -10.6361 -7.00722
-35.919 -23.9108 -6.35102
-30.9033 -25.4903 -5.86053
-12.1646 -40.3086 -6.19675
17.0974 -12.3699 -3.09061
-24.827 20.4409 -4.67327
-23.5656 -52.8027 -8.33384
-7.43867 14.898 -2.37981
-12.445 16.968 -2.99938
6.08508 -11.6253 -1.87449
-13.1238 17.5411 -3.07656
-33.8207 22.8468 -5.73808
6.8103 -11.1242 -1.82261
38.3051 -12.6415 -5.67248
-30.5686 -24.4946 -5.4674
-32.1655 23.116 -5.48719
-19.7124 -47.5114 -7.10602
46.1334 -10.3207 -6.51785
-6.69513 14.8054 -2.21916
-21.4311 -55.9337 -8.1388
7.79484 -9.43309 -1.64198
9.23969 -9.09585 -1.78822
-13.7086 17.5037 -2.99652
13.3295 -10.6314 -2.30662
-21.7425 19.7775 -3.95206
43.0001 -11.1179 -5.89561
45.8444 -10.042 -6.21108
-22.1244 19.4698 -3.8536
-32.0699 -23.9974 -5.23222
-14.5798 17.8536 -2.97989
-33.184 22.1488 -5.17975
-37.6511 -15.8977 -5.27741
7.06424 -10.5059 -1.62403
10.8773 8.90582 -1.80624
-33.1728 -22.8604 -5.15602
-30.6631 22.385 -4.80245
-34.9116 -21.7851 -5.15839
42.8499 -11.0818 -5.53805
6.84211 -10.438 -1.5592
-7.46799 14.9368 -2.0667
-24.454 20.5337 -3.90997
-32.5467 22.9381 -4.91176
6.35099 -12.18 -1.67294
45.793 -9.76998 -5.73444
15.1507 7.93766 -2.05732
-17.2896 -41.8754 -5.46388
7.13545 -10.6048 -1.53869
-20.2722 8.98447 -2.62475
-13.7322 -41.5408 -5.14558
-31.2537 -24.096 -4.61489
-30.7456 -24.5886 -4.6073
42.9443 -11.5036 -5.22448
11.3111 -9.74087 -1.72915
-29.155 22.1069 -4.20968
6.69023 -10.9007 -1.4639
7.5293 -9.26988 -1.36588
11.6684 -9.79543 -1.73013
9.48601 -4.62774 -1.19531
15.1273 7.77359 -1.91764
-10.115 16.1029 -2.1455
-31.3705 22.9229 -4.35283
39.6651 -13.0574 -4.68216
9.41272 -9.07706 -1.4465
-10.8215 16.2299 -2.12005
6.86099 -12.9167 -1.5838
45.9418 -9.9849 -5.09605
10.878 8.93924 -1.51849
16.955 -12.5947 -2.26637
43.149 -11.1911 -4.77576
9.67744 -9.03324 -1.40237
8.42233 -8.5079 -1.25401
-30.3269 -24.2685 -4.04484
-28.653 -57.4724 -6.70017
15.1231 7.58451 -1.72935
-31.1986 -24.0561 -4.04244
-12.5734 17.1403 -2.15816
-12.5014 16.749 -2.07716
10.2723 -9.14567 -1.34718
-19.8535 -50.4212 -5.31337
6.3788 -12.2157 -1.33339
16.82 -12.3058 -2.00288
43.0384 -11.5651 -4.27109
-29.1128 -58.8482 -6.24196
-19.7711 -51.886 -5.27398
-22.7954 19.939 -2.83143
46.6836 -10.3854 -4.46626
9.77584 -9.04196 -1.23255
40.5334 -13.3711 -3.97651
-14.6896 18.0072 -2.10448
-29.2806 -13.3499 -2.93371
-30.6391 -59.7288 -6.18813
16.0193 -11.9903 -1.81986
8.68371 -8.77522 -1.11781
12.9993 -10.7303 -1.46753
46.2605 -10.7225 -4.06725
9.45844 -9.08232 -1.10215
11.028 -9.71159 -1.23496
-33.2749 22.8517 -3.35969
17.0234 -12.4141 -1.74468
-16.2487 -42.2822 -3.62847
14.8228 -11.5905 -1.50013
-11.3831 -31.8678 -2.67129
-29.0859 22.1159 -2.82629
-32.2439 22.7915 -3.04889
-21.6901 -49.5463 -4.17579
-49.4713 26.9248 -4.2661
-20.914 19.6835 -2.08958
-32.4647 22.9636 -2.88263
16.5547 -12.3697 -1.51139
43.0727 -11.5265 -3.24781
-36.8968 -69.8123 -5.69855
14.1024 -11.1579 -1.28668
-14.9653 -39.6991 -2.9284
10.841 -9.68183 -0.995677
-22.8168 19.9784 -2.04876
12.9781 -10.709 -1.12611
18.1615 -13.1724 -1.49531
-22.2405 -51.241 -3.69208
16.2112 -12.262 -1.34206
-14.1063 -39.1112 -2.68962
44.9131 -11.681 -2.90012
-30.1146 -61.0171 -4.15209
36.4961 -8.85411 -2.30436
44.0279 -10.0774 -2.77229
6.12327 -13.2362 -0.871342
31.5574 -20.8816 -2.26345
-9.59905 16.0244 -1.09815
-14.9913 -39.1063 -2.38471
16.791 -12.5488 -1.17663
-9.61421 -12.4632 -0.862695
15.1175 7.75588 -0.919297
14.0272 -11.104 -0.957759
-12.499 16.9382 -1.09984
-15.8683 -39.3308 -2.25226
15.0117 7.89363 -0.83188
-15.6805 -40.0814 -2.11158
-13.8336 17.5344 -1.06849
9.624 -9.07803 -0.606705
-22.8096 -52.3224 -2.58233
12.5516 -10.3186 -0.753112
-15.318 -42.7004 -2.01378
-16.5535 -40.7844 -1.88409
6.93121 -12.7988 -0.645501
-13.3316 -40.6395 -1.82157
-50.795 27.6245 -2.34372
18.5588 -13.3333 -0.927057
16.9882 -12.6274 -0.824058
-38.6344 -74.9856 -3.18134
-17.4077 -45.6487 -1.79881
-32.7709 22.5169 -1.45525
43.5636 -11.2248 -1.61933
-32.4495 -64.5475 -2.41617
-24.5796 -53.8661 -1.99281
20.6375 23.8685 -1.04896
-20.9565 19.6385 -0.936521
8.22288 -14.513 -0.559955
9.4787 -9.04893 -0.424707
11.3832 -10.0214 -0.492839
18.8177 -13.3056 -0.757092
35.4973 -13.3885 -1.25847
22.5525 27.2998 -1.13683
-27.0221 -13.554 -0.94779
-22.3792 19.929 -0.91406
-30.9028 21.8872 -1.18282
-23.6815 -54.4444 -1.83806
-13.3034 -37.6355 -1.22908
-20.4201 -52.0898 -1.69329
-15.9034 -43.1015 -1.31561
-33.4139 -20.2595 -1.04087
11.5327 -9.78372 -0.405021
16.5128 -12.282 -0.542251
-39.853 24.6548 -1.23708
-29.5172 22.4601 -0.918632
-30.0354 22.0126 -0.881372
9.62629 -9.06209 -0.306188
-40.4052 13.9652 -0.945925
-30.1253 -50.4455 -1.32257
21.5602 -14.4197 -0.569768
31.1029 -18.86 -0.820344
14.3382 3.96251 -0.303756
28.8433 50.4037 -1.06981
23.8492 -11.1032 -0.46301
48.3244 -11.1278 -0.921813
-30.1044 -21.634 -0.675984
-28.9559 -28.4403 -0.643343
-18.1875 -44.6278 -0.801694
12.8257 -10.547 -0.273057
18.7496 -13.5485 -0.353221
-28.8722 -12.8329 -0.415008
-32.1971 -24.0954 -0.559453
-31.4282 -63.3565 -0.953524
-26.2983 -55.9711 -0.846277
-33.2886 -22.7343 -0.526266
-29.533 22.4687 -0.437977
17.1897 -12.8369 -0.254484
29.8748 -18.5239 -0.413088
-30.0002 22.0246 -0.415479
-37.232 -20.8038 -0.480209
-18.3565 -42.0997 -0.490559
-11.6079 -34.9393 -0.370073
-31.8061 -56.042 -0.592561
-13.9974 17.7557 -0.174265
-26.3705 -13.2952 -0.238604
-14.6736 17.8872 -0.158972
-22.0572 19.6992 -0.153165
-20.5346 19.261 -0.129017
-10.4742 -13.4654 -0.0598642
14.8783 7.81595 -0.0206811
11.189 -9.83895 -0.00773661
-33.8986 -18.5669 0.0589264
-10.9773 -32.6248 0.112902
17.1455 -12.4569 0.09222
-18.1 -41.5541 0.202527
19.0108 -13.3946 0.123803
7.24882 -12.4607 0.105281
26.3749 -10.8211 0.175687
-53.7001 19.1749 0.542278
16.4236 -12.1717 0.195396
38.1783 -7.79473 0.368113
-28.7138 -8.09657 0.348646
-35.5932 -21.4832 0.458589
-10.9905 -31.4891 0.358629
-52.5408 28.7957 0.730982
-12.3039 -34.0951 0.432537
-9.97935 -30.6746 0.38794
6.40642 -13.095 0.186143
7.27228 -11.2036 0.175682
-27.5083 21.5933 0.534257
11.3971 -9.95364 0.227598
-23.5746 20.1607 0.510869
10.9788 -9.80289 0.231101
13.0841 -10.7714 0.267152
37.0908 -7.93814 0.631483
-33.9019 -22.7136 0.742438
-30.4702 21.7866 0.73422
6.21637 -12.9883 0.279418
7.07851 -11.1397 0.254316
8.07453 -9.475 0.243146
29.333 60.3161 1.45717
7.77533 -9.50045 0.277591
10.1953 -9.23435 0.331928
-28.453 -9.12365 0.719466
-22.7954 19.8971 0.817474
-26.932 21.2361 0.919229
-28.5811 -8.58183 0.78607
9.24427 -8.94834 0.3476
9.68329 -8.99997 0.36041
-24.9918 21.0636 0.886815
25.6863 -5.19644 0.729858
13.0939 -10.7417 0.504638
15.2123 24.7821 0.896487
6.26183 -12.918 0.451707
7.5229 -11.7271 0.437245
-28.1221 -7.93125 0.958381
-12.4545 -19.0692 0.750749
-27.8114 -8.69235 1.00715
16.3097 11.1632 0.714024
-29.3774 -18.204 1.20809
16.2465 28.2219 1.16149
-29.9989 -16.3635 1.2663
23.7975 -4.29729 0.873857
-27.4169 -19.4993 1.24684
-7.27122 -7.92808 0.405889
9.10396 -8.87779 0.472712
12.6068 13.7907 0.72007
27.6455 57.031 2.39924
26.458 56.332 2.34254
-11.4947 -9.09851 0.57797
8.77145 -8.7169 0.489213
-25.089 20.6675 1.31825
22.0576 -2.98946 0.901919
-28.3886 -17.2432 1.36077
9.47057 -8.98002 0.535146
12.6429 14.561 0.829311
6.64564 -12.5856 0.604316
15.1526 19.6884 1.09183
21.3798 29.5313 1.59622
-9.4227 -13.7007 0.731048
-9.889 -15.466 0.815146
7.65596 -11.0344 0.591708
8.6715 -8.76149 0.557085
24.4603 -3.74717 1.11745
-29.4906 -8.59394 1.40178
6.79579 -11.1722 0.60163
-8.24312 -8.11216 0.544209
22.3684 45.1311 2.40924
-28.1548 -17.4007 1.56462
-9.69493 -13.599 0.79507
9.71896 -9.01757 0.624475
16.3733 45.501 2.34027
-29.8492 -13.221 1.55808
-6.74089 -8.2181 0.522964
15.1542 35.2418 1.95704
-29.362 -11.4981 1.58229
-7.57055 -6.96134 0.519743
-6.68104 -7.57365 0.510815
16.6377 30.1392 1.78717
10.6751 12.4827 0.887387
14.4966 19.7274 1.31413
9.39965 -8.97775 0.696452
15.0917 19.6364 1.36717
15.6438 24.1618 1.58463
-26.9508 18.9763 1.80527
-6.95062 -8.16842 0.594727
-25.8836 19.8606 1.81244
6.16381 -13.0146 0.805547
-7.07934 -9.12335 0.658537
10.078 12.5882 0.948138
15.2932 25.7672 1.75025
6.53518 -13.1255 0.843685
14.1556 23.0945 1.59971
-8.23021 -8.08993 0.695265
11.66 11.7406 0.986533
14.943 19.8744 1.49369
-7.36536 -9.97054 0.770973
7.06319 -11.2558 0.809757
11.3383 -9.78002 0.907789
5.91017 -10.8344 0.765734
-7.17693 -6.63367 0.610575
14.7598 20.9379 1.62066
16.282 7.22735 1.15655
-7.02095 -6.13422 0.611615
6.53878 -13.6036 1.00569
9.63202 21.7572 1.60504
10.5385 12.7022 1.12816
13.7792 18.5284 1.61035
12.6489 20.972 1.69453
11.4693 12.1157 1.17086
6.63568 -9.89617 0.843706
11.6166 11.885 1.20258
9.84599 -6.95033 0.857571
12.4904 12.0918 1.27667
9.97519 -8.42398 0.956497
-6.10853 6.62043 0.671709
10.5165 9.26014 1.05249
12.1204 18.1222 1.64029
11.6751 18.6009 1.65468
-6.92622 -7.67725 0.801718
11.054 19.0791 1.69177
9.56325 -9.00386 1.01509
10.6097 14.2419 1.39222
-6.40615 -4.29255 0.60794
9.36466 18.7621 1.67571
10.1227 -6.92692 0.982148
12.5803 11.6721 1.38718
9.93576 19.2914 1.74733
-7.23671 -9.59883 0.979209
6.74982 -9.425 0.943274
12.367 11.8307 1.40226
12.2725 12.0696 1.42931
11.5413 12.0633 1.38208
-5.02488 -11.4687 1.05353
10.4323 13.0522 1.4217
-6.94581 -6.0695 0.794343
-6.80175 -6.68088 0.805205
-5.18615 -11.3746 1.06334
-7.28001 -7.72499 0.914039
9.3209 -7.28442 1.02208
-7.10023 -8.03464 0.938306
-6.99819 -7.66984 0.913055
9.49669 12.6763 1.40424
-6.93157 -8.34735 0.96933
10.8988 9.14485 1.29659
10.5898 13.6392 1.56013
10.6066 9.31537 1.29221
7.83167 14.2164 1.49302
-6.48077 -8.114 0.951446
-6.88039 -8.98891 1.04484
11.3016 10.9001 1.44875
11.3375 9.25024 1.36924
10.9688 10.9028 1.44975
6.60348 15.2601 1.5627
-11.3703 2.91291 1.10007
-6.35179 -4.16464 0.711318
-6.79161 -6.28084 0.857708
9.54871 13.4666 1.59258
-5.98231 6.5003 0.869017
7.98532 -6.62992 1.01152
8.03707 13.4012 1.55235
-7.04968 -7.59708 1.04404
9.40474 11.7596 1.51887
7.09892 12.6047 1.46831
7.16218 13.195 1.53075
9.6079 9.16379 1.37411
5.96501 14.2203 1.59866
9.24587 12.5752 1.62742
-6.09817 -4.45013 0.79105
6.06142 13.9284 1.60038
6.32307 13.8506 1.60101
-6.95693 -4.41914 0.881296
8.83622 9.08886 1.35147
9.21821 10.2694 1.50092
7.40881 11.1247 1.45274
5.90311 11.6273 1.41798
-6.28418 -7.39268 1.06047
10.3258 6.48951 1.34941
9.05408 8.19476 1.34621
7.39903 11.8272 1.54067
6.93047 11.7793 1.51123
5.4368 12.0733 1.47353
4.94804 12.2999 1.48368
4.79875 13.9563 1.62413
9.92654 7.09756 1.36263
8.82959 9.38584 1.44005
5.45839 11.6796 1.45213
-6.82517 -6.70743 1.06499
6.94212 10.8358 1.44986
4.40466 13.4376 1.5988
9.7838 -3.20607 1.14799
-6.09366 -5.40469 0.942824
7.30803 -6.13575 1.08319
10.4694 5.74437 1.36969
-7.36222 -0.983244 0.850702
-6.24602 -5.34638 0.946174
5.25226 -5.56112 0.88128
5.1437 11.7985 1.49556
-6.86948 -4.5502 0.954592
4.46145 -7.27479 0.986867
10.4586 5.17385 1.36932
8.9435 7.93786 1.40387
-5.99317 -4.36173 0.863616
-6.47351 -5.26343 0.985441
4.1022 -7.88553 1.057
4.97083 -5.85518 0.921471
10.2138 4.77586 1.35169
8.57883 8.33038 1.4485
5.35088 11.6577 1.5662
9.0934 6.29953 1.35452
8.06936 8.39799 1.45909
-6.47684 -5.73526 1.07679
3.71357 -7.58736 1.05792
8.725 6.72738 1.38553
-6.45565 -5.33433 1.05969
9.13759 6.04409 1.39882
8.23296 7.18386 1.39419
8.16604 7.55559 1.42064
5.78369 -5.35168 1.01167
-6.95834 -4.43443 1.0589
8.15757 8.05435 1.48708
-7.3389 -1.03976 0.957279
-6.91 -2.82103 0.9744
9.01201 4.11772 1.29765
8.44995 6.66641 1.41305
5.00367 -6.03441 1.03041
4.92203 -6.19956 1.0482
6.88119 -4.28955 1.07938
-7.11779 -1.7145 0.981121
-6.99547 -2.21551 0.980694
-6.01674 -4.41597 0.997542
8.18184 6.69679 1.43351
8.64619 4.45835 1.32641
8.67157 5.19113 1.38055
8.07789 7.18221 1.47142
-6.79591 -3.72662 1.05213
8.89785 4.17667 1.34555
8.30733 5.86337 1.39256
-6.38745 -4.32191 1.05508
-5.94904 -4.51865 1.02003
5.41192 9.12008 1.46513
3.69415 10.2205 1.50986
-7.3492 -1.09022 1.02848
-6.89096 -3.91951 1.09993
4.95282 -5.54797 1.02783
5.23312 -5.40331 1.044
7.47831 -3.54401 1.15735
3.43775 10.3107 1.52364
8.43862 4.61852 1.36093
7.38946 -3.68535 1.17144
7.60249 -3.34171 1.184
7.77841 -3.31274 1.19968
8.97026 2.82451 1.35372
4.83744 -5.63969 1.06801
7.36758 -2.85844 1.15058
-6.94488 -3.29368 1.12007
7.93555 -2.78573 1.22627
8.68697 -1.82476 1.30303
5.05747 8.6593 1.48064
2.99675 9.5799 1.49408
7.74882 -1.89199 1.17562
7.26781 5.78809 1.38449
3.50412 9.69466 1.52449
3.23478 9.94552 1.55075
-7.35138 -1.0407 1.10046
-7.05915 -2.01867 1.09385
6.98795 6.32589 1.42331
-6.25268 -2.26788 0.997827
-7.22264 -1.37197 1.1094
7.97625 4.84016 1.42154
5.75296 7.41318 1.42405
5.33662 7.69488 1.42554
5.10261 8.08649 1.446
6.77024 -3.2308 1.13452
7.25977 -3.13053 1.21078
7.65186 -2.76119 1.23969
-7.2974 -0.731024 1.11956
-7.08159 -1.95015 1.13333
6.79999 -3.09782 1.15564
3.75152 -5.7892 1.06675
-7.03776 -2.07148 1.1498
-7.32738 -1.09011 1.16281
7.39518 4.79673 1.39234
-7.18132 -1.44004 1.16492
-7.25361 -1.29788 1.18193
-7.08182 -2.01455 1.19698
7.10225 4.78513 1.39813
-7.08538 -1.94111 1.20645
7.04216 4.88773 1.42405
6.64607 4.87484 1.37566
5.2404 6.28419 1.36341
4.71122 7.23076 1.44174
3.86148 8.01512 1.47941
-7.23159 -1.37016 1.22829
2.79145 -5.77498 1.08131
7.17305 4.44794 1.42204
6.54607 5.26454 1.41739
3.87499 -5.36715 1.11614
3.93742 -5.02196 1.08033
-7.25434 -1.24933 1.24833
-6.58596 -2.6203 1.20227
7.44151 2.85743 1.35214
7.05774 3.90659 1.37485
-6.40298 -2.74812 1.18517
6.80199 4.11527 1.36496
5.68892 -3.52364 1.15185
-7.37707 -1.03694 1.28788
-6.3456 -2.27637 1.15868
5.54111 -3.65175 1.14395
5.32384 -3.7775 1.14428
3.62932 7.22734 1.4232
-6.78507 -1.73147 1.22941
4.48219 -4.46962 1.11403
-7.07483 -0.912404 1.27033
4.72844 -4.46082 1.15043
4.36039 6.5408 1.40316
6.6095 3.48629 1.34966
6.65024 3.69625 1.367
-6.4287 -1.49759 1.18683
3.60934 -5.32709 1.17059
5.10672 5.6451 1.39414
-6.14493 -2.17963 1.1946
3.41259 -5.15779 1.15022
3.41686 6.83004 1.42941
-1.69779 -5.78158 1.1444
6.46426 2.74024 1.3363
-2.14296 -5.7265 1.17523
6.32814 2.8045 1.33276
-2.78676 -5.37486 1.18618
-3.49861 5.31192 1.37681
4.48819 3.90881 1.3587
4.15135 -2.87891 1.17725
4.63104 -2.18741 1.23771
4.21335 3.30273 1.32649
3.70632 -2.9294 1.22369
4.02865 2.58134 1.33711
-1.44563 -4.12376 1.22308
-2.32363 -3.58324 1.2132
3.8691 2.37008 1.31494
-2.84973 3.51114 1.35455
-2.48343 -2.91948 1.19003
-2.38095 -2.9408 1.19504
1.83731 -2.8035 1.17896
1.8604 -2.78204 1.20901
1.98654 -2.51976 1.19562
-2.03765 2.79765 1.31494
2.80223 -0.555345 1.25893
2.78191 -0.336645 1.24083
-2.09214 -1.62109 1.21356
-2.07975 -1.45289 1.23853
-1.86524 -1.79837 1.2843
-1.99718 -1.13262 1.20486
-1.98861 -1.07147 1.23165
-1.94827 -0.881209 1.23176
-1.93246 -0.709041 1.22193
-1.9313 -0.702114 1.24912
-1.90744 -0.470081 1.22177
-1.87274 -0.34601 1.2189
-1.85768 -0.401525 1.22568
2.37463 -19.6369 -9.98118
-7.56801 -8.93498 0.462956
8.04891 -8.83285 -10.5065
8.29362 -8.65987 -10.5402
8.24506 -8.31958 -9.9206
6.98411 -11.9999 -11.45
8.55173 -9.01035 -9.78085
7.87987 -8.97017 -9.16872
5.87005 -12.8385 -10.7624
9.47062 -8.87433 -9.78871
6.16872 -14.1386 -11.6115
8.32117 -8.71401 -9.05839
8.05068 -9.20593 -9.1447
7.32025 -9.28087 -8.80601
5.93199 -14.2003 -11.2274
7.75008 -9.34357 -8.75897
7.88726 -9.15288 -8.7029
7.15577 -10.6193 -9.11628
6.84703 -11.1151 -9.2539
10.1065 -9.24111 -9.6173
6.56536 -11.2178 -8.89746
8.06527 -8.66194 -7.88082
7.39067 -9.31815 -7.90302
8.55203 -8.71753 -8.11684
7.75435 -9.51399 -8.0628
6.515 -12.8265 -9.39314
7.96715 -9.21944 -7.94665
5.01335 -16.0663 -10.8243
-0.477662 13.9083 -8.89889
7.75983 -9.28232 -7.75768
7.36867 -10.912 -8.38277
8.41409 -8.60283 -7.66602
10.9376 -9.67538 -9.26176
9.02927 -8.85746 -7.93217
11.8418 -10.0977 -9.75234
8.10823 -8.5731 -7.25921
4.0459 -16.8512 -10.621
4.25935 -15.407 -9.81431
7.87951 -9.40011 -7.35013
3.95795 -15.6413 -9.6207
11.5521 -9.88951 -9.1071
6.89499 -11.1254 -7.7711
7.80105 -8.85176 -6.98904
5.50865 -14.0472 -8.91404
6.5165 -12.7588 -8.38347
8.39765 -8.63068 -7.01721
9.73827 -9.1281 -7.7823
2.79992 -11.8296 -6.96747
5.5095 -13.9724 -8.50289
9.64602 -9.15371 -7.51675
6.64621 -11.1164 -7.29192
3.34223 -20.6416 -11.7193
8.92078 -8.98099 -7.09566
12.2721 -10.2957 -8.97346
6.85297 -11.052 -7.24393
4.70257 -14.6671 -8.51141
6.25108 -12.6789 -7.77555
0.892161 18.6168 -10.1471
14.7378 7.78812 -9.0583
4.22131 -14.2965 -8.05006
14.8451 -11.7468 -10.2035
15.0963 7.50214 -8.98074
14.1232 7.78196 -8.56934
4.78198 -14.8938 -8.31093
12.1589 -10.2134 -8.35578
1.8116 -20.4271 -10.5506
11.4851 -9.91142 -7.77154
2.07941 -20.1652 -10.2872
14.0723 -11.1697 -9.08665
-0.000434216 14.2647 -7.16043
-7.19744 14.9552 -8.31578
10.655 -9.65536 -7.22455
7.55011 -9.46964 -6.03352
17.8029 5.54061 -9.09609
-8.38305 15.8873 -8.6799
11.7176 -9.8408 -7.40569
10.5542 -9.63915 -6.86305
14.9037 -11.4258 -9.05719
16.9028 16.0134 -11.0638
7.52566 -11.1224 -6.39753
15.1365 7.47926 -7.92294
14.0284 -11.108 -8.36238
-11.7464 16.8181 -9.3973
15.9727 -12.1024 -9.15435
9.81287 -2.46044 -4.64745
-9.07439 -1.64971 -4.194
18.9939 18.3298 -11.9125
3.92648 -9.12899 -4.51005
-10.0434 16.4035 -8.63594
-5.31457 4.41905 -3.10744
6.89655 -11.3531 -5.97942
9.47522 -9.13197 -5.80362
16.1556 7.37018 -7.83509
-6.53087 14.8271 -7.07481
1.50296 -18.7418 -8.13186
-10.9787 16.7017 -8.60406
9.61744 -3.38295 -4.36699
7.05605 -11.1055 -5.56153
15.9539 -12.0596 -8.37081
14.7712 7.80872 -7.00933
19.0395 19.8105 -11.4854
1.01735 -22.4783 -9.36834
-4.47744 13.6861 -5.93206
-9.88944 -1.10613 -4.12396
14.2042 7.84355 -6.62622
20.8175 22.6463 -12.5407
-12.9763 2.43179 -5.37785
15.2414 7.24184 -6.82557
-5.1446 14.0909 -6.03181
3.65045 -8.83717 -3.80545
12.474 -10.3374 -6.34608
14.0507 -11.0941 -6.99577
19.6232 21.9643 -11.4274
18.9814 5.85333 -7.70308
1.54386 19.3735 -7.53702
-8.57542 15.4487 -6.8105
11.4709 -10.1136 -5.88183
19.5756 22.6974 -11.5478
0.6797 15.4211 -5.91231
-1.65163 12.646 -4.90588
2.71776 -12.2573 -4.81684
-8.73687 -1.24784 -3.35447
0.700073 -23.4391 -8.84939
15.3138 -11.7356 -7.27562
9.52565 -3.47585 -3.82525
-14.2985 17.6258 -8.45805
-7.8677 -3.495 -3.15752
1.09475 -10.439 -3.86059
7.06773 -11.2989 -4.87323
14.317 7.9944 -5.92107
-8.26658 -2.83822 -3.14287
0.787378 15.3407 -5.47828
-3.88985 13.1462 -4.84907
5.76676 -11.0421 -4.38347
15.9753 -12.073 -7.09161
19.2617 5.9491 -7.09308
2.13741 20.9158 -7.37549
22.1005 26.7192 -12.0528
-14.57 17.9845 -7.94407
2.98532 -13.3958 -4.72323
-8.7133 15.7378 -6.1466
18.6729 -13.2256 -7.84197
-4.95196 14.2207 -5.11946
1.3524 -22.0648 -7.3263
1.76905 19.7821 -6.56261
1.44852 -10.3154 -3.44266
39.9492 -20.4211 -14.7226
6.19556 -10.0899 -3.78972
17.739 -12.5254 -6.9546
2.13205 20.8644 -6.67639
-13.0722 17.4509 -6.87419
1.43934 -22.4889 -7.0224
-4.22569 14.4555 -4.67931
-10.7199 16.2416 -5.89737
-2.68561 -27.3577 -8.35364
3.07436 -9.4997 -3.03427
0.787873 -23.9758 -7.21534
19.3356 -13.7244 -7.03523
17.7565 5.61753 -5.46544
-7.72252 14.9478 -4.89741
4.24678 -10.5371 -3.30144
3.6384 -10.6187 -3.19433
4.26388 -11.0023 -3.31192
-13.0142 17.3946 -6.04269
-9.08115 15.523 -4.89204
-13.1507 1.97134 -3.64609
-16.5305 18.9918 -6.83653
26.6974 -17.5752 -8.65992
-3.79934 -27.1008 -7.34228
3.79575 -9.17582 -2.65665
-9.58396 15.9307 -4.9482
48.3093 -14.1053 -13.3443
10.596 -9.45054 -3.75813
-6.29754 14.5786 -4.14787
-14.0944 17.6707 -5.93121
-7.72328 -36.5517 -9.73393
4.97943 -9.61218 -2.80181
6.59118 -10.5481 -3.2086
-7.03734 14.9342 -4.19591
-10.3202 16.0733 -4.88028
-9.51248 -37.7016 -9.67257
-8.66707 -37.421 -9.38284
11.0114 -9.70697 -3.60931
-7.78333 15.1047 -4.11992
-11.4596 16.6559 -4.89382
14.7422 7.78741 -3.95822
4.06005 -9.28253 -2.39776
15.3495 7.60199 -4.03766
3.75947 -8.93844 -2.27933
-6.32772 -31.5357 -7.45013
5.65045 -9.92639 -2.64714
45.6756 -11.0534 -10.922
-12.516 17.0483 -4.86808
15.001 7.68262 -3.814
44.672 -9.66383 -10.3533
-9.56106 15.9255 -4.15732
3.73113 -9.29418 -2.1787
43.815 -11.2402 -9.87207
15.2625 7.57183 -3.64937
-10.3885 16.2159 -4.12476
-21.3487 -33.5625 -8.5467
4.84319 -9.79576 -2.3573
45.9859 -10.7675 -10.1045
-14.4419 17.8929 -4.83768
-31.5924 -23.318 -8.32342
42.5155 -14.2254 -9.48389
14.9878 7.91998 -3.53627
-34.5027 23.3325 -8.5171
-8.05927 -32.9671 -6.87497
3.97691 -11.5775 -2.46041
45.4917 -9.81525 -9.4652
11.8593 -9.81667 -3.08726
43.8397 -11.2858 -9.0204
-26.3429 19.879 -6.55061
6.17746 -10.3395 -2.39774
46.9172 -10.9715 -9.41018
-12.4924 17.0449 -4.08382
-26.2045 20.5362 -6.46947
16.2437 12.2872 -3.89414
-6.7041 14.7566 -3.1109
-32.4651 -23.4823 -7.66976
-31.0006 -24.2755 -7.56745
-34.7265 23.1404 -7.8583
-32.984 -21.7583 -7.4677
18.1886 5.71841 -3.55937
-33.5157 -20.2223 -7.31071
-14.4285 -41.5999 -8.20472
3.79073 -9.8732 -1.99111
-23.1997 -57.7596 -11.5788
-16.0974 -43.368 -8.46327
3.9938 -9.67969 -1.88858
13.1652 -10.2873 -3.01294
46.3709 -10.3189 -8.53261
-14.3962 17.855 -4.09809
-26.3458 20.6634 -5.91144
15.2298 8.062 -3.00222
-29.6821 -25.8658 -6.86284
43.7005 -11.1938 -7.74464
-7.7379 14.9057 -2.84454
-9.48527 17.4681 -3.35746
45.6202 -10.7392 -7.92469
-29.9672 21.8281 -6.24182
-29.7104 -22.8575 -6.26581
-20.3275 19.4365 -4.67914
-31.5201 22.2604 -6.43768
16.0709 -11.9909 -3.28556
-10.0878 16.0154 -3.01097
-42.1019 24.7742 -7.75044
-31.0405 -23.3188 -6.2158
-32.8391 -22.6513 -6.28371
3.45054 -9.54277 -1.58678
-23.2205 19.836 -4.71651
17.0857 -12.0786 -3.24086
-10.9095 16.3275 -2.98315
47.0685 -11.0312 -7.33716
-21.8181 -50.5623 -8.32262
-28.761 21.5702 -5.37566
-37.3462 23.2864 -6.53283
-31.0502 -24.1023 -5.86465
45.6115 -9.77434 -6.94527
-33.0902 -23.9311 -5.96736
-48.3455 26.9935 -7.96202
-34.8494 -23.245 -6.03029
6.79564 -13.0409 -2.13493
-35.5489 -20.6612 -5.81954
-6.74787 14.8769 -2.26819
-12.8085 17.2906 -2.9938
-31.3454 22.5675 -5.39894
-23.4693 -52.2675 -7.90188
-15.4119 -45.0554 -6.5503
37.3772 -12.4302 -5.40169
-22.6446 19.8993 -4.01128
-31.6697 -23.7169 -5.16595
-30.059 -24.6594 -5.14078
-33.2676 -22.9115 -5.17463
7.48577 -9.48157 -1.56198
43.7592 -11.2015 -5.79556
-32.6619 22.2259 -5.02311
-29.3486 -15.6607 -4.24072
6.06285 -7.85183 -1.26714
45.7768 -10.7595 -5.9613
-30.3085 22.2752 -4.69384
14.6363 -11.403 -2.27928
-29.271 22.0463 -4.43318
-31.7789 22.465 -4.68597
-10.1065 16.0742 -2.19358
-30.9597 -22.2666 -4.48703
-21.9266 -52.7842 -6.65034
13.0958 -10.5918 -1.97152
36.4512 -12.0452 -4.44172
6.38422 -10.4111 -1.40359
11.2712 -9.76726 -1.68027
16.6141 -12.37 -2.33387
-10.8086 16.2072 -2.15691
6.82207 -12.7109 -1.58057
11.6843 -9.75764 -1.68573
43.5946 -11.1791 -4.9406
-37.9809 23.6818 -4.80425
45.8433 -10.7124 -5.0685
15.0551 -11.5606 -2.01923
-12.6584 17.1018 -2.18541
14.9126 7.89314 -1.68685
14.1286 -11.1457 -1.79746
-13.6878 17.5063 -2.1554
6.46162 -12.3829 -1.34432
9.45849 -8.97178 -1.26
17.1961 -12.574 -2.07883
-28.4953 -13.6165 -2.97544
-14.642 17.93 -2.15801
-34.8945 -67.9811 -7.11356
-33.3726 -20.8827 -3.48616
16.3011 -12.2149 -1.83282
39.2594 -13.0631 -3.70268
11.1911 -9.94799 -1.23731
44.0228 -11.2518 -3.78926
-15.6081 -40.6169 -3.49549
-37.4609 -73.2499 -6.40926
17.8135 -12.9807 -1.74049
-29.4557 22.2932 -2.82605
7.48854 -9.22473 -0.91965
-32.0469 22.6852 -2.91723
-16.0078 -39.6005 -3.1926
-34.7811 -65.4496 -5.27128
-33.6143 -67.3241 -5.15511
12.6724 -10.5462 -1.10961
17.2507 -12.5644 -1.44246
-38.4073 23.91 -2.95879
44.2919 -11.3399 -3.0007
-28.3026 -13.3086 -1.87327
-37.8419 -73.1093 -4.98554
14.6414 -11.4144 -1.11849
31.7726 -20.9304 -2.07855
31.7226 -19.9935 -2.04903
15.4923 7.65136 -0.897026
14.9258 7.9146 -0.869175
-12.5781 17.1648 -1.08011
-23.5835 -52.042 -2.93556
-13.0464 -35.5103 -1.87528
-26.7889 -15.4718 -1.46841
-39.6146 -74.6604 -4.12726
9.71466 -9.14939 -0.667431
13.5642 -10.787 -0.851095
16.1482 10.2728 -0.904791
16.4643 11.54 -0.936791
6.89927 -12.6541 -0.685228
-19.8755 -5.86459 -0.890046
-28.6992 -51.145 -2.58746
10.3421 -13.9625 -0.709996
18.259 -13.1675 -0.919783
43.4777 -11.106 -1.7853
-9.32895 -12.3386 -0.596814
45.0644 -10.5527 -1.81952
22.7388 27.337 -1.21413
-31.9764 21.8591 -1.34327
-35.8651 -20.1116 -1.33876
-17.5359 -43.7038 -1.51282
16.6525 -12.4237 -0.677701
14.495 3.92622 -0.443223
-24.6141 -56.5605 -1.84923
-22.332 19.8934 -0.855053
-11.9161 -36.133 -1.02286
43.8975 -9.32527 -1.25451
-40.9144 25.4493 -1.30367
-53.0409 19.0729 -1.35143
44.6215 -10.3617 -0.984859
-30.2909 22.8925 -0.759763
-30.0038 9.54351 -0.659008
33.1054 57.9629 -1.2291
-29.6036 21.8486 -0.705544
13.0773 -10.7153 -0.29283
-34.0722 -21.2039 -0.622146
-29.1225 -58.5686 -0.972849
17.6783 -12.7492 -0.316471
-12.171 -36.7958 -0.499715
-13.9575 17.7185 -0.230525
-19.3381 -44.4432 -0.526175
30.8145 -19.3003 -0.327426
-22.326 19.9199 -0.203806
-9.85827 -12.6527 -0.0484947
7.07765 -11.8064 -0.0237409
14.7493 7.71312 0.000199686
-35.0498 -21.643 0.219527
-23.1993 -39.6508 0.339189
-51.9694 28.4694 0.604551
6.74715 -11.9714 0.142411
8.04958 -9.15239 0.121858
-40.4471 -21.5038 0.503539
-11.1677 -31.6263 0.374705
11.1748 -9.74132 0.194453
-22.7158 19.4096 0.392514
-12.2557 -19.0154 0.329092
-30.5862 21.7651 0.667878
-34.6965 -23.261 0.747724
-34.1872 -25.2556 0.741856
10.7029 -9.61839 0.234896
7.83399 -9.65667 0.267258
7.93798 -9.26511 0.263307
-68.9398 23.8725 1.70417
18.3007 -13.2846 0.550878
-28.4483 -8.54657 0.794828
-27.4525 21.5283 1.00415
11.6636 -9.993 0.419036
17.4032 -7.54385 0.54025
-24.5462 20.8183 0.957563
-7.88202 -9.24286 0.386585
12.8595 13.9813 0.675273
-27.4886 -19.5564 1.16506
6.2033 -12.7815 0.499886
8.95506 -8.81206 0.429382
24.7837 -4.39183 0.842018
18.7994 17.9532 0.938384
14.1599 24.5125 1.0642
-55.5836 18.2703 2.10544
24.5881 -4.77649 0.949143
-25.0196 20.4382 1.2205
9.42894 -8.97004 0.503217
22.5714 -3.10974 0.860951
12.3616 14.3174 0.774132
15.0075 19.3913 1.0039
6.57561 -12.4675 0.578595
18.6554 43.1193 1.96113
7.70015 -11.0962 0.569417
-7.5382 -7.42038 0.467294
-8.24735 -11.4104 0.629181
-29.2954 -11.597 1.50056
16.5362 10.7349 0.982469
-7.71447 -7.17792 0.504591
15.5936 24.2262 1.48857
-6.94268 -8.17294 0.5895
14.7825 20.2426 1.37352
-25.6647 19.7627 1.79029
14.7032 23.9454 1.62709
-7.11096 -9.16655 0.662985
6.88813 -13.6503 0.877614
10.0027 12.5821 0.951338
14.9328 19.8401 1.55686
15.3565 27.3309 1.93038
10.6628 29.9038 2.01943
-7.28656 -9.94522 0.788792
9.69763 22.1003 1.62013
11.509 10.1238 1.09257
11.5588 12.2232 1.18761
13.8619 16.0177 1.516
8.25225 -12.7208 1.07043
10.8338 9.04351 1.03837
13.0266 14.6106 1.46478
-14.2682 8.41422 1.252
-11.0923 2.08964 0.853509
12.5812 16.3772 1.60288
11.7457 18.7193 1.7164
10.1296 -6.93226 0.958509
-7.65944 -8.10255 0.891979
12.8523 11.634 1.41416
11.9474 11.6881 1.38755
-7.00184 -6.16054 0.757757
-7.05215 -6.89585 0.818087
-7.03095 -8.90357 0.977349
11.5589 12.0657 1.44099
9.10613 -7.15602 1.0084
10.7024 9.42785 1.29671
-11.3585 2.90851 1.07707
