ply
format ascii 1.0 
element vertex 1861
comment /media/mkaihara/Seagate Backup Plus Drive/model_iterations/model_143.ply
property float32 x 
property float32 y 
property float32 z 
end_header 
12.3423 18.7383 1.51494
12.8495 20.5111 1.62944
9.02484 22.4464 1.68432
-7.11984 -8.32825 0.760482
-7.12201 -7.64052 0.742563
9.49174 -8.83078 0.920207
11.2566 11.8341 1.2101
11.6463 16.5559 1.52316
12.4706 11.4085 1.29956
12.7438 11.3508 1.32994
12.1525 11.4591 1.30092
11.9312 11.5857 1.31721
-7.2432 -9.41184 0.941429
11.4978 11.8326 1.32884
-7.38215 -6.1509 0.75985
-7.07886 -8.12157 0.867406
-6.77907 -8.32817 0.865059
-7.28821 -6.26212 0.765819
9.23041 -7.56391 0.989016
-7.38237 -8.12812 0.914471
-7.41759 -9.92924 1.03573
-7.30694 -7.89553 0.90491
9.17025 -6.94745 0.974163
11.5406 11.8091 1.40428
-6.36757 -4.34052 0.660133
-7.09718 -8.38327 0.946691
-6.8527 -8.43379 0.965491
8.97117 -6.84215 1.00647
8.19524 -7.11622 0.975933
5.92856 -5.90325 0.772517
10.7278 11.0047 1.47251
-7.04188 -5.74109 0.867691
10.6944 9.2406 1.37394
-7.17605 -5.72591 0.895644
7.72344 -6.55847 0.997102
10.9828 9.75523 1.45252
10.8434 9.02604 1.41739
9.50466 11.4351 1.48934
-6.51615 -6.51134 0.923651
-6.88154 -4.52144 0.834132
-6.99016 -7.33004 1.02641
10.7034 9.02533 1.44869
10.0583 9.39014 1.41093
9.22771 10.0389 1.42495
-6.86616 -4.46178 0.863028
-7.15074 -5.68323 0.976999
-7.12197 -5.72305 0.975825
-6.92683 -4.63517 0.91011
-7.07262 -5.51222 0.975011
8.62468 10.1978 1.48402
-6.90489 -3.43411 0.864553
-6.97831 -4.35372 0.91756
-6.85118 -3.49414 0.864118
-6.89444 -3.57864 0.871194
-6.90074 -4.23768 0.911228
-6.92194 -4.40879 0.92656
-6.92192 -4.49461 0.929277
8.68965 8.75709 1.39733
-6.95956 -3.85749 0.912915
-6.924 -4.07509 0.91069
-6.92348 -4.15888 0.918406
5.84493 -5.77177 0.949325
-6.9363 -3.41981 0.901388
-6.94752 -4.37702 0.953069
-6.91703 -4.44864 0.954689
-6.9107 -2.83277 0.876033
-6.89201 -3.62068 0.911689
-6.97714 -4.13922 0.954829
-6.92344 -4.20803 0.949509
8.46627 8.00771 1.38285
-6.92639 -2.98589 0.910166
-6.90448 -3.9742 0.956959
-6.88754 -3.65975 0.947199
-6.93144 -4.13101 0.988369
-6.91724 -4.31491 0.999666
-6.47723 -5.36543 1.02842
5.99978 -5.94885 1.03239
-6.91599 -3.75605 0.975947
-6.91429 -3.92093 0.987521
-7.02074 -4.74633 1.05742
-6.94385 -4.39311 1.03717
-6.87595 -3.48224 0.976682
-7.08858 -2.17302 0.947774
-6.89323 -3.08587 0.969098
-6.91197 -3.16356 0.978289
-6.15202 -5.49267 1.07485
-6.93315 -3.23406 1.00062
-6.38687 -4.36729 1.01953
-6.80483 -3.78824 1.03233
-6.89215 -4.18926 1.0704
-7.05962 -2.13774 0.985619
-7.00958 -2.33859 0.994505
-6.91552 -3.27009 1.02211
-6.91473 -3.54326 1.04038
-6.92245 -3.39728 1.05355
-7.0409 -2.16389 1.02388
-6.93882 -3.18312 1.05724
-6.9086 -3.26682 1.05678
-6.85609 -3.65366 1.07257
-6.91229 -2.94873 1.05066
-6.87752 -3.41422 1.07191
-6.89282 -3.75851 1.10464
-6.9422 -3.23961 1.08364
-6.00898 -4.49478 1.06794
-6.89669 -3.58841 1.11682
7.65557 6.3143 1.43442
5.16584 8.28353 1.4121
-6.90039 -3.49655 1.12024
7.29142 -3.51834 1.17512
-6.8924 -3.28273 1.11414
-6.88885 -3.39457 1.12023
-6.87257 -3.20381 1.11581
-7.17519 -1.75577 1.08907
-6.9242 -2.94521 1.11777
-6.92966 -3.03269 1.12225
7.09863 5.58846 1.39884
-6.38301 -2.28715 1.05216
7.03393 5.15222 1.39149
-7.02228 -2.41358 1.19486
-6.46911 -2.82316 1.15158
3.76128 7.88218 1.43959
-6.3165 -2.26378 1.1142
-6.48586 -2.29213 1.17211
-6.1542 -2.28218 1.14358
2.54081 7.34433 1.4737
7.81991 -8.50933 -10.1586
7.94741 -8.79216 -10.373
7.6797 -8.73616 -10.1218
8.17735 -8.30925 -9.98692
6.93094 -11.4491 -10.967
8.12966 -8.25687 -9.50796
6.93429 -11.8631 -11.1576
8.00773 -8.39386 -9.22026
7.95227 -9.14529 -9.43623
8.22201 -8.68116 -9.29768
7.84167 -8.96707 -9.08596
8.28165 -8.68994 -9.10932
6.31251 -13.9574 -11.4346
7.47279 -9.40058 -8.97597
7.90965 -9.0631 -8.90647
6.20868 -14.3186 -11.4959
6.25002 -12.8413 -10.4961
9.20697 -8.8114 -9.33264
9.19252 -8.9677 -9.34725
5.94752 -12.6985 -10.176
5.88492 -13.0698 -10.2646
9.33953 -8.96853 -9.26535
9.19656 -9.01087 -9.14618
6.89926 -11.1717 -9.31565
5.59859 -12.9265 -9.96966
6.49481 -10.9753 -8.77258
11.721 -9.94619 -10.3204
8.22937 -8.61273 -7.88449
7.42067 -9.25753 -7.82553
8.23278 -8.7676 -7.93464
9.14564 -8.77048 -8.34346
7.5944 -9.31215 -7.84944
12.0604 -10.0728 -10.2278
4.66038 -15.7813 -10.6403
9.16669 -8.80861 -8.1758
5.00145 -15.3315 -10.3973
7.74667 -9.28966 -7.74301
8.2392 -8.46035 -7.55172
0.355827 15.6979 -10.0139
4.73233 -15.1155 -10.0851
10.8617 -9.55259 -9.19943
7.90554 -9.06548 -7.62411
8.15136 -8.48434 -7.42559
4.71304 -15.7465 -10.3271
-0.390384 13.62 -8.51983
8.82452 -8.79075 -7.69277
4.22405 -18.6787 -11.8274
7.90877 -9.04521 -7.41873
8.25784 -8.56069 -7.34537
4.2571 -15.3954 -9.784
8.20981 -8.63111 -7.28413
4.24467 -18.1451 -11.3663
0.158242 15.0634 -9.17507
3.7529 -17.836 -11.0322
4.17117 -15.7489 -9.85208
7.03902 -10.8085 -7.74207
8.04225 -9.19888 -7.34021
4.19436 -16.5712 -10.1882
8.28186 -8.65742 -7.13831
9.39442 -8.98619 -7.74821
7.00701 -11.0507 -7.78298
7.71971 -9.25303 -7.15327
9.0471 -8.80101 -7.47999
7.98867 -9.15397 -7.11055
8.56832 -8.76209 -7.15414
9.68066 -9.13848 -7.76035
6.75956 -13.3088 -8.61827
9.22915 -8.96121 -7.43003
5.78404 -13.3454 -8.39553
6.87664 -10.8549 -7.40698
9.54197 -9.09181 -7.50595
11.9037 -10.2095 -8.8549
10.7654 -9.46197 -8.06376
6.8745 -11.0919 -7.32588
9.12593 -9.07128 -7.21641
9.24098 -9.00907 -7.21696
12.5781 -10.5001 -9.15293
4.64678 -14.3515 -8.43326
10.1794 -9.36768 -7.73393
8.5166 -8.69521 -6.77555
2.74412 -17.3233 -9.6762
14.698 7.51691 -9.02493
2.71172 -19.9016 -10.9252
2.42523 -8.79017 -4.94583
2.97445 -19.8954 -10.8704
14.6684 7.63962 -8.88065
2.36428 -20.2163 -10.8097
10.9324 -9.58812 -7.73646
9.76404 -9.01782 -7.03962
14.8587 7.45582 -8.79722
2.36084 -8.80847 -4.82003
1.6578 -19.8482 -10.2879
2.38778 -20.8762 -10.778
13.8825 -11.0924 -9.10721
-9.3179 -2.61149 -4.92644
11.3105 -9.79504 -7.60011
2.17326 -20.2977 -10.2882
0.855298 17.4835 -8.70432
10.9656 -9.62055 -7.27328
-8.88763 -1.95504 -4.46425
2.21272 -20.2452 -9.99997
3.8486 -9.18101 -4.89023
11.2302 -9.63676 -7.24558
1.99662 -19.9219 -9.78665
-8.48151 16.2802 -8.90361
2.50279 -11.2005 -5.49165
1.9956 -21.1411 -10.1121
14.8191 7.5749 -7.85702
17.2125 16.1202 -11.1522
17.5614 16.8256 -11.2985
14.2934 -11.3032 -8.45112
9.7895 -2.60581 -4.6959
17.1416 16.1328 -10.8756
9.73717 -2.46446 -4.64678
-10.3945 17.0699 -9.11262
-9.59286 -2.07851 -4.45192
9.83839 -2.60311 -4.61947
10.1676 -2.39423 -4.73154
9.74558 -2.97285 -4.61172
-5.41656 4.46562 -3.1659
8.07213 -8.30809 -5.22358
17.6929 17.2387 -11.0901
17.5659 17.4097 -11.1164
19.0944 5.80846 -8.95329
7.12634 -10.8778 -5.79435
20.2149 5.30754 -9.28652
9.5467 -3.41625 -4.50831
-10.0355 16.4984 -8.57778
-5.36876 4.92044 -3.22713
19.1965 5.54566 -8.83259
-11.4721 17.4923 -9.20809
17.8366 17.6908 -11.0138
-6.61595 15.1725 -7.2687
9.57391 -3.59394 -4.45664
19.9563 5.40807 -8.96456
17.971 18.2319 -11.0357
17.7638 18.3789 -11.0153
14.7853 7.56641 -7.079
3.8547 -9.33777 -4.28268
-11.4068 17.3549 -8.77785
-13.544 3.31744 -5.87879
1.26322 -21.4801 -9.0171
3.24839 -10.1822 -4.47195
14.1107 7.60067 -6.70101
18.5317 19.3444 -11.2049
3.86293 -9.17014 -4.14443
14.7309 7.68051 -6.89104
18.2109 19.4117 -11.0515
13.9467 7.70346 -6.55204
3.99808 -8.46681 -3.83877
6.7597 -10.8303 -5.23006
-13.4722 2.53415 -5.6114
14.8895 7.46226 -6.78829
-8.13281 15.7387 -7.20491
1.1906 -10.6102 -4.33678
0.756748 -21.7807 -8.82663
-13.0276 2.35967 -5.32749
-9.3418 -1.44233 -3.7744
-5.10005 5.66027 -3.02188
2.83328 -11.7542 -4.76945
14.139 -11.1553 -7.04171
1.51791 19.0412 -7.42133
3.93419 -13.1313 -5.30034
18.8836 5.7728 -7.61002
0.886533 -26.4099 -10.0891
4.74438 -8.66599 -3.75041
11.6808 -10.113 -5.87176
19.2399 5.54016 -7.58923
19.9147 23.6087 -11.5326
19.8259 5.38448 -7.6652
20.2129 23.5582 -11.5652
3.2568 -10.8257 -4.21863
-13.2858 17.8946 -8.22565
11.8455 -10.0528 -5.71317
20.215 5.16059 -7.64841
20.7851 24.847 -11.766
-8.19445 -2.82551 -3.14053
19.1609 5.68446 -7.19555
2.27952 -13.2265 -4.82955
0.810954 15.7126 -5.63824
-4.34261 14.1636 -5.28455
-8.2487 -2.80871 -3.10934
6.72533 -10.5026 -4.42839
-16.2767 18.8086 -8.79523
15.8738 -11.9868 -7.04806
-11.2831 17.0122 -7.13856
19.201 5.85403 -6.97044
3.71395 -8.66194 -3.25091
-8.95786 16.2931 -6.32901
2.98009 -13.4495 -4.69949
18.8022 -13.45 -7.91013
33.6666 -20.8588 -13.4633
-15.2013 18.6237 -8.11637
19.9363 5.41685 -6.92611
36.5067 -20.616 -14.0035
40.0485 -19.71 -14.8786
16.3469 7.33229 -5.96793
3.44561 -10.2532 -3.60703
1.34819 -10.9249 -3.63892
-6.36651 15.1939 -5.37514
-12.9207 17.7234 -7.14083
15.6832 -12.0529 -6.43602
6.03438 -9.83196 -3.70833
3.33846 -10.1303 -3.42069
-1.14854 -24.0221 -7.68035
2.32462 -11.0308 -3.59139
3.22934 -10.0519 -3.34614
2.8259 -9.03883 -2.98673
13.5635 -10.7251 -5.43562
-18.2918 19.7735 -8.4363
-8.72751 -2.65827 -2.85765
1.37126 -21.5526 -6.66856
19.4847 25.2254 -9.60524
3.22091 -9.85957 -3.12756
3.45099 -8.98002 -2.89563
-14.6195 18.2858 -7.00565
-21.7833 20.3153 -8.82375
-8.08943 15.734 -5.20752
4.76411 -11.9687 -3.77429
4.14748 -8.91635 -2.89124
2.06476 20.3798 -6.01341
-4.40415 14.8211 -4.53143
4.05499 -8.95347 -2.87404
-15.5575 18.7186 -7.02067
-33.261 -47.531 -16.5929
7.11431 -11.0781 -3.7567
2.54507 -9.47735 -2.78229
-8.42611 -2.20714 -2.45577
4.42827 -10.9923 -3.34171
-2.50404 -25.2381 -7.10543
-9.4359 16.2737 -5.18276
4.3517 -11.2301 -3.32106
8.55729 -8.34673 -3.28491
-13.3153 17.7423 -6.0737
44.8423 -14.8675 -12.8796
-8.74655 -2.4465 -2.45935
-24.9005 20.9 -8.79469
3.24047 -9.96089 -2.83121
3.39183 -9.96443 -2.84345
-4.34777 -31.2421 -8.46707
-27.361 20.9845 -9.19276
42.0183 -13.8631 -11.695
45.2081 -13.0866 -12.4535
-8.75778 -39.4083 -10.6342
-8.55102 -40.3146 -10.8605
-14.7158 18.4421 -6.12447
9.80634 -8.91774 -3.46472
11.2715 -10.0086 -3.91625
-10.8272 16.8961 -5.1933
-4.37811 -28.6907 -7.53811
3.25684 -9.84682 -2.68152
3.51302 -10.2802 -2.81185
-26.7676 21.2208 -8.76273
4.2657 -11.0248 -2.99139
4.39364 -9.65959 -2.67713
9.44264 -9.13173 -3.31174
6.88782 -11.3178 -3.32577
-27.7701 21.4279 -8.76493
43.2606 -12.5925 -11.2437
-11.7265 17.2788 -5.18418
11.7587 -10.1258 -3.83599
3.35803 -10.2149 -2.64629
-25.0217 21.019 -7.99542
9.93719 -8.97431 -3.22172
-7.99005 15.5902 -4.20715
4.03087 -11.91 -3.03047
14.9799 7.52373 -4.01059
3.37074 -11.0795 -2.77709
3.16077 -9.85864 -2.46779
-6.93648 -39.6589 -9.57995
-11.5652 -44.4207 -10.8806
3.96286 -9.07926 -2.34342
-29.5128 22.056 -8.70516
14.7908 7.57013 -3.89055
-9.61569 16.6121 -4.50969
3.91134 -11.2778 -2.81052
-13.0679 17.8176 -5.16535
-26.9877 21.4147 -8.00191
3.47604 -10.2984 -2.4927
10.9942 -9.43856 -3.34419
15.5531 -11.725 -4.46253
-38.3967 27.1677 -10.7572
-12.9579 -45.1057 -10.6943
10.8652 -9.50023 -3.30212
-12.2301 -43.9541 -10.3482
-6.31187 -32.0025 -7.42123
40.1062 -12.3991 -9.51374
-27.6071 21.3276 -7.87233
14.6188 -11.3448 -4.16148
-31.4516 22.8466 -8.72414
4.44559 -5.79991 -1.64025
5.28192 -9.15638 -2.3655
-29.7814 -76.8253 -18.2155
-9.82214 16.4447 -4.22059
4.09619 -9.75235 -2.3282
13.3807 -10.7939 -3.7909
3.99842 -9.15559 -2.19741
40.4765 -11.9701 -9.24489
-23.9774 20.9009 -6.93768
3.38666 -10.0783 -2.28179
4.38591 -9.87313 -2.33799
14.8641 7.4717 -3.57309
-29.5604 22.1188 -7.93736
-21.7019 -34.4072 -8.73884
-8.56475 -36.268 -7.96892
-24.9227 21.0204 -6.94824
-31.7421 23.0555 -8.35011
3.23916 -9.90319 -2.224
4.86318 -8.84445 -2.14064
14.678 7.66426 -3.50374
4.21694 -10.4568 -2.39988
41.1353 -10.72 -9.0093
-10.7349 16.8171 -4.21068
4.32874 -9.12839 -2.11933
5.14523 -9.02666 -2.1771
14.6855 7.38942 -3.4244
-39.0164 25.6924 -9.725
-27.642 -25.6303 -7.79145
3.02336 -9.46157 -2.06488
-29.2281 -30.8209 -8.75105
-20.196 -31.5346 -7.71016
3.84616 -9.31109 -2.07898
3.7315 -8.72266 -1.94739
-15.915 18.8203 -5.04614
-26.1008 -69.1807 -15.1741
3.98128 -8.76644 -1.96904
-14.0565 3.07512 -2.94001
-34.0506 -24.0649 -8.50239
-29.3124 -80.9663 -17.5243
-11.5755 -37.2731 -7.93588
43.2371 -9.4426 -8.99059
14.8346 7.57865 -3.33718
-18.004 -23.8502 -6.00443
12.2845 -10.0389 -3.19078
-19.6676 -56.2607 -11.8926
4.1676 -10.7228 -2.2949
-12.2611 17.5827 -4.25951
-26.6787 20.9922 -6.7299
-35.9929 -21.3073 -8.31497
-32.703 -25.5401 -8.2231
-9.48221 -36.7561 -7.55671
14.4489 -11.3916 -3.646
4.02001 -9.80092 -2.08853
3.21785 -9.83659 -2.02921
-36.4037 24.054 -8.47997
-24.1223 -58.0814 -12.1538
-16.5281 -47.7224 -9.62976
3.48162 -8.88908 -1.8285
-20.6191 -33.3938 -7.45052
-32.493 -25.3586 -7.77135
-29.4751 -26.1729 -7.41968
-22.8139 -56.3738 -11.5033
3.87559 -9.06725 -1.87827
-17.2502 -47.0478 -9.37636
3.43534 -9.20378 -1.81405
-32.9656 -24.605 -7.48806
-31.7789 -27.2478 -7.6288
-33.6899 23.7187 -7.42771
-20.9544 -51.8425 -9.97543
-31.736 -25.565 -7.16724
-25.4675 -65.9388 -12.4498
-34.9802 23.2786 -7.35772
-17.1671 -48.4099 -9.00448
3.39643 -9.54756 -1.77145
14.0012 7.77049 -2.77625
-29.3137 -25.6922 -6.77894
3.466 -9.49288 -1.75279
4.78918 -8.64096 -1.71225
-27.38 21.4962 -6.01612
-31.3605 22.809 -6.6889
-31.5569 -29.0661 -7.40242
3.87802 -9.97994 -1.84771
13.8549 7.46889 -2.70388
-24.5216 -56.3425 -10.4484
-21.0244 20.004 -4.89763
-31.9934 -25.4292 -6.9297
-20.4454 -50.6894 -9.26639
5.58465 -11.7021 -2.18981
41.6763 -11.7707 -7.34266
-18.8316 -50.2572 -9.03436
40.8306 -10.6235 -7.09778
4.98301 -10.6933 -1.96427
-10.5441 16.7644 -3.21433
-30.7707 -23.8195 -6.34093
42.0491 -11.2922 -7.08616
-22.5304 20.4667 -4.93784
-21.1808 -52.4005 -8.97464
-23.3363 20.5185 -4.90189
-24.5816 20.9552 -5.02614
-33.6124 23.6771 -6.36162
3.80222 -10.0719 -1.65468
-32.5922 -25.2005 -6.29696
-14.2124 -42.8753 -6.93741
-31.7254 23.0881 -5.96522
-23.6529 -56.9253 -9.38624
-7.79886 15.7932 -2.65711
-33.8513 -23.7893 -6.2333
-33.1123 -24.3435 -6.22696
-28.1992 -26.4583 -5.81895
-33.7135 -24.2646 -6.22982
-31.8505 -25.4958 -6.09846
-35.3346 -23.6008 -6.3073
-25.3035 21.241 -4.87078
-33.6424 -25.1756 -6.19206
-32.5866 -24.6769 -6.03597
-25.9859 21.4133 -4.92648
-12.9041 -42.7602 -6.54612
-12.8163 17.5319 -3.12938
-7.81108 15.6283 -2.49265
3.49905 -9.5346 -1.44534
38.0003 -12.4976 -5.69043
-33.9837 -25.0334 -5.9706
-31.064 -24.6884 -5.58412
-30.5472 -25.7644 -5.627
-21.2433 -51.1854 -7.72183
-6.97083 15.4471 -2.30195
-14.2278 18.1783 -3.13219
-12.0915 -42.3246 -5.99299
-7.55443 15.3115 -2.29384
-25.4205 -66.1736 -9.58971
-22.785 20.7211 -4.10213
-25.6132 -58.0541 -8.43045
-31.8043 -24.5513 -5.30323
44.7749 -10.3175 -6.04326
44.1632 -9.70841 -5.95742
-13.8613 -43.0764 -5.94647
6.60507 -10.8857 -1.67496
-15.2612 18.6927 -3.14123
-23.195 20.4292 -4.00723
-33.1352 -24.7369 -5.32323
10.6552 8.73909 -1.77827
-34.3215 23.5989 -5.34808
-30.2706 23.0344 -4.79531
-31.412 -24.5931 -5.03271
-13.0832 -37.2225 -4.98845
9.63013 -9.01299 -1.64615
12.7197 -10.3952 -2.06845
-34.46 24.174 -5.26377
-36.6466 -22.8309 -5.37722
-31.0816 -25.6904 -5.01042
6.74868 -10.2637 -1.53333
-33.4354 -23.6332 -5.07358
-14.038 -43.7957 -5.6563
13.1073 -10.9268 -2.09513
41.2937 -10.7322 -5.26885
-16.4506 18.9383 -3.0668
-16.3189 -39.554 -5.23026
-8.90249 15.9159 -2.22202
43.1278 -9.93469 -5.3596
14.9031 7.77979 -2.0187
9.37714 -8.89763 -1.54339
-34.258 -23.9021 -4.95316
-18.1626 19.7401 -3.13929
-20.9819 9.28504 -2.71885
-32.2239 -24.9473 -4.8062
11.2317 -9.66195 -1.73496
41.6352 -11.1459 -5.07575
14.6088 -11.3431 -2.12631
14.8313 7.62356 -1.89546
-30.498 23.1935 -4.37122
7.23082 -10.9803 -1.49231
-10.434 16.6592 -2.20225
9.40632 -9.27333 -1.47063
12.6988 -10.43 -1.83275
13.8821 -10.957 -1.96763
9.41088 -9.07554 -1.4513
7.02565 -10.4042 -1.37552
44.0861 -9.62849 -4.91241
-11.0906 16.66 -2.15887
-33.8368 23.8598 -4.49665
11.6486 -9.7867 -1.64314
6.13965 -12.6258 -1.47726
7.51659 -11.5059 -1.43058
9.80257 -8.86456 -1.39072
-15.8519 -45.8066 -5.08175
16.4333 -12.1695 -2.14515
-31.7505 -63.7881 -7.39094
14.7751 7.43995 -1.69029
-31.5098 -25.1121 -4.13881
13.7377 -10.8695 -1.79572
-32.2856 -24.9738 -4.12992
14.7612 7.71236 -1.67285
-12.8804 17.2253 -2.11414
-21.0988 -53.4942 -5.5723
-34.1167 -68.9191 -7.36244
-23.8166 20.834 -2.98984
-31.3721 -25.7004 -3.85514
-31.3537 -26.0439 -3.8848
-22.5384 -58.9759 -5.9532
-14.3203 18.3245 -2.17741
-31.6292 -24.7451 -3.74792
-16.1537 -43.9985 -4.36633
-14.353 -44.6109 -4.37132
9.7719 -9.05737 -1.23836
-34.6303 -67.4575 -6.98617
8.52651 -8.62336 -1.10133
16.3673 -12.1951 -1.86788
-15.2355 18.6895 -2.16363
-36.3261 -22.5941 -3.87133
-33.7839 23.8528 -3.64262
-31.4283 -25.3553 -3.56863
13.9439 -11.0903 -1.58203
-32.524 -19.8196 -3.24975
10.9887 -9.64353 -1.24521
-27.1468 22.02 -2.9361
-11.6322 -36.2037 -3.2137
9.35335 -8.96832 -1.08824
-34.5199 23.7335 -3.48073
8.64834 -8.64992 -1.00492
16.6275 -12.1265 -1.68162
-17.193 -44.6755 -3.84743
-22.0994 -50.5528 -4.31907
-15.6521 -38.6405 -3.30479
-13.6425 -38.2778 -3.22876
9.15805 -8.89981 -1.00357
11.2212 -9.72738 -1.16456
14.7512 -11.538 -1.48312
-30.5108 23.2668 -2.98592
-29.5368 -13.7872 -2.5323
11.7859 -9.98478 -1.19762
-23.9466 -53.3316 -4.47807
12.692 -10.5348 -1.25
-43.0721 -81.7156 -6.68586
9.89836 -9.08454 -0.973961
10.8454 -9.68078 -1.01354
-33.6421 -20.8848 -2.73938
11.879 -9.98364 -1.07473
14.5998 -11.4951 -1.2919
-15.9243 -40.2379 -2.94541
-15.5419 -41.1153 -3.01351
18.4004 -13.2978 -1.50768
-23.712 20.7611 -2.09171
-25.7924 -59.4978 -4.28882
12.7871 -10.5188 -1.10724
-15.062 -41.7868 -2.88707
15.1553 -11.4429 -1.2344
-33.8048 -68.4435 -4.79467
-15.5144 -48.0879 -3.14029
-33.4918 23.6596 -2.50943
-34.2443 -67.7195 -4.61962
-17.4573 -42.5243 -2.80333
30.46 -20.1949 -2.22564
41.4026 -10.7968 -2.59824
36.0252 -8.68559 -2.24574
-15.5686 -41.7984 -2.69534
-27.483 22.3048 -2.00657
-29.2648 -14.4078 -1.88494
-16.2927 -42.445 -2.53639
16.7511 -12.4992 -1.17128
-27.417 -16.4986 -1.72257
41.9761 -9.35008 -2.21222
-9.4401 -12.6135 -0.799847
-15.8727 -42.242 -2.24825
5.66839 -12.3712 -0.676379
-14.4447 18.3114 -1.13735
-15.6776 -49.2764 -2.54023
14.7763 7.75202 -0.803585
-16.8103 -43.0886 -2.19876
-15.1249 -49.1909 -2.42894
18.5438 -13.1569 -1.09014
-17.8675 -51.8164 -2.55744
36.3051 -8.9167 -1.75219
-29.1648 -14.9134 -1.46567
-25.3402 -58.0639 -2.81027
-17.0084 -41.8485 -2.01147
9.6103 -9.06865 -0.589286
12.5217 -10.2774 -0.727311
43.5651 -9.96814 -1.98803
-14.5128 -44.1447 -1.97851
-33.4144 23.621 -1.70362
-55.0463 29.8953 -2.49776
-34.4837 23.7312 -1.53533
-19.5496 -51.1241 -2.05506
-35.0767 -22.0884 -1.48175
9.69715 -9.02448 -0.487178
6.57093 -10.7748 -0.438074
-13.4534 -40.1059 -1.40087
7.40425 -12.9963 -0.51108
18.4404 -13.0608 -0.763592
-27.7304 -60.734 -2.19924
-13.73 -38.9519 -1.33876
20.7439 23.9249 -1.0161
-23.5332 20.8921 -0.990618
-21.6567 -55.4528 -1.84691
20.8134 -14.1933 -0.766198
-27.893 -14.354 -0.950835
-13.454 -43.0578 -1.34185
-24.5141 20.8295 -0.92343
-24.6235 -56.6683 -1.75837
-18.192 -49.2362 -1.51486
-34.9248 -21.2798 -1.13118
-9.83669 -12.9057 -0.463513
-23.7934 -56.1112 -1.72112
17.8661 -13.3099 -0.567411
29.3252 48.9375 -1.47676
-30.6717 23.4019 -0.9912
-31.8538 23.2984 -0.975326
-27.4944 -13.2109 -0.747436
9.51903 -8.95777 -0.316485
-21.2505 -34.2282 -0.939809
-40.9046 14.1888 -0.945899
21.0117 -14.059 -0.537104
18.2697 -13.1714 -0.422826
12.7309 -10.4588 -0.27465
-33.5898 10.6226 -0.581697
-28.5756 -13.6076 -0.500966
-37.6036 -21.4148 -0.657355
-18.6928 -45.824 -0.766356
-8.06873 16.9686 -0.255094
-33.005 -24.6557 -0.571291
-34.3759 -23.4343 -0.532512
17.1482 -12.7941 -0.259786
18.0602 -13.0031 -0.282425
28.5533 -17.6067 -0.448067
-22.289 -57.0866 -0.744382
-30.8604 23.5281 -0.413134
-28.8685 -61.5991 -0.725262
-19.1703 -43.9696 -0.514139
-54.7112 29.9833 -0.517941
-34.9725 -61.6929 -0.654345
-20.8283 -54.6243 -0.556231
36.9855 -8.93519 -0.350061
-14.558 18.4778 -0.164797
-37.3473 -83.1688 -0.625375
-18.4699 -44.7979 -0.330696
9.52616 -8.96377 -0.0408139
14.6749 7.72528 -0.0279891
-29.7151 -13.256 -0.0587438
-11.7682 -17.134 0.0251637
-12.9952 -19.5598 0.0445051
-19.2351 -44.1537 0.198005
9.39344 -8.94327 0.0590385
-33.4422 23.667 0.213813
-22.6905 -57.2833 0.297182
-30.5328 -14.1708 0.202239
16.6838 -12.1731 0.11528
-13.254 -20.3218 0.158071
14.5923 -11.367 0.145406
-54.3317 19.4661 0.511888
7.03216 -12.0827 0.117257
15.8566 -11.7498 0.167368
-37.0009 -22.3903 0.453677
37.659 -7.74014 0.400032
-35.8161 -22.4451 0.481447
-12.8826 -35.5812 0.440833
-13.3675 -35.946 0.463905
-11.4659 -33.0164 0.424537
-9.84888 -30.4727 0.386887
24.6921 49.9969 0.727521
9.5379 -8.97114 0.169203
-12.9277 -20.0325 0.324362
-11.1628 -33.8855 0.48789
8.52798 -8.47181 0.182171
6.23334 -12.7522 0.206626
7.10355 -10.9461 0.199105
9.29527 -9.01103 0.1869
7.9892 -9.06504 0.193171
9.67242 -8.95596 0.217056
37.148 -7.95883 0.623072
-24.3779 20.9054 0.576168
-33.6977 -22.6718 0.698785
-35.057 -25.7211 0.761347
12.8171 -10.5292 0.271659
13.1243 -10.5857 0.315856
-9.96302 -12.6321 0.30366
6.78141 -11.1139 0.253796
7.94416 -9.3364 0.240977
25.1915 51.8311 1.15614
6.93042 -10.8933 0.259491
9.13124 -8.63977 0.267
11.4487 -9.8404 0.330723
17.106 -7.64055 0.377039
7.16337 -10.8684 0.294535
-12.934 -19.8551 0.565795
7.60537 -9.25934 0.27288
7.78777 -9.31327 0.281785
-26.213 22.0315 0.890473
-29.2495 -9.37977 0.771038
9.56604 -8.9006 0.336063
17.3089 -12.6444 0.540253
18.1269 -13.0524 0.555363
-23.461 20.5404 0.813378
-28.3636 22.416 0.944826
-29.2609 -8.78219 0.80005
-33.619 -17.9257 1.03477
-13.5067 -20.3958 0.649873
14.6261 -11.3643 0.494093
22.5057 -3.2745 0.639942
-12.3244 -19.2172 0.66017
24.6928 -4.67775 0.73139
15.9459 24.7462 0.882907
-28.4204 -20.9369 1.0444
7.17335 -11.2365 0.400219
6.91925 -10.6255 0.38614
14.3749 23.4168 0.844164
-7.64228 -8.83079 0.357137
12.9243 -10.5753 0.509853
-7.33985 -9.53964 0.368651
-28.8801 -8.15158 0.998915
-12.0016 -17.5438 0.711564
7.82663 -9.29644 0.40206
15.9488 10.8965 0.692031
10.7845 -9.39048 0.519424
11.8032 -9.97249 0.562975
21.7568 43.8112 1.83796
-7.46643 -8.15158 0.413229
9.59283 -8.90489 0.488607
22.5726 -3.16918 0.875019
25.2461 52.1876 2.24572
-7.47059 -9.91576 0.485587
10.3602 -9.44897 0.550009
12.624 -10.4262 0.661451
21.3507 -2.61672 0.876941
-29.537 -17.9194 1.41261
8.69011 -8.651 0.50675
-6.93945 -8.48512 0.471213
9.38044 -8.87358 0.53979
12.4804 14.3268 0.839473
-29.2267 -8.57753 1.33882
14.4318 18.7976 1.06549
14.6089 25.1533 1.29663
20.6898 40.6847 2.01936
6.10406 -13.5999 0.664759
10.7685 -9.4472 0.647832
18.3216 -1.62597 0.841508
18.6847 35.5763 1.88535
14.5416 25.6211 1.38183
-11.2502 2.79047 0.558661
-7.26508 -9.57625 0.579676
9.11285 -8.9318 0.604321
11.3193 -8.6843 0.66808
19.9164 -2.28231 0.965682
11.4815 11.7011 0.814384
15.3407 36.8927 1.96479
7.71431 -9.402 0.598613
10.1173 -9.21445 0.677642
14.1867 24.0565 1.39893
19.2745 37.3766 2.1352
20.7913 -2.58999 1.06537
-7.42498 -8.53034 0.586781
9.32864 -8.88188 0.670706
16.2829 23.8776 1.51869
15.974 28.959 1.72665
12.8961 -10.6297 0.887938
10.411 12.1704 0.856864
13.9278 18.9059 1.2618
10.996 -9.53464 0.786964
14.6997 19.1524 1.33183
-26.8372 20.5722 1.84925
-6.98483 -8.19469 0.595754
10.109 12.2217 0.8885
-7.28415 -9.40337 0.666219
9.84819 12.2681 0.912654
-28.3105 19.9315 1.96738
6.04506 -12.7667 0.808835
11.0328 11.9266 0.934069
-6.89585 -6.80567 0.562038
11.1223 11.8601 0.957633
-6.82557 -8.43429 0.64944
6.19162 -12.446 0.812338
14.3397 19.0792 1.43545
13.7625 22.5014 1.57379
12.8958 29.8028 1.94921
-6.19352 6.59666 0.556241
-8.19173 -7.76199 0.682715
-7.13541 -8.18563 0.666984
5.6679 -12.3264 0.820507
-7.49893 -6.90416 0.634267
6.95276 -11.0776 0.808767
6.93992 -10.4883 0.784993
11.256 -9.71616 0.918332
12.0333 -10.0663 0.972212
16.0522 7.1092 1.11873
14.5862 18.8954 1.51051
-7.25264 -6.32072 0.624137
10.1964 -9.31258 0.891201
-7.39478 -6.27345 0.636282
11.3219 11.9469 1.12168
9.27173 20.8724 1.55528
-7.29695 -9.68597 0.810241
11.4742 12.4448 1.1614
-6.96743 -4.46505 0.569443
-6.76994 -8.22236 0.72643
-6.71046 -4.44084 0.555265
9.21932 -8.81424 0.887972
9.94407 -7.80177 0.890349
12.4897 15.7414 1.45308
9.75666 -8.23902 0.933798
11.2411 16.8081 1.52027
11.1578 17.7885 1.56872
9.37476 17.8429 1.52002
8.78212 18.9792 1.57289
7.08931 21.1288 1.67532
10.5325 18.1797 1.60073
9.96266 -7.55875 0.956195
-7.04487 -7.20633 0.772356
-17.3134 -6.27973 1.44037
9.42583 -7.64153 0.951225
9.11059 18.1964 1.60615
-6.38991 -4.26666 0.609391
-6.84838 -8.24238 0.849625
4.83018 -5.72786 0.595721
8.7796 19.3153 1.68283
7.55319 18.4674 1.6042
5.02263 -5.78874 0.617488
12.6194 11.3871 1.37743
11.6274 11.6796 1.3496
6.69626 -9.34161 0.934334
12.0805 11.5547 1.37423
6.47148 18.9973 1.6426
-6.36604 -4.39462 0.630681
-7.18657 -9.51142 0.978497
11.3954 11.9385 1.36563
10.3653 9.0678 1.17278
-5.06227 -11.5496 1.06514
6.11454 -6.03476 0.749913
9.17586 -7.14827 1.00041
-6.80983 -6.70729 0.812228
10.2887 12.193 1.3928
8.75894 -7.29841 0.991087
10.6844 12.0442 1.40914
-7.32956 -7.78561 0.937558
8.15783 -7.26251 0.969765
10.0659 12.3034 1.42913
-7.09014 -7.76213 0.932257
-6.95787 -8.36423 0.976533
10.4555 12.1537 1.45587
10.344 13.3431 1.52966
-7.13768 -8.35255 1.00093
11.0878 10.7099 1.41801
-6.32386 -4.23747 0.70024
-6.88154 -8.61891 1.00918
-6.33789 -4.40098 0.711514
10.979 8.47274 1.30147
10.5325 9.23327 1.30606
6.3467 15.0762 1.53838
10.3802 11.1671 1.44276
-11.2964 2.89474 1.10247
6.14609 -5.95421 0.815824
7.97749 -6.61337 0.995307
10.6329 9.10525 1.35904
9.39434 12.3609 1.50335
9.57866 12.2924 1.53537
7.5534 12.0799 1.41523
7.7852 13.0144 1.50952
11.1235 7.98776 1.39572
7.02568 12.5018 1.44725
8.94627 11.2114 1.45948
6.87476 13.3092 1.53299
5.75056 13.664 1.52175
9.09171 10.3649 1.42502
8.90736 12.1349 1.56402
11.2895 7.59157 1.41927
9.15096 9.89638 1.40341
4.96887 -5.81442 0.821099
-6.85887 -4.66491 0.875272
5.46253 13.609 1.55631
-7.07309 -4.51563 0.89522
8.82227 10.5709 1.47835
-6.78177 -6.79148 1.02684
5.90034 -5.82383 0.895525
9.60135 8.4534 1.37892
8.86987 9.26424 1.37953
9.15372 10.2042 1.48629
4.67571 13.5506 1.54682
4.22703 -8.0391 0.98393
6.37878 10.6715 1.36808
-6.81392 -3.93212 0.866278
6.2503 11.7192 1.47357
-6.90828 -3.8704 0.877586
9.63356 7.14797 1.3415
6.57579 11.2226 1.44858
9.72913 6.97563 1.34494
5.34807 11.4007 1.42374
5.34833 11.8921 1.47262
4.61684 12.0143 1.45609
9.76132 6.63451 1.34516
-6.90537 -4.5726 0.948834
7.38785 -6.2142 1.10042
-7.34991 -0.787498 0.84808
-6.28608 -5.40019 0.954713
5.24497 -5.56359 0.882288
8.80105 7.82427 1.372
4.41331 -7.17539 0.975906
10.3474 5.12258 1.35216
8.8851 7.72952 1.38439
5.19654 -5.60736 0.903212
8.53034 7.85203 1.37574
8.81734 8.9701 1.47162
-7.06359 -5.66374 1.07157
10.0802 4.72004 1.32618
-6.93217 -3.85931 0.956351
9.07921 6.10337 1.32689
5.13012 11.2448 1.49812
-6.90665 -3.07154 0.918855
-6.89089 -3.25786 0.92216
4.87794 -5.94889 0.938996
5.96515 -6.12006 1.04057
9.31409 5.5867 1.34266
8.39825 7.16987 1.36532
-6.96436 -4.3192 1.00987
-6.89556 -4.54407 1.01816
8.18444 8.50806 1.46466
4.9536 11.14 1.51367
-6.56365 -5.62928 1.07642
3.70528 -7.56729 1.05006
8.43458 7.68027 1.4274
6.06987 -5.60998 1.03628
9.10639 6.0211 1.38349
-6.14567 -5.4229 1.03454
8.48948 6.56748 1.3688
8.02472 7.45059 1.39296
-7.11643 -1.78678 0.93899
-7.02803 -2.31078 0.945328
-6.45801 -5.32909 1.06859
8.77398 5.62506 1.33614
8.0865 7.97786 1.46407
-7.2807 -1.25619 0.947942
-6.91153 -4.1271 1.04113
7.38236 6.17979 1.24694
8.01875 6.98896 1.37931
7.90117 8.05618 1.46222
-6.92385 -2.83173 0.974358
-6.9251 -2.97188 0.974727
4.48943 9.9416 1.43334
8.95053 4.08934 1.29528
-7.26398 -1.60975 0.978313
6.82884 -4.25247 1.06916
4.92559 -5.94045 1.02312
-7.35055 -1.11979 0.99584
-7.02847 -2.2038 0.985838
-7.06573 -2.27322 0.992134
-6.00382 -4.40476 0.995537
5.18248 -6.55731 1.11393
6.89926 -4.16934 1.08526
8.01212 7.1157 1.45167
-7.16671 -1.72191 0.991455
-7.09735 -1.95976 0.990835
8.74377 4.82727 1.35655
8.27849 5.83543 1.3771
-6.93452 -3.6261 1.06677
8.82056 4.13972 1.33648
3.28761 10.3319 1.4839
-7.32974 -1.20271 1.01736
-6.01914 -4.44814 1.02975
-5.99961 -4.54711 1.03099
7.13576 -3.92744 1.11951
8.01592 6.44084 1.42214
5.29689 8.95259 1.44029
-6.39301 -4.32877 1.05885
4.93123 -5.52392 1.02865
7.17322 -3.82329 1.13128
7.54521 -3.6793 1.16152
3.5635 9.88527 1.46282
3.37658 10.1593 1.49214
-7.38665 -1.08467 1.0429
-7.08806 -2.00786 1.02718
4.97081 -5.28604 1.01435
7.2346 -3.73136 1.1436
7.35031 -3.6659 1.16497
7.8565 -3.3497 1.21418
-7.16961 -1.8786 1.05463
-7.02144 -2.95146 1.10428
-6.01693 -4.37999 1.07079
7.89081 -2.77722 1.22393
8.18984 4.59667 1.376
4.94141 8.46489 1.4364
8.3269 4.48407 1.39776
7.81656 -2.33661 1.20262
7.10406 5.65518 1.35973
2.91583 9.30625 1.45768
-7.10801 -2.02352 1.10821
7.4726 -3.10502 1.2199
8.18686 4.52449 1.41788
5.74009 7.38206 1.41986
5.24646 7.56877 1.4032
5.08084 7.87172 1.42297
5.03357 7.97762 1.42751
7.32378 -3.16548 1.21861
7.66732 -2.7518 1.24051
-6.76863 -1.68589 1.05128
7.81847 -2.25302 1.24774
7.19538 5.39643 1.38107
-7.11763 -1.95629 1.14609
-6.93257 -2.79099 1.16211
6.77703 5.49695 1.36871
-7.37229 -1.09825 1.16488
-7.15878 -1.82784 1.15777
-7.06022 -2.07152 1.15347
-7.13526 -1.87624 1.15841
-6.90753 -2.93956 1.17905
4.7705 7.39678 1.39964
3.44739 -6.03383 1.10962
-7.29187 -1.30228 1.18728
3.5295 -5.70994 1.08135
3.56648 -5.61542 1.07077
7.04538 4.74903 1.38451
4.62543 7.32057 1.40916
-7.08508 -2.0275 1.20166
-7.10732 -1.95084 1.21004
6.94101 4.80972 1.39657
3.7825 7.85765 1.44353
6.0502 -3.31762 1.1494
6.6101 4.85592 1.36754
4.62897 7.11452 1.41569
3.83771 -5.30232 1.10006
7.08292 4.41057 1.40492
7.45743 2.85157 1.34929
6.29613 5.26328 1.39082
-7.29553 -1.25855 1.26142
6.7339 4.07127 1.35139
-6.46088 -2.77628 1.20047
5.50831 -3.6289 1.13307
5.68912 -3.51755 1.14836
2.7259 7.76777 1.4228
-7.39008 -1.04199 1.2946
5.33298 -3.78283 1.1397
-6.32068 -2.26316 1.16479
-6.28078 -2.42036 1.1792
4.28216 -4.66575 1.10738
4.49476 -4.47791 1.11289
4.59225 -4.44954 1.12173
-6.81414 -1.7359 1.23937
4.30677 6.46123 1.38501
-7.17604 -0.930401 1.29419
-6.15304 -2.26102 1.16829
6.62292 3.68274 1.35842
6.08211 4.349 1.35618
3.61048 -5.33003 1.17069
5.12554 5.66069 1.39667
2.49231 7.13126 1.41857
6.47171 3.04587 1.35236
-1.70512 -5.77858 1.14073
6.42224 -1.38507 1.2465
6.26168 2.7728 1.31844
6.20833 2.37764 1.32633
-4.47638 3.96146 1.40656
4.315 3.52605 1.3327
4.20162 3.28476 1.32015
4.66479 -1.67759 1.24466
4.81771 -1.38065 1.25363
-2.16273 4.84777 1.32772
3.72941 -2.95483 1.22305
3.67542 -2.55111 1.19424
3.40951 -2.96417 1.22669
3.99554 2.56375 1.32647
-2.59219 -3.5313 1.25041
-2.32341 -3.56679 1.21554
3.74784 2.05389 1.29911
3.72477 1.97651 1.29863
-2.85724 3.50449 1.39622
-2.29367 -2.41663 1.18672
1.95981 -2.78706 1.21519
-2.13171 2.77919 1.33184
-2.03615 2.76712 1.33799
2.25451 -1.87264 1.22702
2.38346 -1.5002 1.22372
-2.02023 1.88194 1.3007
-2.06204 -1.44149 1.22801
1.45331 -2.07487 1.24815
-1.99024 -1.0867 1.21425
-1.9231 -0.707058 1.22007
-1.92488 -0.702867 1.24568
-1.95451 -0.344104 1.22942
-1.89124 -0.564228 1.23011
-1.89089 -0.530467 1.23523
8.20019 -8.67863 -7.44774
12.0651 -10.2361 -8.75678
-8.90314 15.8961 -7.07181
20.2021 24.5993 -11.4324
-8.83084 -2.52899 -2.58846
-35.0967 -23.4447 -7.79636
-34.6742 -22.676 -6.11269
-34.4062 -23.3819 -6.17727
-31.6765 -20.3153 -2.82974
9.24892 -8.80934 -0.390388
-7.90093 17.0305 -0.463138
-29.8232 -11.5406 0.73698
-6.93918 -8.29348 0.462005
16.3377 23.46 1.55346
11.2157 15.7734 1.60089
-6.70949 -6.68246 0.885676
4.15011 12.0417 1.46748
8.65367 9.01401 1.46158
7.96094 -8.75161 -10.365
8.81807 -8.52636 -10.4811
6.9471 -11.9213 -11.499
6.86307 -11.3354 -10.8819
8.14066 -8.25292 -9.51922
7.01303 -12.0148 -11.3131
7.05633 -10.9585 -10.4427
7.9905 -8.36564 -9.19076
6.71844 -11.2703 -10.276
6.43671 -11.6827 -10.2008
7.74647 -8.83841 -8.95995
6.19685 -14.2985 -11.7936
8.28554 -8.68742 -9.08739
6.29167 -11.8947 -10.1634
6.14004 -12.0747 -10.1018
7.47983 -9.43121 -8.98799
7.89834 -9.0436 -8.91469
10.4406 -9.42581 -10.4619
6.1138 -14.1014 -11.3611
6.09675 -13.66 -10.9987
6.12366 -12.5626 -10.2798
9.17752 -8.80774 -9.33167
9.26512 -9.05392 -9.44868
5.8577 -12.4913 -10.023
9.34094 -8.97087 -9.24316
6.85033 -11.1083 -9.26273
5.60904 -12.9566 -9.99338
9.66855 -9.05932 -9.39033
7.59778 -9.33065 -8.46042
9.97232 -9.16396 -9.5152
10.8891 -9.46917 -10.1261
11.407 -9.67015 -10.0435
8.37151 -8.59463 -7.94363
7.41966 -9.28505 -7.85347
8.15406 -8.70425 -7.8838
7.61617 -9.33765 -7.88385
7.8247 -9.38768 -7.83304
8.3072 -8.52179 -7.60802
0.36287 15.8814 -10.1347
7.51593 -9.30979 -7.61461
10.8799 -9.58023 -9.21763
7.21275 -10.6829 -8.15866
8.14245 -8.48425 -7.41629
4.60941 -15.3976 -10.1089
8.70048 -8.68786 -7.60751
7.90928 -9.01886 -7.3996
4.0454 -18.0117 -11.3719
8.1851 -8.61439 -7.26479
4.08512 -17.3091 -10.8523
0.148607 14.8883 -9.05859
6.64323 -11.2442 -7.95192
7.73112 -9.25459 -7.31712
10.0972 -9.28637 -8.32444
6.80939 -11.2336 -7.8866
8.04729 -9.18958 -7.33259
11.2334 -9.66644 -8.86102
5.39365 -13.8408 -8.81063
7.72294 -9.252 -7.14746
9.33145 -9.01481 -7.68851
6.89046 -11.097 -7.73145
7.97059 -9.11358 -7.10456
9.72947 -9.16572 -7.79037
14.7718 7.38106 -9.58899
8.65049 -8.81403 -7.13644
6.92136 -10.947 -7.44391
2.63742 -11.2032 -6.61976
7.84718 -9.05717 -6.86375
9.58182 -9.1181 -7.51388
10.7633 -9.46948 -8.0876
3.28062 -20.6157 -11.7397
6.79067 -10.9661 -7.23143
10.0797 -9.26707 -7.66829
12.2924 -10.3145 -8.99934
9.22041 -8.98818 -7.19553
4.60861 -14.2734 -8.36259
7.98929 -9.19974 -6.76747
14.6934 7.51181 -9.05843
9.67376 -9.08493 -7.28878
0.839354 17.4573 -9.54305
2.7433 -19.8796 -10.9427
11.0968 -9.61626 -7.97298
4.22438 -14.3941 -8.12104
14.6073 7.63866 -8.87758
14.9815 10.3432 -9.77292
13.9469 7.69399 -8.50957
10.9171 -9.58854 -7.72712
13.2076 -10.7556 -9.06135
3.0458 -19.3542 -10.2998
11.3187 -9.79308 -7.61614
2.16927 -20.4029 -10.3561
10.2299 -9.31376 -6.95718
14.2048 -11.2356 -9.09396
13.7407 -11.1141 -8.84801
10.9709 -9.62277 -7.27083
7.49362 -9.31938 -5.92241
3.56075 -8.46282 -4.52494
-8.72902 -1.91657 -4.39419
2.22586 -20.1986 -9.96676
4.52887 -9.29343 -5.05616
0.406121 13.6495 -6.68378
7.59254 -9.25164 -5.84051
-8.59534 16.4069 -8.97224
-9.23273 -2.44077 -4.60173
14.9159 -11.5187 -9.05726
19.2497 5.50766 -9.57422
-10.3548 -2.56368 -5.04581
1.9098 -20.5767 -9.82654
17.0499 16.0214 -11.0788
7.56308 -11.1817 -6.37019
19.894 5.36968 -9.70306
13.9643 -11.0561 -8.28326
2.92292 -17.3026 -8.16009
19.2263 5.68857 -9.26185
17.7286 -12.9203 -10.134
9.83766 -2.48481 -4.68791
20.1465 5.10629 -9.58825
17.1724 16.1474 -10.8598
1.81146 -20.2586 -9.30853
9.64566 -9.01972 -6.04736
-9.24311 -1.67771 -4.28454
9.42779 -3.45932 -4.57362
6.69452 -11.286 -5.96913
9.88471 -2.61085 -4.63705
19.1195 5.83004 -8.99798
17.5432 17.4002 -11.1056
9.34436 -3.07809 -4.42819
15.3409 -11.8048 -8.68746
7.01662 -11.5288 -6.03719
7.13271 -10.8888 -5.80258
9.5334 -3.39548 -4.5096
-10.1351 16.6146 -8.66603
17.538 -12.7996 -9.64903
19.4037 5.58963 -8.94922
16.005 7.25945 -7.78126
17.6468 17.8233 -11.0902
16.3286 -12.1441 -8.96964
-11.4233 17.3728 -9.14066
-6.64582 15.1918 -7.27191
-5.26475 4.9385 -3.14589
19.9951 5.42896 -9.00679
9.53238 -3.39577 -4.36692
18.0313 18.2746 -11.032
15.7304 -12.1055 -8.54193
14.7754 7.38742 -7.04906
3.83329 -9.28963 -4.26993
-11.3423 17.2527 -8.74251
6.9254 -10.8771 -5.4377
-13.6764 3.35179 -5.93308
0.743403 -22.4523 -9.46668
15.7212 -11.9038 -8.24742
-5.19719 5.72355 -3.23539
0.999703 -22.319 -9.3651
1.23129 -20.8032 -8.73057
14.0894 7.55632 -6.68599
18.3507 19.1227 -11.0714
3.7783 -8.94456 -4.04936
14.687 7.68536 -6.89887
17.7299 18.9347 -10.7626
-9.5485 -1.09588 -3.96769
4.00449 -8.49682 -3.84855
13.9564 7.70609 -6.54357
6.82487 -10.9568 -5.27788
-13.7125 2.56161 -5.70694
-8.08783 15.6712 -7.16803
19.0302 20.6773 -11.3824
14.9875 7.20132 -6.69856
-5.34515 14.6026 -6.23604
13.8816 -10.9747 -6.93161
1.52682 19.1421 -7.45645
-8.89063 16.0594 -7.13484
18.8684 5.75415 -7.64242
-1.7636 13.3809 -5.22821
5.28605 -9.37715 -4.15151
-2.40201 13.6125 -5.30989
19.3391 22.3705 -11.3364
4.65514 -8.50582 -3.68251
19.2905 5.53401 -7.6359
0.880129 -26.7158 -10.1576
14.8228 -11.4225 -7.04312
19.8439 5.37604 -7.69405
9.41873 -3.43155 -3.74766
0.535179 -22.8508 -8.51706
3.24061 -10.7691 -4.20194
19.9239 23.1786 -11.3482
0.910716 -8.73306 -3.25605
13.9568 -11.0532 -6.56537
20.2477 5.14974 -7.68103
17.6958 17.4848 -9.08914
-13.1202 2.29857 -4.84296
20.5525 24.5419 -11.6076
2.28167 -13.2315 -4.83764
12.9739 -10.4919 -6.00457
0.79636 15.3896 -5.51274
-8.22343 -2.80627 -3.10806
0.410497 -21.986 -7.86004
-4.27906 14.05 -5.22561
0.639174 -22.0316 -7.83228
15.7619 -11.9045 -7.00156
-16.044 18.5488 -8.64461
5.91595 -11.3152 -4.48984
-11.2327 16.9523 -7.10436
0.0927282 -18.6146 -6.5429
14.1919 -11.2475 -6.33241
20.2024 5.32047 -7.29136
0.658848 -23.1702 -8.0047
-5.09937 14.8085 -5.36787
3.63581 -8.44035 -3.16358
4.86967 -9.02063 -3.51298
-14.7951 18.3691 -8.07492
2.27306 -10.8787 -3.8088
-9.05679 16.4314 -6.39724
3.01596 -13.6481 -4.76613
-15.2802 18.7555 -8.20275
20.0214 5.44352 -6.97323
21.6949 26.8369 -11.531
35.5755 -20.0828 -13.6537
-5.40088 14.3292 -5.08756
1.9035 20.5941 -6.86068
1.26753 -10.2519 -3.41558
-5.346 14.7249 -5.08963
-12.8382 17.5766 -7.06237
18.4279 -13.1315 -7.34901
3.55854 -8.66996 -3.00481
6.20588 -10.0906 -3.79672
2.31282 -11.0068 -3.57928
-4.64825 -34.8985 -11.1884
-1.15299 -24.122 -7.68611
14.9108 10.2691 -5.71272
-13.4762 17.9334 -7.09196
-18.3747 19.8193 -8.49724
6.94036 -11.0609 -4.03748
1.38876 -21.9867 -6.8149
-2.61528 -27.8358 -8.58062
7.06639 32.6192 -10.1817
0.771245 14.9769 -4.55414
-11.3609 17.1426 -6.20001
-2.74811 -26.9677 -8.16199
-14.6403 18.3056 -6.99532
-5.39655 -35.3706 -10.6521
0.842703 -25.2664 -7.55827
-5.49848 15.1275 -4.78956
2.06717 20.5352 -6.07911
-21.7339 20.2655 -8.7684
18.0964 5.75864 -5.58926
-4.37316 14.6951 -4.50955
-8.08507 15.6875 -5.17937
4.24957 -9.13011 -2.96008
4.6254 -11.5905 -3.64932
-12.6944 2.23632 -3.70479
-34.0032 -48.165 -16.9633
-15.5108 18.6602 -6.9767
6.93531 -11.046 -3.75534
2.56189 -9.53969 -2.80669
12.878 -10.424 -4.71535
-8.47469 -2.46638 -2.50279
20.7438 26.7515 -9.58884
-8.60311 -2.26744 -2.51412
-2.60401 -26.5577 -7.48707
-13.1043 2.0081 -3.69204
4.37626 -11.3001 -3.36375
-9.50126 16.3411 -5.19098
-13.3269 17.7746 -6.10325
-5.50243 14.6891 -4.28896
-8.74844 -42.4741 -11.863
-21.9355 20.4702 -8.06688
-9.93041 16.468 -5.15497
-27.3065 20.9765 -9.16138
11.3492 11.4223 -4.24762
4.31515 -11.2653 -3.19619
46.356 -13.4757 -12.7897
-8.46148 -39.9238 -10.7244
4.08285 -8.64328 -2.51715
11.1293 -9.89909 -3.89677
-14.7544 18.4744 -6.149
6.52096 -10.3995 -3.17734
3.17391 -9.634 -2.62243
-31.0277 -45.443 -14.2071
-4.47108 -29.3196 -7.67164
3.53386 -10.3516 -2.8207
4.06144 -9.37177 -2.62546
15.5174 -11.668 -4.95419
-7.31009 15.5755 -4.35657
-32.4569 -43.2852 -13.7179
4.30059 -11.1159 -3.01691
4.25002 -7.69509 -2.23736
6.51728 -10.631 -3.11014
44.1014 -13.3336 -11.488
-28.9118 21.8129 -8.95483
-11.7695 17.2922 -5.15791
-28.3328 -41.3306 -12.3194
-10.2037 -40.1571 -10.2181
-25.015 21.0107 -8.02887
4.34072 -10.3103 -2.74877
-12.3138 17.6388 -5.21703
-8.00815 15.6048 -4.22894
10.2414 -9.23793 -3.30266
39.7145 -13.1922 -10.015
15.0244 7.51378 -3.99853
-6.4996 -37.213 -8.99686
3.96035 -9.07559 -2.34644
46.2334 -12.374 -11.3601
-12.5992 -46.385 -11.3841
3.84376 -11.0247 -2.75215
4.89979 -8.678 -2.34459
-13.0445 17.7771 -5.13262
10.9676 -9.61151 -3.33334
-6.34281 -32.1586 -7.47763
-27.7511 21.4337 -7.94918
40.9274 -8.95045 -9.50796
-31.2002 22.653 -8.6452
-36.0827 -23.6458 -9.66569
40.1377 -12.4079 -9.4336
5.44238 -9.45316 -2.43557
-12.4836 2.8485 -2.8096
40.009 -11.7245 -9.21228
41.9413 -11.9671 -9.59647
-5.49851 14.4294 -3.37779
13.3252 -10.7226 -3.76513
37.5475 -12.0665 -8.67094
-23.8894 20.821 -6.87456
-31.3174 -77.2079 -18.0756
4.29934 -9.6769 -2.29649
4.52931 -9.16044 -2.20746
-14.8831 18.5431 -5.07878
-31.6553 22.9938 -8.35501
-32.5606 23.1071 -8.53553
-29.9951 -79.5787 -18.2253
-10.9153 17.0567 -4.29505
-8.69499 -36.9053 -8.06102
3.18296 -9.66323 -2.16974
3.95563 -9.80317 -2.25421
45.0438 -10.4433 -9.8711
14.8578 7.442 -3.52236
-15.4729 19.0475 -5.19664
5.15318 -9.03593 -2.18559
25.9753 37.5812 -9.54421
14.8951 7.7953 -3.48978
-30.6593 -23.6783 -8.03557
-11.6869 17.2197 -4.2301
-15.942 18.849 -5.02661
-36.0334 24.1882 -8.81931
43.7247 -9.53717 -9.12693
-13.7577 -44.2669 -9.41931
4.12545 -9.70995 -2.14669
11.5564 -9.60647 -3.05783
-12.2447 17.5725 -4.27647
-20.9055 -59.9964 -12.695
-13.398 -41.6177 -8.65441
4.05945 -9.89635 -2.11808
-34.7219 -23.7424 -8.29153
-27.3022 21.4279 -6.83139
-33.7331 -24.1297 -8.08423
-7.04191 15.5624 -3.3169
-27.9135 -65.5859 -13.8427
-34.1365 -22.7257 -7.90222
3.42796 -9.34092 -1.92155
45.127 -10.4556 -8.89573
-13.0062 17.758 -4.2088
3.9799 -9.32329 -1.93475
-37.0916 -22.5304 -8.21469
-21.7755 -35.3736 -7.89898
-16.187 -46.7044 -9.35098
37.3785 -12.3303 -7.44137
-36.8244 24.7323 -8.30212
-34.2853 -23.6782 -7.82698
-33.2198 -24.3049 -7.72617
-22.2359 -55.0861 -11.1757
-17.5264 -47.6052 -9.40819
3.8143 -9.19285 -1.83849
41.9254 -11.2996 -8.064
5.74262 -9.68754 -2.06416
-25.6384 -58.1352 -11.6306
-21.2733 -52.8003 -10.2942
-14.854 18.5161 -4.20988
-31.6472 -25.5242 -7.22651
-20.6481 -27.5142 -6.15109
-40.3585 25.4666 -8.42024
-27.3146 21.4472 -6.04501
-34.8753 23.8649 -7.33769
3.89911 -10.0234 -1.86516
4.76326 -8.59704 -1.70816
13.9203 7.47556 -2.72466
13.9904 8.02824 -2.76204
-31.5057 22.9105 -6.67857
41.6101 -11.7723 -7.36283
41.4184 -10.727 -7.28406
-31.8041 -25.2585 -6.88923
-21.4864 20.4631 -4.98311
-21.2463 -52.8091 -9.61636
14.7699 7.40264 -2.77031
-32.3979 22.9358 -6.63097
-24.6273 -58.7144 -10.5191
42.8955 -11.5556 -7.22149
-10.5605 16.7659 -3.19839
-21.5564 -53.4773 -9.1944
-35.5186 -24.5187 -6.80057
-23.2245 20.4048 -4.8413
-24.6634 21.0542 -5.02624
-41.0743 24.869 -7.44075
-11.4451 17.13 -3.18117
3.46368 -9.50594 -1.5649
3.85738 -10.2006 -1.68884
-7.78786 15.7966 -2.69117
-31.7459 23.1055 -6.00231
-32.3124 -24.9571 -6.20808
-28.4266 -26.5898 -5.89639
41.6005 -10.8148 -6.53419
44.1782 -9.62481 -6.88907
-6.68582 14.8928 -2.44371
9.8094 -5.14185 -1.6438
-34.0798 -24.5802 -6.25711
10.1592 -9.1342 -2.03617
44.3127 -10.2512 -6.75524
-37.3237 -24.8458 -6.59846
-32.0743 -26.4562 -6.08171
-13.145 -43.5527 -6.6925
16.8114 -12.163 -3.03992
-25.9029 21.3266 -4.87635
-25.7906 -57.786 -9.11742
-7.78242 15.5882 -2.49231
-12.9586 17.6686 -3.12463
6.01066 -11.4834 -1.85244
-13.6771 18.2809 -3.20766
-35.4922 23.9757 -6.02183
6.73469 -11.0009 -1.80311
37.099 -12.2433 -5.49536
-31.6909 -25.3939 -5.66732
-33.7537 24.257 -5.75833
-21.4157 -51.6149 -7.71719
44.4596 -9.94606 -6.28282
-7.02721 15.542 -2.33199
-23.799 -62.1112 -9.03437
7.73028 -9.35507 -1.6288
-14.2762 18.2286 -3.12178
13.1531 -10.4906 -2.27677
-22.6606 20.6125 -4.11946
41.5203 -10.735 -5.69415
44.1918 -9.67975 -5.98856
-23.0431 20.2781 -4.01403
-33.2564 -24.8852 -5.42504
-15.185 18.5947 -3.10458
-34.7796 23.2135 -5.42875
-38.9643 -16.4523 -5.46069
6.99326 -10.4004 -1.60829
10.7074 8.76631 -1.7763
-34.3871 -23.6973 -5.34401
-32.1284 23.4544 -5.03198
-36.1956 -22.5864 -5.34735
41.3925 -10.7048 -5.35109
6.77343 -10.3332 -1.5441
-7.823 15.648 -2.16702
-25.5212 21.4296 -4.08081
-34.1478 24.0662 -5.1533
6.26782 -12.0211 -1.6519
44.1459 -9.41838 -5.52951
14.9082 7.81051 -2.02308
-18.5809 -45.0016 -5.87008
7.06261 -10.4966 -1.52354
-20.7605 9.20076 -2.68762
-14.864 -44.9622 -5.56739
-32.3982 -24.9785 -4.78324
-31.8766 -25.4932 -4.77614
41.4694 -11.1084 -5.04646
11.188 -9.6349 -1.71083
-30.5257 23.1459 -4.40749
6.6193 -10.7853 -1.44897
7.46963 -9.19653 -1.35541
11.5373 -9.68527 -1.71118
9.42935 -4.60005 -1.18807
14.8875 7.65026 -1.88601
-10.5592 16.8102 -2.24093
-32.9042 24.0432 -4.56541
38.3652 -12.6293 -4.53019
9.32775 -8.99508 -1.43381
-11.2847 16.9247 -2.21181
6.7596 -12.7263 -1.56129
44.284 -9.62445 -4.91347
10.7042 8.79621 -1.49267
16.6662 -12.3801 -2.22865
41.6594 -10.8046 -4.61225
9.58839 -8.95006 -1.38981
8.35739 -8.44229 -1.24461
-31.4264 -25.1484 -4.19094
-31.5775 -63.3381 -7.38252
14.885 7.46501 -1.70096
-32.335 -24.9324 -4.18914
-13.1087 17.8698 -2.25069
-13.0197 17.4433 -2.16387
10.1731 -9.05736 -1.33455
-21.7816 -55.3168 -5.8279
6.2861 -12.0381 -1.31474
16.5378 -12.0993 -1.9701
41.5493 -11.1648 -4.12465
-32.1742 -65.0361 -6.89719
-21.8013 -57.2127 -5.81407
-23.7678 20.7893 -2.95199
44.9611 -10.002 -4.30279
9.68527 -8.95812 -1.22147
39.1736 -12.9223 -3.84454
-15.3119 18.7698 -2.19389
-30.0681 -13.709 -3.01205
-33.8613 -66.0098 -6.8379
15.7627 -11.7982 -1.79146
8.61186 -8.70256 -1.10884
12.83 -10.5905 -1.44898
44.5532 -10.3265 -3.91846
9.37235 -8.9996 -1.09244
10.9101 -9.6077 -1.22217
-34.916 23.9784 -3.52457
16.7362 -12.2046 -1.71604
-17.5455 -45.6565 -3.91746
14.6013 -11.4172 -1.47838
-12.0389 -33.7032 -2.82469
-30.457 23.158 -2.95876
-33.8257 23.9091 -3.19757
-23.6453 -54.012 -4.55175
-52.5671 28.6091 -4.53157
-21.8032 20.5201 -2.17795
-34.0569 24.0895 -3.02302
16.276 -12.1613 -1.48669
41.5718 -11.1246 -3.13591
-41.5082 -78.5371 -6.41065
13.9012 -10.9986 -1.26891
-16.0832 -42.6644 -3.14692
10.7255 -9.57854 -0.985442
-23.7928 20.8327 -2.13572
12.8083 -10.5688 -1.11189
17.829 -12.9313 -1.46876
15.9419 -12.0582 -1.32047
-15.1664 -42.0502 -2.89162
43.2865 -11.2577 -2.79637
-33.4223 -67.7188 -4.60847
35.4361 -8.59676 -2.23832
42.488 -9.72475 -2.67648
6.01292 -12.9976 -0.856289
30.509 -20.1876 -2.18991
-10.045 16.7687 -1.14934
-16.0699 -41.9193 -2.55642
16.5038 -12.334 -1.15721
-9.74035 -12.6268 -0.873886
14.8744 7.6311 -0.903618
13.8293 -10.9473 -0.944777
-13.0302 17.6579 -1.14627
-16.9968 -42.1278 -2.41274
14.7688 7.76588 -0.817541
-16.8354 -43.0332 -2.26752
-14.4217 18.2794 -1.11341
9.53466 -8.99369 -0.601342
-25.0227 -57.3991 -2.83373
12.394 -10.1888 -0.744076
-16.6089 -46.2988 -2.18411
-17.7829 -43.8134 -2.02466
6.8169 -12.5873 -0.635357
-14.4266 -43.9766 -1.97177
-54.0437 29.3907 -2.49139
18.2049 -13.0788 -0.91012
16.6916 -12.4068 -0.810325
-43.9893 -85.3792 -3.62413
-18.9475 -49.6866 -1.95892
-34.357 23.6063 -1.52405
42.0463 -10.8338 -1.56408
-36.243 -72.0938 -2.70035
-26.989 -59.1464 -2.18951
19.8445 22.9511 -1.00668
-21.8471 20.4727 -0.975124
8.06039 -14.2259 -0.549466
9.39172 -8.96581 -0.421052
11.253 -9.90662 -0.487547
18.4575 -13.0508 -0.743315
34.429 -12.9854 -1.22169
21.57 26.1103 -1.08513
-27.697 -13.8926 -0.971057
-23.3373 20.7819 -0.951897
-32.3568 22.9166 -1.23683
-26.0971 -59.9979 -2.02706
-14.2425 -40.2912 -1.31673
-22.4562 -57.2823 -1.86356
-17.2355 -46.7119 -1.42702
-34.551 -20.9491 -1.07606
11.4018 -9.67258 -0.40075
16.2355 -12.0757 -0.533725
-42.0361 26.0048 -1.30278
-30.9254 23.5312 -0.960742
-31.4475 23.047 -0.921061
9.53717 -8.97812 -0.303587
-42.1089 14.5538 -0.98396
-32.5238 -54.4613 -1.42931
21.0919 -14.1063 -0.558186
30.128 -18.2686 -0.795882
14.1588 3.91293 -0.299506
26.5161 46.3355 -0.979956
23.3552 -10.8731 -0.454075
46.4454 -10.6948 -0.887156
-31.0956 -22.3464 -0.698196
-30.1173 -29.5812 -0.669523
-19.6677 -48.2594 -0.868575
12.6607 -10.4112 -0.269918
18.3852 -13.285 -0.347016
-29.621 -13.1658 -0.425318
-33.3749 -24.977 -0.579986
-35.0385 -70.635 -1.06567
-28.9451 -61.6042 -0.933695
-34.4852 -23.5516 -0.545154
-30.9467 23.5437 -0.456994
16.8849 -12.6092 -0.250547
28.9769 -17.9671 -0.401809
-31.4006 23.0524 -0.432902
-19.7107 -45.2053 -0.528405
-12.3725 -37.2396 -0.395862
-34.7329 -61.1984 -0.649289
-14.5974 18.5164 -0.180439
-27.0078 -13.6165 -0.244006
-15.2995 18.6497 -0.164415
-22.9808 20.5239 -0.157845
-21.3902 20.0632 -0.132724
-10.6273 -13.6624 -0.0607862
14.6373 7.68934 -0.0197556
11.063 -9.72797 -0.0079201
-35.0155 -19.1787 0.0610845
-11.6544 -34.6369 0.118214
16.8463 -12.2393 0.0901084
-19.4139 -44.5705 0.215144
18.6448 -13.1367 0.12084
7.13981 -12.2731 0.103486
25.7847 -10.5788 0.171116
-56.7167 20.2517 0.575579
16.1468 -11.9664 0.191645
37.0218 -7.5584 0.356212
-29.4061 -8.29187 0.357759
-36.8834 -22.2621 0.475242
-11.6226 -33.3003 0.377538
-13.0628 -36.1973 0.457295
-10.5494 -32.4264 0.408362
6.29298 -12.8628 0.1827
7.18435 -11.0679 0.173389
-28.7591 22.575 0.560893
11.2666 -9.8395 0.224741
-24.5868 21.026 0.534976
10.8569 -9.69382 0.228299
12.9085 -10.6267 0.263252
35.9917 -7.70265 0.612047
-35.1262 -23.5339 0.769106
-31.8877 22.7998 0.770883
6.10672 -12.7589 0.274397
6.99396 -11.0064 0.251139
8.00145 -9.38913 0.240801
26.3324 54.1452 1.31058
7.70531 -9.41474 0.27496
10.0935 -9.14208 0.32843
-29.1401 -9.34408 0.737482
-23.7587 20.7376 0.854339
-28.1427 22.1904 0.963058
