ply
format ascii 1.0 
element vertex 1867
comment /media/mkaihara/Seagate Backup Plus Drive/model_iterations/model_157.ply
property float32 x 
property float32 y 
property float32 z 
end_header 
4.66062 -15.7821 -10.6409
9.16681 -8.80874 -8.17593
5.00163 -15.332 -10.3977
7.74679 -9.28981 -7.74316
8.23929 -8.46045 -7.55182
0.355862 15.6981 -10.014
4.73252 -15.1162 -10.0855
10.8617 -9.5526 -9.19946
7.90565 -9.06562 -7.62425
8.15145 -8.48444 -7.42569
4.71325 -15.7472 -10.3276
-0.390359 13.6202 -8.51995
8.82464 -8.79088 -7.69291
4.22437 -18.6802 -11.8284
7.90889 -9.04537 -7.41887
8.25793 -8.56079 -7.34548
4.25733 -15.3963 -9.78455
8.20992 -8.63122 -7.28425
4.2449 -18.1462 -11.367
0.158275 15.0635 -9.17513
3.75311 -17.837 -11.0329
4.17139 -15.7497 -9.85263
7.03919 -10.8087 -7.74228
8.04235 -9.199 -7.34033
4.19461 -16.5722 -10.1889
8.28196 -8.65752 -7.13841
9.39449 -8.98626 -7.74829
7.00716 -11.0509 -7.78316
7.7198 -9.25314 -7.15337
9.04716 -8.80108 -7.48006
7.98878 -9.15411 -7.11067
8.56841 -8.76218 -7.15424
9.68069 -9.13852 -7.7604
6.75973 -13.3092 -8.61852
9.22921 -8.96127 -7.4301
5.78419 -13.3458 -8.39578
6.8768 -10.8551 -7.40718
9.54202 -9.09187 -7.50602
11.9036 -10.2094 -8.85486
10.7654 -9.46202 -8.06382
6.87468 -11.0922 -7.3261
9.126 -9.07135 -7.21648
9.24105 -9.00914 -7.21703
12.5781 -10.5001 -9.15295
4.64698 -14.3521 -8.43366
10.1794 -9.36771 -7.73397
8.51671 -8.69533 -6.77566
2.74437 -17.3249 -9.67713
14.6973 7.51658 -9.02454
2.71196 -19.9035 -10.9262
2.42536 -8.79061 -4.94609
2.97468 -19.897 -10.8713
14.6678 7.63927 -8.88026
2.36448 -20.2181 -10.8107
10.9324 -9.58811 -7.73648
9.76409 -9.01787 -7.03968
14.858 7.45548 -8.79683
2.36096 -8.80892 -4.82029
1.65797 -19.8503 -10.2889
2.388 -20.8782 -10.7791
13.8822 -11.0922 -9.10708
-9.31816 -2.61157 -4.92659
11.3105 -9.79504 -7.60014
2.17345 -20.2996 -10.2892
0.855323 17.4833 -8.70422
10.9656 -9.6205 -7.27327
-8.88788 -1.95511 -4.46439
2.21293 -20.2472 -10.001
3.84874 -9.18135 -4.89043
11.2302 -9.63677 -7.24561
1.99681 -19.9239 -9.78764
-8.48247 16.2821 -8.90464
2.50295 -11.2012 -5.49203
1.99579 -21.1432 -10.1131
14.8184 7.57455 -7.85666
17.2112 16.119 -11.1513
17.56 16.8242 -11.2976
14.2932 -11.3031 -8.45106
9.78943 -2.6058 -4.69589
17.1403 16.1315 -10.8748
9.7371 -2.46444 -4.64676
-10.3958 17.072 -9.11379
-9.59313 -2.07857 -4.45205
9.83831 -2.60309 -4.61945
10.1675 -2.39421 -4.73151
9.74552 -2.97283 -4.61171
-5.4168 4.46582 -3.16606
8.07221 -8.30818 -5.22365
17.6915 17.2373 -11.0892
17.5645 17.4083 -11.1155
19.0935 5.80817 -8.95286
7.1265 -10.8781 -5.79451
20.2139 5.30727 -9.28607
9.54666 -3.41624 -4.5083
-10.0367 16.5004 -8.57884
-5.36902 4.92069 -3.22731
19.1955 5.54539 -8.83217
-11.4736 17.4946 -9.20933
17.8352 17.6893 -11.0128
-6.61667 15.1742 -7.26952
9.57386 -3.59393 -4.45664
19.9553 5.4078 -8.96412
17.9695 18.2304 -11.0348
17.7623 18.3773 -11.0143
14.7846 7.56604 -7.07866
3.85487 -9.33818 -4.28288
-11.4083 17.3572 -8.77903
-13.5448 3.31762 -5.87914
1.26334 -21.4824 -9.01807
3.24858 -10.1829 -4.47223
14.11 7.6003 -6.70069
18.53 19.3426 -11.2039
3.86311 -9.17059 -4.14465
14.7302 7.68013 -6.89071
18.2092 19.4099 -11.0505
13.946 7.70309 -6.55173
3.99829 -8.46727 -3.83899
6.75988 -10.8306 -5.23022
-13.4729 2.53428 -5.61171
14.8888 7.46189 -6.78797
-8.13382 15.7406 -7.20582
1.1907 -10.6111 -4.33715
0.756838 -21.7835 -8.8278
-13.0282 2.35979 -5.32777
-9.34206 -1.44238 -3.77452
-5.10034 5.6606 -3.02207
2.83352 -11.7552 -4.76987
14.1388 -11.1551 -7.04162
1.51789 19.0404 -7.42101
3.9344 -13.132 -5.30065
18.8826 5.7725 -7.60965
0.886674 -26.4145 -10.0909
4.74458 -8.66637 -3.75059
11.6807 -10.113 -5.87176
19.2389 5.53987 -7.58885
19.9125 23.6061 -11.5313
19.8248 5.3842 -7.66481
20.2107 23.5556 -11.5639
3.25693 -10.8262 -4.21882
-13.2877 17.8972 -8.22684
11.8454 -10.0527 -5.71315
20.214 5.16031 -7.64802
20.7828 24.8443 -11.7647
-8.19462 -2.82558 -3.14061
19.1599 5.68416 -7.19519
2.27972 -13.2277 -4.82999
0.810955 15.712 -5.638
-4.34309 14.1652 -5.28517
-8.24887 -2.80878 -3.10941
6.72555 -10.503 -4.42855
-16.2791 18.8114 -8.79654
15.8733 -11.9865 -7.0479
-11.2847 17.0146 -7.13958
19.2 5.85372 -6.97009
3.71413 -8.66235 -3.25107
-8.95913 16.2954 -6.32992
2.98027 -13.4504 -4.6998
18.8014 -13.4494 -7.90982
33.6636 -20.8569 -13.4622
-15.2036 18.6265 -8.11758
19.9352 5.41656 -6.92575
36.5038 -20.6144 -14.0025
40.0446 -19.7081 -14.8772
16.346 7.3319 -5.96763
3.44581 -10.2538 -3.60726
1.34832 -10.9259 -3.63926
-6.36738 15.196 -5.3759
-12.9226 17.7261 -7.1419
15.6828 -12.0526 -6.43587
6.03458 -9.8323 -3.70847
3.3387 -10.131 -3.42095
-1.14878 -24.027 -7.68193
2.32485 -11.0319 -3.59175
3.22954 -10.0525 -3.34636
2.82611 -9.0395 -2.98697
13.5632 -10.7248 -5.43552
-18.2947 19.7766 -8.43764
-8.72769 -2.65833 -2.85772
1.37145 -21.5557 -6.66953
19.4823 25.2221 -9.604
3.22112 -9.86021 -3.12778
3.45125 -8.98069 -2.89585
-14.6218 18.2887 -7.00672
-21.7869 20.3186 -8.82518
-8.09063 15.7363 -5.20831
4.76437 -11.9694 -3.77452
4.14768 -8.91677 -2.89139
2.06465 20.3784 -6.01297
-4.40473 14.8231 -4.53206
4.0552 -8.95395 -2.87421
-15.5599 18.7216 -7.02178
-33.2698 -47.5437 -16.5974
7.11442 -11.0782 -3.75678
2.54533 -9.47834 -2.78259
-8.42628 -2.20719 -2.45583
4.42849 -10.9929 -3.34191
-2.50459 -25.2437 -7.10701
-9.43735 16.2762 -5.18357
4.35193 -11.2307 -3.32126
8.55732 -8.34677 -3.28495
-13.3174 17.7451 -6.07465
44.8376 -14.8659 -12.8783
-8.74676 -2.44656 -2.45942
-24.9048 20.9036 -8.79618
3.2407 -9.9616 -2.83142
3.39204 -9.96505 -2.84364
-4.34884 -31.2498 -8.46916
-27.3656 20.988 -9.1943
42.0143 -13.8618 -11.694
45.2032 -13.0852 -12.4522
-8.7601 -39.4188 -10.637
-8.55353 -40.3265 -10.8637
-14.7181 18.445 -6.12544
9.80624 -8.91765 -3.46471
11.2715 -10.0085 -3.91626
-10.829 16.8987 -5.19414
-4.37914 -28.6976 -7.53991
3.25708 -9.84755 -2.68174
3.51325 -10.2809 -2.81206
-26.7722 21.2245 -8.76422
4.26595 -11.0254 -2.99159
4.39383 -9.66001 -2.67727
9.44263 -9.13172 -3.31176
6.88798 -11.3181 -3.32588
-27.775 21.4317 -8.76646
43.2561 -12.5912 -11.2426
-11.7284 17.2815 -5.18501
11.7586 -10.1257 -3.83598
3.35826 -10.2156 -2.64649
-25.026 21.0226 -7.99676
9.93716 -8.97429 -3.22174
-7.99137 15.5928 -4.20785
4.03104 -11.9105 -3.03062
14.9791 7.52331 -4.01039
3.37091 -11.0801 -2.77725
3.16103 -9.85944 -2.46801
-6.93864 -39.6713 -9.58295
-11.5686 -44.4337 -10.8838
3.96309 -9.0798 -2.34357
-29.5181 22.0599 -8.7067
14.79 7.56972 -3.89035
-9.6173 16.6149 -4.51045
3.91159 -11.2786 -2.81072
-13.07 17.8205 -5.16619
-26.9923 21.4183 -8.00324
3.47641 -10.2996 -2.49298
10.994 -9.43845 -3.34418
15.5527 -11.7246 -4.46243
-38.4053 27.1738 -10.7596
-12.9619 -45.1199 -10.6977
10.8651 -9.50014 -3.30212
-12.2341 -43.9686 -10.3516
-6.31339 -32.0102 -7.42304
40.1024 -12.3979 -9.5129
-27.6119 21.3313 -7.87368
14.6184 -11.3445 -4.16142
-31.4575 22.8508 -8.72573
4.44574 -5.80011 -1.64032
5.28208 -9.15667 -2.36559
-29.7985 -76.8693 -18.2259
-9.82378 16.4474 -4.2213
4.0964 -9.75285 -2.32834
13.3804 -10.7937 -3.79085
3.9986 -9.156 -2.19753
40.4726 -11.9689 -9.24406
-23.9815 20.9044 -6.93884
3.38696 -10.0793 -2.28201
4.3861 -9.87358 -2.33812
14.8633 7.47129 -3.57291
-29.5655 22.1226 -7.93872
-21.7058 -34.4134 -8.7404
-8.5671 -36.278 -7.97113
-24.9269 21.024 -6.9494
-31.7481 23.0598 -8.35166
3.23937 -9.90384 -2.22416
4.86337 -8.8448 -2.14074
14.6771 7.66383 -3.50356
4.21709 -10.4572 -2.39999
41.1312 -10.7189 -9.00845
-10.7367 16.8199 -4.21139
4.32893 -9.1288 -2.11944
5.14538 -9.02693 -2.17719
14.6847 7.389 -3.42422
-39.0249 25.698 -9.72709
-27.6457 -25.6338 -7.79249
3.02362 -9.46242 -2.06508
-20.1991 -31.5395 -7.71137
3.84638 -9.31163 -2.07912
3.73173 -8.72319 -1.94752
-15.9177 18.8234 -5.04697
-26.1123 -69.2112 -15.1808
3.98149 -8.7669 -1.96916
-14.0573 3.07528 -2.94017
-34.0552 -24.0681 -8.50354
-29.3311 -81.0179 -17.5355
-11.5779 -37.281 -7.93758
43.2322 -9.44151 -8.98964
14.8338 7.57822 -3.33701
-18.0059 -23.8527 -6.00507
12.2843 -10.0387 -3.19075
-19.6755 -56.2832 -11.8974
4.16781 -10.7234 -2.29504
-12.2632 17.5856 -4.26022
-26.6832 20.9957 -6.731
-35.9978 -21.3103 -8.31611
-32.7074 -25.5436 -8.22422
-9.48495 -36.7668 -7.55893
14.4485 -11.3913 -3.64595
4.02023 -9.80147 -2.08867
3.21811 -9.83737 -2.02939
-36.4109 24.0587 -8.48161
-24.1316 -58.1039 -12.1585
-16.5336 -47.7384 -9.633
3.48182 -8.88959 -1.82862
-20.6227 -33.3996 -7.45182
-32.4974 -25.3621 -7.7724
-29.4789 -26.1763 -7.42064
-22.8219 -56.3938 -11.5074
3.87573 -9.06758 -1.87835
-17.2557 -47.0629 -9.37937
3.43559 -9.20443 -1.81419
-32.9698 -24.6082 -7.48903
-31.7832 -27.2516 -7.62985
-33.6963 23.7232 -7.42908
-20.961 -51.859 -9.97862
-31.7402 -25.5684 -7.1682
-25.4788 -65.968 -12.4553
-34.9869 23.283 -7.35908
-17.1729 -48.4263 -9.00755
3.39667 -9.54824 -1.7716
14.0004 7.77005 -2.77611
-29.3174 -25.6955 -6.77981
3.46622 -9.49347 -1.75291
4.78933 -8.64124 -1.71232
-27.3846 21.4998 -6.01711
-31.3663 22.8132 -6.69011
-31.5616 -29.0706 -7.40355
3.87824 -9.98052 -1.84783
13.8541 7.46848 -2.70374
-24.53 -56.3619 -10.452
-21.0278 20.0073 -4.89841
-31.9976 -25.4326 -6.93063
-20.4522 -50.7063 -9.26949
5.58484 -11.7025 -2.18991
41.6719 -11.7694 -7.34195
-18.8375 -50.2729 -9.0372
40.8265 -10.6224 -7.09713
4.98318 -10.6937 -1.96437
-10.5459 16.7673 -3.21489
-30.7747 -23.8226 -6.34174
42.0444 -11.2909 -7.08542
-22.5343 20.4702 -4.93866
-21.188 -52.4184 -8.97773
-23.3402 20.5219 -4.90269
-24.5857 20.9588 -5.02697
-33.6189 23.6817 -6.36282
3.80243 -10.0725 -1.6548
-32.5965 -25.2038 -6.29779
-14.2164 -42.8876 -6.93943
-31.7313 23.0924 -5.9663
-23.661 -56.9448 -9.38948
-7.80039 15.7963 -2.65763
-33.8557 -23.7924 -6.23411
-33.1165 -24.3467 -6.22775
-28.2028 -26.4616 -5.81969
-33.7179 -24.2679 -6.23064
-31.8547 -25.4991 -6.09925
-35.3392 -23.6039 -6.30812
-25.3078 21.2447 -4.87159
-33.6468 -25.1789 -6.19288
-32.5908 -24.6801 -6.03674
-25.9904 21.417 -4.9273
-12.9074 -42.7711 -6.54781
-12.8185 17.5349 -3.12991
-7.81261 15.6313 -2.49314
3.4993 -9.5353 -1.44546
37.9965 -12.4964 -5.68993
-33.9881 -25.0367 -5.97138
-31.0677 -24.6914 -5.5848
-30.5512 -25.7678 -5.62774
-21.2502 -51.2021 -7.72437
-6.97229 15.4503 -2.30244
-14.2303 18.1814 -3.13271
-12.0955 -42.3387 -5.99501
-7.55591 15.3145 -2.29429
-25.4318 -66.2029 -9.59399
-22.7889 20.7246 -4.10281
-25.6219 -58.074 -8.43336
-31.8083 -24.5544 -5.3039
44.7695 -10.3162 -6.0426
44.1581 -9.70728 -5.9568
-13.8652 -43.0887 -5.94819
6.60511 -10.8857 -1.675
-15.2638 18.6959 -3.14175
-23.1988 20.4326 -4.00788
-33.1395 -24.7401 -5.32393
10.6546 8.73853 -1.77816
-34.3281 23.6034 -5.34907
-30.2759 23.0385 -4.79611
-31.4159 -24.5962 -5.03335
-13.0861 -37.2309 -4.9896
9.63009 -9.01295 -1.64617
12.7194 -10.395 -2.06843
-34.4668 24.1787 -5.26477
-36.6515 -22.834 -5.37795
-31.0855 -25.6937 -5.01107
6.74874 -10.2638 -1.53337
-33.4396 -23.6362 -5.07421
-14.042 -43.8082 -5.65794
13.107 -10.9266 -2.09513
41.2893 -10.7311 -5.26835
-16.4533 18.9415 -3.0673
-16.3221 -39.5618 -5.23131
-8.90419 15.919 -2.22245
43.1228 -9.93354 -5.35905
14.9022 7.77933 -2.01859
9.37712 -8.89761 -1.54342
-34.2623 -23.9052 -4.95379
-18.1656 19.7433 -3.13979
-20.984 9.28595 -2.71911
-32.228 -24.9504 -4.80681
11.2316 -9.66183 -1.73496
41.6307 -11.1447 -5.07527
14.6084 -11.3427 -2.12629
14.8305 7.6231 -1.89536
-30.5035 23.1976 -4.37197
7.23085 -10.9804 -1.49234
-10.4359 16.6622 -2.20264
9.40625 -9.27326 -1.47065
12.6985 -10.4297 -1.83274
13.8818 -10.9567 -1.96761
9.41082 -9.07548 -1.45132
7.02572 -10.4043 -1.37556
44.0813 -9.62744 -4.91194
-11.0925 16.6629 -2.15924
-33.8432 23.8643 -4.49747
11.6483 -9.78646 -1.64313
6.13974 -12.626 -1.47732
7.51667 -11.506 -1.43062
9.80251 -8.86451 -1.39074
-15.8567 -45.8206 -5.08333
16.4326 -12.1691 -2.1451
-31.7624 -63.812 -7.39374
14.7743 7.43951 -1.69021
-31.5138 -25.1153 -4.13933
13.7374 -10.8692 -1.7957
-32.2897 -24.977 -4.13044
14.7603 7.71191 -1.67277
-12.8825 17.2282 -2.11448
-21.1058 -53.5119 -5.57419
-34.1302 -68.9466 -7.36541
-23.8206 20.8375 -2.99031
-31.3761 -25.7036 -3.85563
-31.3577 -26.0473 -3.8853
-22.547 -58.9984 -5.9555
-14.3229 18.3278 -2.17778
-31.6333 -24.7483 -3.74841
-16.1575 -44.0088 -4.36739
-14.3571 -44.6238 -4.37261
9.77181 -9.05728 -1.23838
-34.6433 -67.483 -6.98885
8.52652 -8.62337 -1.10136
16.3667 -12.1947 -1.86785
-15.238 18.6926 -2.16397
-36.3307 -22.5969 -3.87181
-33.7903 23.8573 -3.64327
-31.4321 -25.3584 -3.56907
13.9435 -11.0899 -1.58201
-32.5276 -19.8217 -3.2501
10.9886 -9.6434 -1.24523
-27.1515 22.0239 -2.93659
-11.635 -36.2124 -3.2145
9.35329 -8.96826 -1.08826
-34.5266 23.7381 -3.48137
8.64832 -8.6499 -1.00495
16.6269 -12.1261 -1.6816
-17.1975 -44.6873 -3.84847
-22.1059 -50.5676 -4.32037
-15.6556 -38.6493 -3.30556
-13.6454 -38.286 -3.22947
9.15799 -8.89975 -1.00359
11.221 -9.72723 -1.16457
14.7507 -11.5376 -1.48311
-30.5164 23.2711 -2.98644
-29.5394 -13.7884 -2.53252
11.7857 -9.98457 -1.19763
-23.9539 -53.3478 -4.47946
12.6917 -10.5345 -1.25
-43.0932 -81.7558 -6.68918
9.89826 -9.08446 -0.97398
10.8452 -9.68064 -1.01356
-33.6461 -20.8873 -2.73971
11.8787 -9.98342 -1.07474
14.5993 -11.4948 -1.2919
-15.9279 -40.2472 -2.94612
-15.5456 -41.125 -3.01426
18.3996 -13.2973 -1.50766
-23.716 20.7646 -2.09204
-25.803 -59.5224 -4.29063
12.7867 -10.5185 -1.10725
-15.0659 -41.7977 -2.88785
15.1548 -11.4424 -1.23439
-33.8179 -68.4702 -4.79658
-15.5193 -48.1032 -3.14133
-33.4981 23.664 -2.50986
-34.2574 -67.7454 -4.62143
-17.4616 -42.5347 -2.80405
30.4571 -20.1929 -2.22548
41.3982 -10.7956 -2.59803
36.0219 -8.68481 -2.24559
-15.5723 -41.8085 -2.69603
-27.4879 22.3087 -2.00689
-29.2674 -14.4091 -1.8851
-16.297 -42.456 -2.53708
16.7505 -12.4986 -1.17127
-27.4194 -16.5001 -1.72273
41.9712 -9.34899 -2.21203
-9.44038 -12.6139 -0.799886
-15.8764 -42.2521 -2.24882
5.66838 -12.3712 -0.676405
-14.4472 18.3146 -1.13753
-15.6826 -49.2923 -2.54109
14.7754 7.75155 -0.803553
-16.8144 -43.099 -2.19933
-15.1294 -49.2054 -2.4297
18.5428 -13.1561 -1.09013
-17.8731 -51.8328 -2.55828
36.3016 -8.91584 -1.75208
-29.1676 -14.9148 -1.4658
-25.3485 -58.0832 -2.81124
-17.0124 -41.8585 -2.01198
9.61016 -9.06852 -0.589307
12.5214 -10.2772 -0.727325
43.5597 -9.96689 -1.98784
-14.5169 -44.1572 -1.97911
-33.4206 23.6254 -1.70389
-55.0594 29.9024 -2.49828
-34.49 23.7355 -1.53557
-19.5556 -51.1398 -2.05573
-35.0809 -22.0911 -1.48192
9.69701 -9.02434 -0.4872
6.57093 -10.7748 -0.438102
-13.457 -40.1167 -1.40129
7.40414 -12.9961 -0.511104
18.4395 -13.0602 -0.763596
-27.7398 -60.7547 -2.20003
-13.7334 -38.9616 -1.33912
20.7408 23.9213 -1.01595
-23.5372 20.8956 -0.990755
-21.6638 -55.4709 -1.84755
20.8121 -14.1924 -0.766198
-27.8953 -14.3552 -0.950912
-13.4574 -43.0687 -1.34223
-24.5183 20.833 -0.923555
-24.6318 -56.6874 -1.759
-18.1974 -49.251 -1.51536
-34.9289 -21.2823 -1.13131
-9.837 -12.9061 -0.463542
-23.8012 -56.1295 -1.72172
17.8653 -13.3093 -0.567428
29.3156 48.9215 -1.47626
-30.6773 23.4062 -0.991341
-31.8596 23.3027 -0.975461
-27.4967 -13.212 -0.747494
9.51894 -8.95768 -0.316511
-21.2538 -34.2335 -0.939979
-40.9108 14.1909 -0.945998
21.0104 -14.0582 -0.537119
18.2688 -13.1708 -0.422848
12.7306 -10.4586 -0.274677
-33.594 10.6239 -0.581736
-28.5781 -13.6088 -0.501005
-37.6084 -21.4175 -0.657432
-18.6977 -45.8361 -0.766596
-8.07064 16.9726 -0.255143
-33.0089 -24.6587 -0.57136
-34.3801 -23.4372 -0.532576
17.1474 -12.7935 -0.259817
18.0593 -13.0025 -0.282452
28.5508 -17.6051 -0.448085
-22.2966 -57.1062 -0.744683
-30.8662 23.5325 -0.413169
-28.8784 -61.6202 -0.725555
-19.1746 -43.9794 -0.51429
-54.7242 29.9904 -0.51799
-34.9845 -61.7141 -0.654608
-20.8348 -54.6415 -0.556451
36.9817 -8.93428 -0.350082
-14.5606 18.481 -0.164805
-37.3654 -83.2093 -0.625738
-18.4743 -44.8087 -0.330814
9.52604 -8.96366 -0.0408428
14.674 7.72481 -0.028005
-29.7178 -13.2572 -0.0587427
-11.7688 -17.1349 0.025149
-12.996 -19.561 0.0444907
-19.2392 -44.1631 0.19801
9.39336 -8.94319 0.0590085
-33.4481 23.6712 0.213898
-22.6978 -57.3018 0.29723
-30.5356 -14.1721 0.202264
16.6831 -12.1725 0.115234
-13.2549 -20.3231 0.158064
14.5919 -11.3666 0.145365
-54.3425 19.4699 0.512055
7.03203 -12.0824 0.117225
15.8558 -11.7492 0.167321
-37.0053 -22.393 0.453735
37.6552 -7.73935 0.399934
-35.8203 -22.4477 0.481507
-12.8849 -35.5876 0.440877
-13.3698 -35.9523 0.46395
-11.4677 -33.0214 0.424567
-9.8503 -30.4772 0.38691
24.6831 49.9786 0.727271
9.53776 -8.97101 0.169171
-12.9286 -20.0339 0.324366
-11.1647 -33.8913 0.487939
8.52792 -8.47176 0.182141
6.23315 -12.7518 0.20659
7.10345 -10.946 0.199073
9.29513 -9.0109 0.186867
7.98914 -9.06496 0.193141
9.67229 -8.95583 0.217023
37.1441 -7.95799 0.62295
-24.3818 20.9087 0.576296
-33.7013 -22.6743 0.698861
-35.0615 -25.7244 0.761443
12.8167 -10.5288 0.271615
13.1239 -10.5854 0.315812
-9.96332 -12.6325 0.303657
6.78134 -11.1138 0.253765
7.9441 -9.33632 0.240946
25.1819 51.8114 1.15571
6.93033 -10.8932 0.259459
9.13113 -8.63967 0.266967
11.4485 -9.84018 0.330683
17.1053 -7.64021 0.376987
7.16328 -10.8683 0.294503
-12.9348 -19.8564 0.565812
7.6053 -9.25924 0.272849
7.78771 -9.31319 0.281754
-26.2175 22.0353 0.890665
-29.2518 -9.38055 0.771111
9.56591 -8.90048 0.336028
17.3081 -12.6438 0.540185
18.1259 -13.0517 0.555289
-23.4649 20.5438 0.813547
-28.3685 22.4199 0.945034
-29.2633 -8.78292 0.800126
-33.6222 -17.9275 1.03488
-13.5077 -20.3972 0.6499
14.6255 -11.3638 0.494035
22.5045 -3.27432 0.63987
-12.3251 -19.2184 0.66019
24.6912 -4.67745 0.731302
15.9431 24.7418 0.882746
-28.4231 -20.9389 1.0445
7.17326 -11.2363 0.400184
6.9192 -10.6254 0.386108
14.3724 23.4128 0.844014
-7.64234 -8.83089 0.357129
12.9239 -10.5749 0.509801
-7.3399 -9.53973 0.368642
-28.8824 -8.15225 0.999007
-12.0022 -17.5447 0.711581
7.82658 -9.29637 0.402029
15.9476 10.8956 0.69196
10.7842 -9.39026 0.519381
11.8029 -9.97223 0.562927
21.7496 43.7968 1.83736
-7.46647 -8.15165 0.413221
9.59268 -8.90475 0.488569
22.5713 -3.169 0.874932
25.2363 52.1674 2.24487
-7.47066 -9.91588 0.485579
10.36 -9.44875 0.549965
12.6236 -10.4259 0.661396
21.3496 -2.61658 0.876857
-29.5396 -17.9211 1.41273
8.69001 -8.6509 0.506715
-6.93948 -8.48517 0.471204
9.38029 -8.87344 0.539751
12.4791 14.3253 0.839377
-29.229 -8.57824 1.33894
14.43 18.7951 1.06534
14.6061 25.1485 1.29638
20.6833 40.672 2.01873
6.10391 -13.5995 0.664711
10.7682 -9.447 0.647787
18.3208 -1.62591 0.841439
18.6798 35.5668 1.88485
14.5388 25.6161 1.38156
-11.2507 2.79059 0.558691
-7.26514 -9.57635 0.579669
9.11271 -8.93166 0.604282
11.319 -8.68407 0.668031
19.9155 -2.28221 0.965601
11.4805 11.7 0.814301
15.3358 36.8811 1.96418
7.71422 -9.40188 0.598576
10.1171 -9.21428 0.677599
14.1841 24.0521 1.39868
19.269 37.366 2.13459
20.7902 -2.58986 1.06528
-7.42502 -8.53041 0.586774
9.32851 -8.88176 0.670667
16.2801 23.8735 1.51843
15.9706 28.9527 1.72628
12.8957 -10.6294 0.887874
10.41 12.1693 0.856775
13.9259 18.9033 1.26162
10.9958 -9.53442 0.786914
14.6977 19.1498 1.33164
-26.8415 20.5755 1.84958
-6.98485 -8.19473 0.595746
10.1081 12.2205 0.888406
-7.28421 -9.40346 0.666213
9.84727 12.267 0.912558
-28.3149 19.9346 1.96773
6.04487 -12.7663 0.808779
11.0318 11.9255 0.933974
-6.89586 -6.8057 0.56203
11.1213 11.8591 0.957537
-6.82559 -8.43432 0.649431
6.19143 -12.4456 0.812282
14.3378 19.0765 1.43524
13.7602 22.4976 1.57351
12.8924 29.795 1.9487
-6.19401 6.59718 0.55629
-8.1918 -7.76207 0.682712
-7.13544 -8.18568 0.666976
5.66774 -12.3261 0.820454
-7.49896 -6.9042 0.634261
6.95263 -11.0774 0.808722
6.93982 -10.4882 0.784953
11.2557 -9.71591 0.918275
12.0329 -10.066 0.972151
16.0513 7.10876 1.11864
14.5842 18.8928 1.51029
-7.25266 -6.32076 0.62413
10.1962 -9.31238 0.891151
-7.39481 -6.27349 0.636277
11.3209 11.9458 1.12157
9.26997 20.8684 1.55498
-7.29699 -9.68604 0.810233
11.4732 12.4436 1.16128
-6.96746 -4.46508 0.569438
-6.76994 -8.22238 0.72642
-6.71047 -4.44086 0.55526
9.21918 -8.8141 0.887928
9.94392 -7.80165 0.890306
12.4882 15.7395 1.45289
9.75651 -8.23889 0.933754
11.2396 16.8058 1.52007
11.1562 17.786 1.56849
9.3733 17.8402 1.51978
8.78059 18.9758 1.57261
7.08766 21.1238 1.67492
10.531 18.1769 1.60049
9.96251 -7.55863 0.956151
-7.04488 -7.20637 0.772349
-17.3141 -6.28001 1.44043
9.42572 -7.64144 0.951184
9.10912 18.1935 1.60589
-6.38991 -4.26667 0.609385
-6.84839 -8.24241 0.849617
4.83026 -5.72794 0.595706
8.77801 19.3118 1.68252
7.5518 18.464 1.60389
5.02271 -5.78883 0.617473
12.6184 11.3862 1.3773
11.6264 11.6786 1.34948
6.6962 -9.34151 0.934297
12.0795 11.5537 1.3741
6.4701 18.9932 1.64224
-6.36604 -4.39463 0.630674
-7.1866 -9.51149 0.978491
11.3944 11.9374 1.3655
10.3646 9.06719 1.17269
-5.06226 -11.5496 1.06512
6.11459 -6.03482 0.749895
9.17575 -7.14818 1.00037
-6.80983 -6.70732 0.81222
10.2878 12.1919 1.39266
8.75884 -7.29833 0.991046
10.6835 12.0431 1.409
-7.32957 -7.78564 0.93755
8.15776 -7.26245 0.969728
10.0649 12.3022 1.42898
-7.09016 -7.76217 0.932251
-6.95788 -8.36426 0.976525
10.4545 12.1526 1.45572
10.343 13.3418 1.52949
-7.1377 -8.3526 1.00092
11.0869 10.709 1.41788
-6.32386 -4.23748 0.700234
-6.88155 -8.61895 1.00917
-6.33788 -4.40098 0.711507
10.9783 8.4722 1.30137
10.5318 9.23262 1.30595
6.34571 15.0739 1.53813
10.3793 11.1661 1.44262
-11.2969 2.89486 1.10253
6.14613 -5.95424 0.815804
7.97745 -6.61334 0.995274
10.6322 9.10461 1.35893
9.39342 12.3597 1.50319
9.57773 12.2912 1.53521
7.55262 12.0786 1.41507
7.78431 13.0129 1.50934
11.1228 7.98726 1.39562
7.02488 12.5004 1.44708
8.94547 11.2104 1.45933
6.87389 13.3075 1.53278
5.74972 13.662 1.52152
9.09096 10.3641 1.42489
8.9065 12.1337 1.56385
11.2888 7.59113 1.41917
9.15026 9.8956 1.40329
4.96897 -5.81453 0.82109
-6.85888 -4.66493 0.875268
5.46171 13.6069 1.55607
-7.07311 -4.51566 0.895218
8.82153 10.57 1.47821
-6.78177 -6.79149 1.02683
5.90038 -5.82386 0.895506
9.60072 8.45284 1.37882
8.86922 9.26354 1.37941
9.153 10.2033 1.48616
4.67494 13.5484 1.54655
4.22706 -8.03915 0.983911
6.37815 10.6705 1.36793
-6.81394 -3.93215 0.866276
6.2496 11.7179 1.47339
-6.90831 -3.87043 0.877585
9.63302 7.14756 1.34141
6.57511 11.2214 1.44842
9.7286 6.97524 1.34485
5.34744 11.3993 1.42356
5.34767 11.8906 1.47243
4.61622 12.0126 1.45588
9.76081 6.63415 1.34507
-6.90539 -4.57262 0.948831
7.38783 -6.21418 1.10039
-7.35004 -0.787522 0.848093
-6.28606 -5.40019 0.954704
5.24502 -5.56364 0.882272
8.80052 7.82379 1.3719
4.41336 -7.17546 0.97589
10.3469 5.12234 1.35208
8.88457 7.72905 1.38429
5.19661 -5.60742 0.903198
8.52982 7.85154 1.37564
8.81671 8.96945 1.4715
-7.06359 -5.66376 1.07156
10.0798 4.71983 1.32611
-6.9322 -3.85934 0.95635
9.07877 6.10306 1.3268
5.1295 11.2434 1.49793
-6.90669 -3.07157 0.918857
-6.89093 -3.25789 0.92216
4.87801 -5.94897 0.938983
5.96518 -6.12009 1.04055
9.31367 5.58644 1.34258
8.39778 7.16945 1.36522
-6.96438 -4.31922 1.00987
-6.89558 -4.54409 1.01816
8.18388 8.50746 1.46454
4.953 11.1387 1.51348
-6.56364 -5.62928 1.07642
3.70532 -7.56735 1.05004
8.43407 7.67979 1.4273
6.06989 -5.61 1.03626
9.10596 6.0208 1.3834
-6.14564 -5.42289 1.03453
8.48904 6.56713 1.36872
8.02425 7.45013 1.39286
-7.1165 -1.78681 0.938998
-7.02809 -2.31081 0.945333
-6.458 -5.3291 1.06859
8.77358 5.62479 1.33606
8.08599 7.97734 1.46396
-7.2808 -1.25621 0.947953
-6.91155 -4.12713 1.04113
7.38198 6.17946 1.24686
8.01831 6.98856 1.37921
7.90066 8.05565 1.46211
-6.92389 -2.83176 0.974361
-6.92514 -2.97191 0.974729
4.48895 9.9405 1.43318
8.95021 4.08918 1.29521
-7.26407 -1.60979 0.978325
6.82884 -4.25247 1.06914
4.92563 -5.9405 1.0231
-7.35066 -1.11981 0.995853
-7.02853 -2.20383 0.985844
-7.06579 -2.27326 0.99214
-6.00379 -4.40475 0.995528
5.1825 -6.55732 1.1139
6.89926 -4.16934 1.08523
8.01167 7.11529 1.45157
-7.1668 -1.72194 0.991465
-7.09742 -1.95979 0.990843
8.74342 4.82706 1.35647
8.2781 5.83514 1.37702
-6.93455 -3.62612 1.06677
8.82024 4.13956 1.33641
3.28716 10.3304 1.48368
-7.32984 -1.20274 1.01738
-6.01912 -4.44814 1.02974
-5.99958 -4.5471 1.03098
7.13575 -3.92744 1.11948
8.01551 6.4405 1.42205
5.29643 8.95179 1.44015
-6.39301 -4.32878 1.05885
4.93128 -5.52397 1.02864
7.1732 -3.82328 1.13125
7.54517 -3.67928 1.16149
3.56306 9.88404 1.46262
3.37613 10.1579 1.49193
-7.38676 -1.08469 1.04291
-7.08813 -2.00789 1.02718
4.97086 -5.28609 1.01434
7.23458 -3.73135 1.14357
7.35028 -3.66589 1.16495
7.85646 -3.34969 1.21415
-7.16968 -1.87863 1.05464
-7.02148 -2.95148 1.10428
-6.01691 -4.37999 1.07079
7.89075 -2.7772 1.2239
8.18953 4.59649 1.37593
4.941 8.46417 1.43626
8.32658 4.48389 1.39769
7.81649 -2.33659 1.20259
7.10374 5.65491 1.35965
2.91547 9.30506 1.45748
-7.10807 -2.02355 1.10822
7.47256 -3.10501 1.21987
8.18655 4.52431 1.4178
5.73972 7.38157 1.41976
5.2461 7.56823 1.40309
5.08046 7.87112 1.42285
5.03318 7.97699 1.42738
7.32375 -3.16547 1.21858
7.66727 -2.75179 1.24048
-6.76868 -1.68592 1.05129
7.81841 -2.25301 1.2477
7.19507 5.39618 1.38099
-7.1177 -1.95632 1.1461
-6.93262 -2.79102 1.16211
6.77674 5.4967 1.36863
-7.3724 -1.09827 1.1649
-7.15885 -1.82788 1.15778
-7.06028 -2.07155 1.15348
-7.13534 -1.87627 1.15842
-6.90757 -2.93959 1.17905
4.77016 7.39624 1.39952
3.44745 -6.03392 1.10961
-7.29197 -1.30231 1.18729
3.52957 -5.71005 1.08135
3.56655 -5.61552 1.07076
7.04511 4.74884 1.38444
4.6251 7.32004 1.40904
-7.08515 -2.02753 1.20167
-7.10739 -1.95087 1.21005
6.94074 4.80952 1.3965
3.78217 7.85694 1.44339
6.05022 -3.31763 1.14938
6.60983 4.85571 1.36747
4.62865 7.11401 1.41558
3.83778 -5.30242 1.10006
7.08266 4.4104 1.40485
7.45723 2.85148 1.34924
6.29586 5.26304 1.39074
-7.29562 -1.25858 1.26143
6.73367 4.07112 1.35132
-6.46091 -2.7763 1.20047
5.50835 -3.62892 1.13305
5.68915 -3.51756 1.14834
2.72563 7.76696 1.42264
-7.39019 -1.04202 1.29462
5.33302 -3.78286 1.13969
-6.32071 -2.26318 1.1648
-6.28081 -2.42038 1.1792
4.28222 -4.66582 1.10737
4.49482 -4.47796 1.11288
4.59231 -4.44959 1.12172
-6.8142 -1.73593 1.23938
4.30651 6.46082 1.38491
-7.17614 -0.930425 1.29421
-6.15306 -2.26104 1.16829
6.62272 3.68261 1.35835
6.0819 4.34884 1.35612
3.61055 -5.33012 1.17069
5.12528 5.66039 1.39658
2.49209 7.13057 1.41842
6.47154 3.04578 1.35231
-1.70501 -5.77823 1.14065
6.4222 -1.38506 1.24647
6.26153 2.77272 1.31839
6.20819 2.37758 1.32628
-4.4766 3.96165 1.40664
4.31488 3.52594 1.33264
4.20151 3.28466 1.3201
4.66481 -1.6776 1.24464
4.81772 -1.38065 1.25361
-2.16293 4.84823 1.32786
3.72946 -2.95488 1.22304
3.67547 -2.55114 1.19423
3.40957 -2.96422 1.22668
3.99546 2.56369 1.32643
-2.5921 -3.53119 1.25036
-2.32331 -3.56665 1.21549
3.74778 2.05384 1.29908
3.72472 1.97647 1.29859
-2.85738 3.50466 1.3963
-2.29358 -2.41656 1.18668
1.95986 -2.78712 1.21519
-2.13179 2.77931 1.3319
-2.03623 2.76724 1.33805
2.25456 -1.87268 1.22702
2.3835 -1.50022 1.22371
-2.02027 1.88198 1.30074
-2.06198 -1.44146 1.22798
1.45334 -2.07491 1.24815
-1.99019 -1.08669 1.21422
-1.92306 -0.707053 1.22005
-1.92483 -0.702863 1.24566
-1.95448 -0.344109 1.2294
-1.8912 -0.564228 1.23009
-1.89085 -0.530468 1.23521
8.20029 -8.67874 -7.44785
12.065 -10.236 -8.75677
-8.9043 15.8982 -7.07274
20.1998 24.5965 -11.4311
-8.83102 -2.52905 -2.58852
-35.1015 -23.4479 -7.79742
-34.6788 -22.679 -6.1135
-34.4106 -23.3849 -6.17807
-31.68 -20.3176 -2.83006
9.24882 -8.80924 -0.390412
-7.90286 17.0347 -0.463242
-29.8257 -11.5416 0.737051
-6.93917 -8.29349 0.461994
16.3349 23.4561 1.55319
11.2144 15.7715 1.60068
-6.70948 -6.68245 0.885665
4.1495 12.0399 1.46725
8.65306 9.01336 1.46146
7.96105 -8.75174 -10.3652
8.81817 -8.52646 -10.4813
6.94727 -11.9216 -11.4993
6.86324 -11.3357 -10.8821
8.14076 -8.25303 -9.51936
7.01321 -12.0151 -11.3134
7.05649 -10.9588 -10.4429
7.99058 -8.36573 -9.19088
6.7186 -11.2705 -10.2762
6.43689 -11.683 -10.2011
7.74658 -8.83853 -8.96009
6.19706 -14.299 -11.794
8.28563 -8.68753 -9.08751
6.29184 -11.895 -10.1637
6.14022 -12.075 -10.1021
7.47994 -9.43135 -8.98815
7.89847 -9.04375 -8.91486
10.4406 -9.42581 -10.462
6.11405 -14.102 -11.3616
6.09701 -13.6607 -10.9992
6.12384 -12.563 -10.2802
9.17758 -8.8078 -9.33175
9.26519 -9.054 -9.44878
5.85788 -12.4917 -10.0234
9.34102 -8.97095 -9.24326
6.85047 -11.1086 -9.26294
5.60923 -12.957 -9.99375
9.66858 -9.05936 -9.39039
7.5979 -9.3308 -8.46058
9.97235 -9.16399 -9.51525
10.8892 -9.46922 -10.1262
11.407 -9.67017 -10.0435
8.37161 -8.59475 -7.94375
7.41978 -9.2852 -7.85362
8.15415 -8.70435 -7.88391
7.61628 -9.33779 -7.88399
7.82483 -9.38785 -7.83319
8.30729 -8.52189 -7.60813
0.362905 15.8815 -10.1348
7.51604 -9.30994 -7.61475
10.8799 -9.58024 -9.21766
7.21284 -10.6831 -8.15879
8.14254 -8.48435 -7.41639
4.60964 -15.3984 -10.1094
8.70062 -8.68801 -7.60766
7.9094 -9.01901 -7.39973
4.04566 -18.0129 -11.3727
8.1852 -8.61451 -7.2649
4.08538 -17.3102 -10.853
0.14864 14.8884 -9.05867
6.64337 -11.2444 -7.95211
7.73126 -9.25476 -7.31728
10.0971 -9.28633 -8.32443
6.80954 -11.2338 -7.8868
8.04741 -9.18972 -7.33272
11.2334 -9.66641 -8.86102
5.39386 -13.8414 -8.81101
7.72305 -9.25214 -7.14758
9.33153 -9.0149 -7.6886
6.89061 -11.0972 -7.73165
7.9707 -9.11372 -7.10469
9.72951 -9.16576 -7.79043
14.7712 7.38074 -9.58858
8.65055 -8.8141 -7.13652
6.92153 -10.9472 -7.44412
2.63754 -11.2037 -6.62007
7.84729 -9.05731 -6.86387
9.58185 -9.11813 -7.51393
10.7633 -9.46952 -8.08766
3.28088 -20.6174 -11.7406
6.79085 -10.9664 -7.23165
10.0797 -9.2671 -7.66833
12.2923 -10.3144 -8.99927
9.22047 -8.98825 -7.1956
4.60881 -14.274 -8.36298
7.98937 -9.19984 -6.76756
14.6928 7.51148 -9.05804
9.67379 -9.08497 -7.28883
0.839385 17.4572 -9.543
2.74354 -19.8815 -10.9437
11.0968 -9.61627 -7.97301
4.22457 -14.3948 -8.12145
14.6066 7.63832 -8.87719
14.9807 10.3426 -9.77241
13.9463 7.69365 -8.5092
10.917 -9.58853 -7.72713
13.2074 -10.7555 -9.06126
3.04612 -19.3563 -10.301
11.3187 -9.79308 -7.61616
2.16946 -20.4048 -10.3571
10.2299 -9.31372 -6.95718
14.2046 -11.2355 -9.09392
13.7405 -11.1139 -8.84789
10.9709 -9.62271 -7.27082
7.49374 -9.31954 -5.92253
3.56092 -8.46321 -4.52516
-8.72926 -1.91663 -4.39433
2.22608 -20.2008 -9.96784
4.5291 -9.29393 -5.05645
0.40615 13.6494 -6.68373
7.59266 -9.25179 -5.84062
-8.59631 16.4087 -8.97327
-9.23298 -2.44085 -4.60187
14.9156 -11.5185 -9.05711
19.2488 5.50739 -9.57377
-10.3551 -2.56377 -5.04597
1.90996 -20.5786 -9.82745
17.0486 16.0202 -11.078
7.56326 -11.182 -6.37037
19.893 5.36941 -9.7026
13.9642 -11.056 -8.28322
2.92306 -17.3035 -8.16052
19.2254 5.68829 -9.26142
17.7282 -12.9199 -10.1338
9.83758 -2.48479 -4.68789
20.1455 5.10604 -9.58779
17.171 16.1461 -10.859
1.81164 -20.2608 -9.30955
9.64573 -9.01979 -6.04743
-9.2434 -1.67777 -4.28468
9.42775 -3.45931 -4.57362
6.69467 -11.2862 -5.96928
9.88463 -2.61083 -4.63703
19.1185 5.82976 -8.99755
17.5418 17.3988 -11.1047
9.3443 -3.07807 -4.42818
15.3405 -11.8045 -8.68727
7.01676 -11.5291 -6.03733
7.13287 -10.8891 -5.80274
9.53336 -3.39547 -4.5096
-10.1364 16.6167 -8.6671
17.5375 -12.7993 -9.64882
19.4028 5.58935 -8.9488
16.0042 7.2591 -7.7809
17.6454 17.8218 -11.0893
16.3283 -12.1438 -8.96949
-11.4248 17.3751 -9.14187
-6.64655 15.1935 -7.27274
-5.26501 4.93875 -3.14606
19.9941 5.42868 -9.00635
9.53233 -3.39576 -4.36692
18.0297 18.2731 -11.0311
15.7301 -12.1053 -8.54179
14.7747 7.38707 -7.04874
3.83347 -9.29007 -4.27015
-11.3438 17.255 -8.74368
6.92556 -10.8774 -5.43785
-13.6772 3.35198 -5.93343
0.743497 -22.4555 -9.46801
15.7211 -11.9037 -8.24737
-5.19749 5.72387 -3.23559
0.999825 -22.3219 -9.36636
1.23142 -20.8056 -8.73158
14.0887 7.55596 -6.68568
18.349 19.121 -11.0704
3.77849 -8.94503 -4.04958
14.6863 7.68498 -6.89854
17.7283 18.9331 -10.7617
-9.5488 -1.09592 -3.96783
4.0047 -8.49726 -3.84876
13.9557 7.70571 -6.54325
6.82505 -10.957 -5.27804
-13.7133 2.56175 -5.70726
-8.08883 15.6732 -7.16893
19.0283 20.6753 -11.3812
14.9867 7.20097 -6.69825
-5.34571 14.6041 -6.23673
13.8813 -10.9745 -6.93152
1.52678 19.1413 -7.45611
-8.89179 16.0615 -7.13579
18.8674 5.75385 -7.64205
-1.76367 13.3816 -5.22849
5.28623 -9.37747 -4.15167
-2.40214 13.6134 -5.31025
19.3371 22.3682 -11.3352
4.65534 -8.50619 -3.68268
19.2895 5.53373 -7.63553
0.880265 -26.7204 -10.1593
14.8224 -11.4223 -7.043
19.8428 5.37576 -7.69366
9.41868 -3.43153 -3.74766
0.535265 -22.8548 -8.51856
3.24074 -10.7695 -4.20212
19.9217 23.176 -11.347
0.9108 -8.73379 -3.25633
13.9566 -11.053 -6.56531
20.2466 5.14947 -7.68065
17.6943 17.4833 -9.08836
-13.1209 2.29868 -4.84321
20.5503 24.5392 -11.6063
2.28185 -13.2325 -4.83803
12.9737 -10.4918 -6.00452
0.796364 15.389 -5.51252
-8.2236 -2.80634 -3.10814
0.410556 -21.9895 -7.8613
-4.27952 14.0515 -5.22622
0.63926 -22.0348 -7.83343
15.7615 -11.9041 -7.00141
-16.0464 18.5516 -8.64589
5.91622 -11.3158 -4.49007
-11.2343 16.9547 -7.10538
14.1917 -11.2473 -6.33236
20.2013 5.32018 -7.29099
0.658943 -23.1739 -8.00598
-5.10001 14.8104 -5.36857
3.63599 -8.44078 -3.16375
4.86987 -9.02102 -3.51315
-14.7973 18.3719 -8.07614
2.27326 -10.8796 -3.80914
-9.05807 16.4337 -6.39817
3.01615 -13.649 -4.76645
-15.2825 18.7584 -8.20399
20.0203 5.44322 -6.97287
21.6921 26.8334 -11.5295
35.5724 -20.081 -13.6526
-5.40158 14.3311 -5.08825
1.90341 20.5928 -6.86021
1.26766 -10.2529 -3.41591
-5.34669 14.7269 -5.09032
-12.8401 17.5792 -7.06342
18.427 -13.1309 -7.34872
3.55877 -8.67055 -3.00502
6.20608 -10.0909 -3.79686
2.31305 -11.0079 -3.57964
-4.64925 -34.906 -11.1908
-1.15322 -24.1266 -7.68761
14.9099 10.2685 -5.71237
-13.4782 17.9361 -7.09303
-18.3776 19.8225 -8.4986
6.94051 -11.0612 -4.03759
1.38893 -21.9894 -6.81578
-2.61566 -27.8398 -8.58187
7.06545 32.6147 -10.1803
0.771242 14.9763 -4.55392
-11.3626 17.1452 -6.20095
-2.74878 -26.9744 -8.164
-14.6425 18.3084 -6.9964
-5.39768 -35.378 -10.6543
0.842851 -25.2712 -7.55971
-5.49928 15.1297 -4.79028
2.06704 20.5336 -6.07863
-21.7375 20.2688 -8.76983
18.0955 5.75834 -5.58899
-4.37373 14.697 -4.51017
-8.08628 15.6898 -5.18016
4.24977 -9.13055 -2.96024
4.62565 -11.5911 -3.64953
-12.695 2.23642 -3.70497
-34.0116 -48.177 -16.9675
-15.5132 18.6631 -6.9778
6.93539 -11.0462 -3.7554
2.56214 -9.54062 -2.80697
12.8778 -10.4239 -4.71532
-8.47486 -2.46644 -2.50285
20.741 26.748 -9.58755
-8.6033 -2.2675 -2.51419
-2.60463 -26.564 -7.48886
-13.105 2.00819 -3.69223
4.37648 -11.3007 -3.36394
-9.50273 16.3436 -5.19179
-13.329 17.7774 -6.1042
-5.50326 14.6914 -4.28963
-8.75072 -42.4852 -11.8661
-21.9391 20.4735 -8.0682
-9.93196 16.4705 -5.15579
-27.3111 20.98 -9.16293
11.3484 11.4215 -4.24732
4.31537 -11.2659 -3.19637
46.3509 -13.4743 -12.7884
-8.464 -39.9357 -10.7276
4.08301 -8.64362 -2.51727
11.1293 -9.89905 -3.89678
-14.7568 18.4773 -6.14998
6.52116 -10.3998 -3.17746
3.17414 -9.63471 -2.62263
-31.0356 -45.4545 -14.2107
-4.47217 -29.3268 -7.67352
3.53409 -10.3523 -2.8209
4.06165 -9.37226 -2.62562
15.5169 -11.6676 -4.95407
-7.3113 15.5781 -4.35731
-32.4649 -43.2959 -13.7213
4.30081 -11.1164 -3.01708
4.25015 -7.69532 -2.23745
6.51742 -10.6312 -3.11023
44.0961 -13.332 -11.4867
-28.9168 21.8167 -8.95636
-11.7714 17.295 -5.15874
-28.3388 -41.3395 -12.322
-10.2065 -40.1682 -10.221
-25.0193 21.0143 -8.03021
4.3409 -10.3107 -2.7489
-12.3158 17.6417 -5.21789
-8.00946 15.6074 -4.22964
10.2414 -9.23793 -3.30269
39.7109 -13.191 -10.0141
15.0236 7.51336 -3.99832
-6.50131 -37.2228 -8.99924
3.96058 -9.07614 -2.3466
46.228 -12.3725 -11.3588
-12.6034 -46.4004 -11.3879
3.84395 -11.0253 -2.7523
4.89995 -8.6783 -2.34468
-13.0466 17.78 -5.13345
10.9675 -9.61144 -3.33334
-6.3443 -32.1662 -7.4794
-27.756 21.4375 -7.95056
-31.206 22.6572 -8.64677
-36.0877 -23.6491 -9.66702
40.1339 -12.4067 -9.43278
5.44254 -9.45345 -2.43566
-12.4842 2.84863 -2.80974
40.0047 -11.7232 -9.21135
41.9373 -11.9659 -9.59561
-5.49949 14.432 -3.37841
13.3249 -10.7224 -3.76507
37.5442 -12.0655 -8.67025
-23.8934 20.8245 -6.8757
-31.3338 -77.2482 -18.085
4.29953 -9.67735 -2.29661
4.5295 -9.16081 -2.20757
-14.8855 18.5462 -5.07961
-31.6612 22.9981 -8.35653
-32.5665 23.1113 -8.53705
-30.0115 -79.6221 -18.2353
-10.9172 17.0596 -4.29577
-8.69759 -36.9164 -8.06345
3.18318 -9.6639 -2.1699
3.9558 -9.8036 -2.25433
45.0384 -10.442 -9.86999
14.857 7.44159 -3.52218
-15.4755 19.0507 -5.19751
5.15334 -9.0362 -2.18567
25.9698 37.5733 -9.5422
14.8943 7.79487 -3.4896
-30.6633 -23.6814 -8.03663
-11.6888 17.2226 -4.2308
-15.9447 18.8521 -5.02744
-36.0401 24.1927 -8.82091
43.7196 -9.53604 -9.12593
-13.7618 -44.2802 -9.42215
4.12564 -9.71039 -2.1468
11.5562 -9.60631 -3.0578
-12.2468 17.5755 -4.27719
-20.9147 -60.0228 -12.7006
-13.4021 -41.6304 -8.65706
4.05967 -9.89688 -2.11821
-34.7265 -23.7456 -8.29263
-27.307 21.4316 -6.83256
-33.7375 -24.133 -8.08531
-7.04322 15.5654 -3.31753
-27.9257 -65.6147 -13.8488
-34.1409 -22.7287 -7.90323
3.42815 -9.34143 -1.92167
45.122 -10.4545 -8.89483
-13.0083 17.7609 -4.20949
3.98009 -9.32373 -1.93486
-37.0962 -22.5332 -8.21571
-21.7794 -35.38 -7.90042
-16.1923 -46.7197 -9.35407
37.3751 -12.3292 -7.44075
-36.8314 24.737 -8.30367
-34.2899 -23.6814 -7.82803
-33.2242 -24.3082 -7.72721
-22.2437 -55.1055 -11.1796
-17.532 -47.6204 -9.4112
3.81455 -9.19345 -1.83862
41.921 -11.2984 -8.06321
5.74275 -9.68777 -2.06423
-25.6476 -58.1561 -11.6349
-21.2802 -52.8175 -10.2976
-14.8564 18.5191 -4.21057
-31.6514 -25.5276 -7.22747
-20.6505 -27.5173 -6.15181
-40.3667 25.4718 -8.42191
-27.3193 21.4508 -6.04601
-34.882 23.8694 -7.33904
3.89933 -10.024 -1.86528
4.76341 -8.59731 -1.70823
13.9196 7.47515 -2.72453
13.9896 8.02778 -2.7619
-31.5116 22.9148 -6.67979
41.6057 -11.7711 -7.36212
41.4141 -10.7259 -7.28338
-31.8083 -25.2618 -6.89013
-21.49 20.4665 -4.98392
-21.2536 -52.8272 -9.61968
14.7691 7.40223 -2.77016
-32.4041 22.9402 -6.6322
-24.637 -58.7375 -10.5233
42.8906 -11.5543 -7.22074
-10.5624 16.7689 -3.19895
-21.564 -53.4963 -9.19769
-35.5234 -24.522 -6.8015
-23.2284 20.4082 -4.84208
-24.6676 21.0578 -5.02708
-41.0829 24.8742 -7.44226
-11.4471 17.133 -3.18172
3.46391 -9.50659 -1.56503
3.85758 -10.2012 -1.68895
-7.78936 15.7996 -2.6917
-31.7518 23.1098 -6.0034
-32.3166 -24.9604 -6.20888
-28.4301 -26.5931 -5.89713
41.5962 -10.8137 -6.53357
44.1733 -9.62373 -6.88836
-6.68715 14.8958 -2.44421
9.80937 -5.14184 -1.64382
-34.0844 -24.5835 -6.25796
10.1591 -9.13411 -2.03617
44.3077 -10.25 -6.75455
-37.3285 -24.8491 -6.59931
-32.0785 -26.4597 -6.08251
-13.1486 -43.5645 -6.69434
16.8109 -12.1626 -3.03986
-25.9073 21.3302 -4.87715
-25.8008 -57.809 -9.12107
-7.78394 15.5912 -2.4928
-12.9609 17.6717 -3.12516
6.01075 -11.4836 -1.85249
-13.6794 18.2841 -3.20821
-35.499 23.9802 -6.02294
6.73474 -11.0009 -1.80315
37.0954 -12.2421 -5.49488
-31.695 -25.3972 -5.66804
-33.7603 24.2618 -5.75942
-21.4226 -51.6315 -7.7197
44.4545 -9.94492 -6.28217
-7.02869 15.5453 -2.33248
-23.8085 -62.1361 -9.03802
7.73037 -9.35519 -1.62885
-14.2787 18.2317 -3.1223
13.1527 -10.4903 -2.27674
-22.6644 20.616 -4.12013
41.5156 -10.7338 -5.69358
44.1867 -9.67863 -5.98794
-23.047 20.2815 -4.01468
-33.2607 -24.8885 -5.42574
-15.1876 18.5979 -3.1051
-34.7862 23.2178 -5.42973
-38.9689 -16.4542 -5.46132
6.99331 -10.4005 -1.60832
10.7067 8.76576 -1.7762
-34.3915 -23.7004 -5.3447
-32.1345 23.4588 -5.0329
-36.2003 -22.5894 -5.34805
41.3882 -10.7036 -5.3506
6.77347 -10.3333 -1.54414
-7.82455 15.6511 -2.16745
-25.5256 21.4333 -4.08149
-34.1545 24.071 -5.15428
6.2679 -12.0212 -1.65194
44.1408 -9.41729 -5.52894
14.9073 7.81005 -2.02298
-18.5855 -45.013 -5.87158
7.06266 -10.4967 -1.52358
-20.7625 9.20164 -2.68787
-14.8686 -44.9763 -5.56917
-32.4024 -24.9817 -4.78386
-31.8807 -25.4964 -4.77675
41.465 -11.1072 -5.04599
11.1879 -9.63477 -1.71083
-30.5313 23.1501 -4.40826
6.61939 -10.7855 -1.44902
7.46971 -9.19664 -1.35545
11.5371 -9.6851 -1.71118
9.42929 -4.60002 -1.18808
14.8867 7.64981 -1.88591
-10.5611 16.8133 -2.24134
-32.9106 24.0479 -4.56627
38.3613 -12.628 -4.52979
9.32769 -8.99503 -1.43383
-11.2867 16.9277 -2.21219
6.75969 -12.7265 -1.56135
44.2791 -9.62336 -4.91299
10.7036 8.79565 -1.49259
16.6655 -12.3796 -2.22861
41.6549 -10.8034 -4.61181
9.58833 -8.94999 -1.38983
8.3574 -8.4423 -1.24464
-31.4303 -25.1516 -4.19147
-31.5889 -63.3611 -7.38523
14.8842 7.46458 -1.70088
-32.339 -24.9354 -4.18966
-13.111 17.873 -2.25108
-13.0219 17.4463 -2.16423
10.173 -9.05728 -1.33457
-21.7888 -55.335 -5.82985
6.28616 -12.0382 -1.31479
16.5372 -12.0988 -1.97006
41.5447 -11.1636 -4.12426
-32.1865 -65.061 -6.89986
-21.8092 -57.2336 -5.81622
-23.7718 20.7928 -2.95246
44.9558 -10.0008 -4.30235
9.68519 -8.95805 -1.22148
39.1694 -12.9209 -3.8442
-15.3144 18.7729 -2.19424
-30.071 -13.7103 -3.01233
-33.8736 -66.0337 -6.8404
15.7621 -11.7977 -1.79144
8.61184 -8.70255 -1.10887
12.8297 -10.5903 -1.44898
44.5477 -10.3252 -3.91804
9.37229 -8.99954 -1.09246
10.91 -9.60758 -1.22219
-34.9227 23.9829 -3.5252
16.7356 -12.2042 -1.71601
-17.5502 -45.6687 -3.91854
14.6009 -11.4169 -1.47837
-12.0409 -33.7087 -2.82518
-30.4627 23.1623 -2.95927
-33.8324 23.9138 -3.19816
-23.6524 -54.0282 -4.55315
-52.5796 28.6159 -4.53259
-21.8069 20.5236 -2.17829
-34.0631 24.0938 -3.02352
16.2753 -12.1608 -1.48667
41.567 -11.1233 -3.13562
-41.528 -78.5746 -6.41374
13.9008 -10.9983 -1.2689
-16.0872 -42.6751 -3.14774
10.7253 -9.57841 -0.985458
-23.7968 20.8362 -2.13605
12.808 -10.5685 -1.11189
17.8283 -12.9307 -1.46874
15.9413 -12.0577 -1.32045
-15.1704 -42.0612 -2.89241
43.2814 -11.2564 -2.79611
-33.4346 -67.7438 -4.61021
35.4328 -8.59596 -2.23817
42.4833 -9.72366 -2.67624
6.01293 -12.9976 -0.856319
30.506 -20.1857 -2.18976
-10.047 16.7719 -1.14955
-16.0739 -41.9299 -2.5571
16.5031 -12.3335 -1.1572
-9.74066 -12.6272 -0.873929
14.8735 7.63064 -0.903581
13.8289 -10.9469 -0.944785
-13.0324 17.6609 -1.14645
-17.0009 -42.138 -2.41335
14.7679 7.7654 -0.817508
-16.8396 -43.044 -2.26812
-14.4243 18.2826 -1.11359
9.53459 -8.99363 -0.601366
-25.0309 -57.418 -2.8347
12.3937 -10.1885 -0.744089
-16.6135 -46.3117 -2.18476
-17.7874 -43.8246 -2.02521
6.81674 -12.587 -0.635373
-14.4307 -43.9892 -1.97238
-54.0565 29.3977 -2.49191
18.204 -13.0782 -0.910116
16.6909 -12.4062 -0.810329
-44.0093 -85.418 -3.62582
-18.953 -49.7013 -1.95953
-34.3632 23.6106 -1.52429
42.0419 -10.8327 -1.56398
-36.2575 -72.1226 -2.70147
-26.9982 -59.1666 -2.1903
19.8416 22.9478 -1.00654
-21.8507 20.4761 -0.975259
8.06006 -14.2253 -0.549477
9.39165 -8.96575 -0.421078
11.2528 -9.90643 -0.48757
18.4566 -13.0501 -0.74332
34.4258 -12.9842 -1.22164
21.5664 26.106 -1.08495
-27.6993 -13.8938 -0.971133
-23.3413 20.7854 -0.952028
-32.3627 22.9207 -1.23701
-26.1058 -60.0179 -2.02778
-14.2459 -40.301 -1.31709
-22.4637 -57.3015 -1.86423
-17.2406 -46.7256 -1.42747
-34.5548 -20.9514 -1.07618
11.4016 -9.67235 -0.400772
16.2349 -12.0752 -0.533744
-42.0455 26.0105 -1.30301
-30.9311 23.5355 -0.960876
-31.4531 23.0511 -0.921185
9.53709 -8.97804 -0.303614
-42.1155 14.5561 -0.984069
-32.5316 -54.4744 -1.42969
21.0907 -14.1055 -0.5582
30.1251 -18.2669 -0.795866
14.1582 3.91275 -0.299513
26.5077 46.3208 -0.979631
23.3538 -10.8724 -0.454094
46.4391 -10.6933 -0.887105
-31.0988 -22.3487 -0.69827
-30.1211 -29.585 -0.669617
-19.6731 -48.2727 -0.868852
12.6603 -10.411 -0.269945
18.3842 -13.2843 -0.34704
-29.6236 -13.167 -0.425349
-33.3789 -24.98 -0.580057
-35.0519 -70.6621 -1.06613
-28.954 -61.6232 -0.934027
-34.4892 -23.5544 -0.545217
-30.9525 23.5481 -0.457038
16.8841 -12.6087 -0.250577
28.9744 -17.9656 -0.401834
-31.4061 23.0564 -0.432935
-19.7152 -45.2158 -0.528565
-12.3749 -37.2469 -0.395975
-34.7449 -61.2196 -0.649552
-14.5999 18.5196 -0.180449
-27.0097 -13.6175 -0.24402
-15.3022 18.653 -0.164422
-22.9844 20.5271 -0.157837
-21.3937 20.0665 -0.132716
-10.6276 -13.6628 -0.0608016
14.6364 7.68886 -0.019772
11.0628 -9.72774 -0.0079517
-35.0197 -19.1811 0.0610977
-11.6566 -34.6436 0.118202
16.8455 -12.2387 0.0900641
-19.4182 -44.5805 0.215154
18.6439 -13.136 0.120791
7.13969 -12.2729 0.103454
25.7829 -10.5781 0.171056
-56.7283 20.2559 0.575766
16.146 -11.9658 0.191597
37.0181 -7.55764 0.35612
-29.4085 -8.29256 0.357799
-36.8878 -22.2648 0.475303
-11.6245 -33.3057 0.377565
-13.0652 -36.204 0.457343
-10.5509 -32.4311 0.408386
6.29281 -12.8625 0.182665
7.18426 -11.0677 0.173357
-28.764 22.5788 0.56103
11.2663 -9.83929 0.224704
-24.5909 21.0295 0.535101
10.8566 -9.69358 0.228262
12.9081 -10.6263 0.263209
35.988 -7.70184 0.611928
-35.1302 -23.5367 0.769196
-31.8933 22.8038 0.771065
6.10658 -12.7585 0.27436
6.99387 -11.0063 0.251107
8.00139 -9.38905 0.24077
26.322 54.1237 1.31007
7.70522 -9.41463 0.274928
10.0934 -9.14192 0.328393
-29.1425 -9.34486 0.737552
-23.7625 20.741 0.854513
-28.1476 22.1942 0.963267
-29.2719 -8.78939 0.805764
9.16061 -8.86724 0.344273
9.59266 -8.91562 0.356843
-26.1095 22.0052 0.928966
25.1743 -5.09277 0.71489
12.9178 -10.5971 0.497535
14.5356 23.6794 0.857672
6.15448 -12.6963 0.443914
7.42384 -11.5725 0.431345
-28.7867 -8.11879 0.981758
-12.7472 -19.5174 0.76776
-28.4642 -8.89648 1.03147
15.9723 10.9323 0.6997
-30.2432 -18.7406 1.24369
15.4253 26.7949 1.10385
-30.8589 -16.8326 1.30275
23.3622 -4.2186 0.857525
-28.2166 -20.0681 1.28303
-7.31834 -7.97952 0.408724
9.02282 -8.79853 0.468335
12.2981 13.4529 0.703038
24.9258 51.4196 2.16486
23.8192 50.7134 2.11056
-11.616 -9.19458 0.584289
8.69703 -8.64283 0.484912
-26.1891 21.5735 1.37876
21.6859 -2.93898 0.886457
-29.1866 -17.728 1.39905
9.38286 -8.89672 0.53002
12.3148 14.1831 0.808362
6.54142 -12.388 0.594813
14.633 19.0132 1.05507
20.3354 28.0886 1.51912
-9.55897 -13.8988 0.741351
-10.0609 -15.7349 0.828878
7.56641 -10.9052 0.584676
8.5985 -8.68764 0.552254
23.9999 -3.67654 1.09607
6.71413 -11.0378 0.594342
-8.30382 -8.17195 0.548432
20.571 41.5041 2.21668
-28.9446 -17.8889 1.60849
-9.83395 -13.794 0.806212
9.62696 -8.93208 0.618395
14.8114 41.1596 2.11791
-30.646 -13.574 1.60005
-6.78366 -8.27029 0.526448
14.0813 32.7463 1.81921
-30.1159 -11.7935 1.62341
-7.61548 -7.0027 0.523125
-6.71861 -7.61627 0.513912
15.7204 28.4775 1.68934
10.43 12.196 0.867437
13.9919 19.0406 1.26891
9.31322 -8.89508 0.689897
14.5749 18.9638 1.32086
14.9708 23.1223 1.51702
-28.0485 19.749 1.88164
-6.99544 -8.22116 0.598738
-26.9731 20.6963 1.89164
6.0563 -12.7874 0.791613
-7.13263 -9.19209 0.663582
9.84071 12.2916 0.926188
14.5756 24.558 1.66863
6.42217 -12.8984 0.829192
13.5562 22.1165 1.53245
-8.29052 -8.14927 0.700578
11.413 11.4917 0.965985
14.4226 19.1822 1.44211
-7.42959 -10.0576 0.7777
6.97763 -11.1193 0.79993
11.2096 -9.66889 0.897292
5.8421 -10.7094 0.756953
-7.21537 -6.66925 0.61417
14.2141 20.1636 1.56114
16.0123 7.10766 1.13752
-7.05542 -6.16439 0.614986
6.42164 -13.3601 0.987857
9.17711 20.7293 1.5294
10.2915 12.4045 1.102
13.3249 17.9174 1.55754
12.1518 20.1474 1.62819
11.2171 11.8492 1.14537
6.57387 -9.80383 0.835829
11.3665 11.629 1.17691
9.77144 -6.89766 0.850939
12.2191 11.8291 1.24915
9.88548 -8.34812 0.947751
-6.21716 6.73829 0.685192
10.3349 9.10012 1.0345
11.7137 17.5138 1.58542
11.2646 17.9467 1.59666
-6.96754 -7.72314 0.806728
10.6431 18.3698 1.629
9.47402 -8.91974 1.00549
-6.42877 -4.30774 0.610617
8.99555 18.0223 1.60964
10.0427 -6.8721 0.974247
12.3157 11.4266 1.35815
9.54186 18.5263 1.67804
-7.29572 -9.67719 0.987217
6.69355 -9.34634 0.935389
12.1034 11.5785 1.37251
12.0061 11.8075 1.39841
11.2887 11.7992 1.35196
-5.07776 -11.5893 1.06427
10.1789 12.735 1.38725
-6.97905 -6.09861 0.798538
-6.83587 -6.71445 0.809573
-5.2388 -11.4899 1.07381
-7.32548 -7.77331 0.919981
9.25112 -7.2298 1.01431
-7.14558 -8.08604 0.944496
-7.03997 -7.7157 0.918739
9.26696 12.3695 1.37031
-6.97708 -8.40223 0.97585
10.7123 8.98827 1.27446
10.3208 13.2926 1.52051
10.4222 9.15334 1.26981
7.59528 13.7871 1.44781
-6.51982 -8.16298 0.957348
-6.93009 -9.05392 1.05246
11.0762 10.6826 1.4199
11.1416 9.09037 1.34563
10.7492 10.6845 1.42075
6.36433 14.707 1.50575
-11.5016 2.94655 1.11409
-6.37357 -4.17896 0.714324
-6.82365 -6.31051 0.86213
9.30131 13.1175 1.55124
-6.08596 6.61316 0.885828
7.93892 -6.59132 1.00554
7.81473 13.0302 1.50922
-7.09167 -7.64242 1.05051
9.1945 11.4966 1.48483
6.90659 12.2628 1.42829
6.95668 12.8161 1.48655
9.44192 9.00539 1.35034
5.75702 13.7239 1.54238
9.02202 12.2706 1.58786
-6.11782 -4.46453 0.794156
5.85748 13.4592 1.54602
6.11655 13.3978 1.54826
-6.98577 -4.43751 0.885528
8.68311 8.93123 1.32799
9.03883 10.0694 1.4716
7.2395 10.8702 1.41932
5.74485 11.3151 1.37957
-6.31653 -7.43082 1.06618
10.1895 6.40382 1.33155
8.91205 8.06612 1.32503
7.21687 11.5358 1.50245
6.75564 11.4819 1.47278
5.2767 11.7172 1.42959
4.79125 11.9093 1.43598
4.61268 13.4143 1.5603
9.78791 6.99837 1.34354
8.6713 9.21746 1.41411
5.30444 11.3497 1.41065
-6.85973 -6.74148 1.07073
6.78418 10.589 1.4166
4.23734 12.9257 1.53706
9.72301 -3.18611 1.14073
-6.11539 -5.42403 0.946666
7.27348 -6.10672 1.07797
10.3406 5.67362 1.35276
-7.39984 -0.988265 0.855962
