ply
format ascii 1.0 
element vertex 1874
comment /media/mkaihara/Seagate Backup Plus Drive/model_iterations/model_91.ply
property float32 x 
property float32 y 
property float32 z 
end_header 
-5.25979 4.93374 -3.1427
20.0215 5.43614 -9.01888
9.53647 -3.39724 -4.36886
18.0679 18.3121 -11.0551
15.7478 -12.1189 -8.55123
14.7926 7.39605 -7.05752
3.83421 -9.29179 -4.2709
-11.3146 17.21 -8.72056
6.92899 -10.8827 -5.44041
-13.6611 3.34801 -5.9263
0.743354 -22.4371 -9.46029
15.7375 -11.9161 -8.25582
-5.19159 5.71723 -3.23165
0.999433 -22.3028 -9.35838
1.2314 -20.7981 -8.72841
14.1055 7.56501 -6.69391
18.3897 19.1637 -11.0956
3.77903 -8.94624 -4.0501
14.7043 7.69443 -6.90724
17.7669 18.9745 -10.7857
-9.54278 -1.09523 -3.96525
4.00486 -8.49754 -3.84888
13.9725 7.71503 -6.55139
6.82845 -10.9624 -5.28054
-13.6978 2.55886 -5.70072
-8.06872 15.6334 -7.15042
19.0741 20.7253 -11.4093
15.0051 7.20981 -6.70669
-5.33455 14.5722 -6.22281
13.8952 -10.9855 -6.93831
1.52786 19.1651 -7.46578
-8.86854 16.0188 -7.1165
18.8926 5.76155 -7.65243
-1.76227 13.3656 -5.22212
5.28781 -9.38021 -4.15284
-2.39952 13.5946 -5.30279
19.3873 22.4266 -11.3653
4.65604 -8.50743 -3.6832
19.3156 5.54123 -7.64604
0.879325 -26.6739 -10.1418
14.8385 -11.4346 -7.05049
19.8701 5.38316 -7.7044
9.42267 -3.43299 -3.74929
0.534741 -22.8133 -8.50329
3.24207 -10.7738 -4.20369
19.9752 23.2385 -11.3781
0.910464 -8.73049 -3.25513
13.9703 -11.0638 -6.57163
20.2748 5.15665 -7.69149
17.7326 17.5214 -9.10856
-13.1068 2.29621 -4.83792
20.6084 24.6089 -11.6398
2.28269 -13.2365 -4.8394
12.9855 -10.5012 -6.00984
0.796229 15.4009 -5.51705
-8.2198 -2.80504 -3.10665
0.410362 -21.9566 -7.84965
-4.26992 14.0183 -5.21355
0.638959 -22.0094 -7.82446
15.7799 -11.9181 -7.00946
-15.9973 18.4946 -8.61902
5.91823 -11.3194 -4.49146
-11.2016 16.9051 -7.08426
0.0929216 -18.593 -6.53545
14.2058 -11.2584 -6.33851
20.2295 5.32763 -7.30134
0.658559 -23.1438 -7.99566
-5.0869 14.7709 -5.35393
3.63635 -8.44158 -3.16404
4.87087 -9.0228 -3.51381
-14.7518 18.3151 -8.05086
2.2734 -10.8799 -3.80921
-9.03165 16.3852 -6.37894
3.01836 -13.6583 -4.76957
-15.2354 18.7004 -8.17833
20.0484 5.45087 -6.98281
21.7623 26.9206 -11.5675
35.6689 -20.1355 -13.6892
-5.38699 14.2913 -5.07378
1.9058 20.6276 -6.87226
1.26745 -10.2507 -3.41518
-5.33256 14.6867 -5.07612
-12.801 17.5255 -7.04152
18.4538 -13.15 -7.35923
3.55861 -8.67006 -3.00485
6.20852 -10.0948 -3.79827
2.31287 -11.0066 -3.5792
-4.63238 -34.7837 -11.1519
-1.15021 -24.0721 -7.6704
14.9327 10.2842 -5.72139
-13.4368 17.8807 -7.07082
-18.3168 19.7567 -8.47011
6.94452 -11.0675 -4.03981
1.38807 -21.9687 -6.80937
-2.60797 -27.7626 -8.5583
7.08981 32.7311 -10.2174
0.771172 14.9891 -4.5581
-11.327 17.0913 -6.18113
-2.73966 -26.8885 -8.13828
-14.5961 18.2501 -6.97386
-5.37941 -35.2622 -10.6197
0.841834 -25.2247 -7.54593
-5.48285 15.0834 -4.77526
2.07005 20.5715 -6.09028
-21.6642 20.2004 -8.74001
18.1195 5.76599 -5.59655
-4.36208 14.6562 -4.49734
-8.06155 15.6413 -5.16382
4.2507 -9.13249 -2.96083
4.62762 -11.5958 -3.65095
-12.6819 2.2341 -3.70106
-33.8252 -47.913 -16.8748
-15.4635 18.6032 -6.95512
6.93993 -11.0534 -3.75776
2.56212 -9.54041 -2.80689
12.8892 -10.433 -4.71938
-8.4708 -2.46525 -2.50162
20.8074 26.834 -9.61889
-8.59904 -2.26637 -2.51291
-2.59485 -26.4676 -7.46198
-13.0912 2.00609 -3.6883
4.37861 -11.306 -3.36545
-9.47236 16.2911 -5.17479
-13.2863 17.7202 -6.08431
-5.48605 14.6445 -4.2756
-8.70646 -42.2729 -11.8071
-21.8634 20.4028 -8.04013
-9.90014 16.4175 -5.13888
-27.2134 20.9049 -9.12996
11.3668 11.4402 -4.25453
4.31754 -11.2714 -3.19785
46.4971 -13.5168 -12.8284
-8.41531 -39.7076 -10.6667
4.08404 -8.6458 -2.51787
11.1378 -9.90664 -3.89969
-14.7078 18.4159 -6.12931
6.52403 -10.4043 -3.17878
3.17462 -9.63607 -2.62296
-30.8699 -45.2119 -14.1351
-4.45156 -29.1931 -7.6389
3.53523 -10.3555 -2.82172
4.0627 -9.37463 -2.62624
15.5354 -11.6815 -4.95984
-7.28609 15.5239 -4.34181
-32.3009 -43.0771 -13.6522
4.30283 -11.1215 -3.01838
4.25092 -7.69676 -2.23784
6.52115 -10.6373 -3.11192
44.2311 -13.3728 -11.5217
-28.8089 21.7353 -8.92279
-11.7325 17.2377 -5.14139
-28.2074 -41.148 -12.2652
-10.1495 -39.9447 -10.1645
-24.9299 20.9392 -8.00133
4.34237 -10.3141 -2.74975
-12.2751 17.5832 -5.20033
-7.98296 15.5553 -4.21525
10.2482 -9.24401 -3.3048
39.8191 -13.227 -10.0412
15.0433 7.52325 -4.00374
-6.46696 -37.0283 -8.95254
3.96118 -9.07744 -2.3469
46.3732 -12.4114 -11.3943
-12.5209 -46.098 -11.3141
3.84678 -11.0333 -2.75421
4.90137 -8.6808 -2.34532
-13.0031 17.7205 -5.11605
10.9757 -9.61856 -3.33574
-6.31651 -32.0267 -7.44722
-27.6544 21.359 -7.92132
41.0356 -8.97412 -9.53299
-31.0847 22.5692 -8.61306
-35.9738 -23.5745 -9.63659
40.2438 -12.4406 -9.45841
5.4446 -9.45698 -2.43652
-12.4709 2.8456 -2.80671
40.1152 -11.7556 -9.23662
42.0563 -11.9999 -9.62265
-5.47949 14.3788 -3.36564
13.3384 -10.7332 -3.76879
37.6402 -12.0963 -8.69223
-23.8081 20.7501 -6.85099
-30.9935 -76.4099 -17.8893
4.3011 -9.68085 -2.29739
4.53101 -9.16387 -2.20826
-14.8346 18.4826 -5.062
-31.5357 22.907 -8.3233
-32.436 23.0187 -8.50274
-29.6595 -78.6889 -18.0222
-10.8792 17.0002 -4.28057
-8.65068 -36.7183 -8.02046
3.18417 -9.66685 -2.17051
3.95749 -9.80776 -2.25522
45.1762 -10.474 -9.90001
14.8765 7.45139 -3.52696
-15.4218 18.9846 -5.17926
5.15508 -9.03924 -2.18636
26.0952 37.755 -9.58896
14.9144 7.80542 -3.49447
-30.5744 -23.6127 -8.01338
-11.6483 17.1628 -4.2159
-15.8899 18.7873 -5.00997
-35.8877 24.0905 -8.78354
43.8489 -9.56428 -9.15276
-13.6689 -43.9817 -9.35897
4.1272 -9.71402 -2.14755
11.5658 -9.61428 -3.06027
-12.2043 17.5144 -4.26212
-20.7288 -59.4899 -12.5883
-13.3236 -41.3868 -8.60668
4.06119 -9.90053 -2.11893
-34.6195 -23.6724 -8.26713
-27.2062 21.3525 -6.80723
-33.6344 -24.0591 -8.06063
-7.0166 15.5061 -3.30463
-27.6731 -65.0214 -13.724
-34.0392 -22.6609 -7.87972
3.4292 -9.34428 -1.92221
45.2591 -10.4862 -8.92167
-12.963 17.699 -4.19464
3.98144 -9.32688 -1.93546
-36.9813 -22.4634 -8.1903
-21.69 -35.2347 -7.86809
-16.0808 -46.3984 -9.29003
37.4718 -12.3611 -7.45983
-36.6725 24.6303 -8.26778
-34.1852 -23.609 -7.80417
-33.1228 -24.234 -7.70368
-22.0724 -54.6813 -11.0939
-17.4134 -47.2987 -9.34788
3.81521 -9.19497 -1.83889
42.0411 -11.3308 -8.08613
5.7454 -9.69221 -2.06512
-25.4411 -57.688 -11.5415
-21.1272 -52.4381 -10.2239
-14.804 18.4538 -4.19556
-31.5545 -25.4494 -7.20537
-20.5895 -27.4361 -6.1337
-40.1848 25.357 -8.38392
-27.2178 21.3712 -6.02349
-34.7367 23.77 -7.30844
3.90087 -10.0279 -1.86595
4.76473 -8.59969 -1.70867
13.9377 7.48492 -2.72821
14.0086 8.03872 -2.7658
-31.3866 22.8239 -6.65324
41.7248 -11.8048 -7.38302
41.5307 -10.7561 -7.30372
-31.7114 -25.1848 -6.86919
-21.4129 20.393 -4.96595
-21.0949 -52.4328 -9.5481
14.7887 7.41206 -2.77397
-32.275 22.8488 -6.60573
-24.4367 -58.2603 -10.438
43.0175 -11.5885 -7.24193
-10.524 16.7079 -3.18715
-21.4 -53.0895 -9.12796
-35.4111 -24.4445 -6.78004
-23.1457 20.3355 -4.82478
-24.5774 20.9808 -5.00864
-40.8992 24.7631 -7.409
-11.4058 17.0712 -3.17009
3.46508 -9.50975 -1.5655
3.85948 -10.2061 -1.68971
-7.75761 15.7351 -2.68048
-31.6246 23.0172 -5.97932
-32.2184 -24.8845 -6.19004
-28.3444 -26.513 -5.87938
41.7143 -10.8444 -6.55197
44.3052 -9.65249 -6.90879
-6.6598 14.8346 -2.43394
9.81391 -5.14421 -1.64457
-33.979 -24.5074 -6.23863
10.1662 -9.14054 -2.03755
44.4411 -10.2809 -6.77473
-37.2074 -24.7684 -6.57793
-31.9778 -26.3766 -6.06344
-13.0613 -43.2758 -6.65015
16.8329 -12.1786 -3.04374
-25.8114 21.2513 -4.85906
-25.597 -57.3524 -9.04919
-7.75275 15.5286 -2.48259
-12.9146 17.6086 -3.11389
6.01543 -11.4925 -1.85385
-13.6297 18.2175 -3.19643
-35.3498 23.8795 -5.99764
6.7396 -11.0089 -1.80437
37.192 -12.274 -5.50904
-31.5987 -25.32 -5.65084
-33.6184 24.1598 -5.73521
-21.2687 -51.2606 -7.66439
44.5889 -9.97499 -6.301
-6.99849 15.4783 -2.32222
-23.5898 -61.5653 -8.95518
7.73452 -9.36019 -1.62967
-14.2276 18.1666 -3.11105
13.166 -10.5009 -2.27897
-22.5824 20.5414 -4.10518
41.6345 -10.7646 -5.70972
44.3195 -9.70772 -6.00578
-22.965 20.2094 -4.00038
-33.1587 -24.8121 -5.40912
-15.1332 18.5313 -3.0939
-34.6439 23.1229 -5.40755
-38.8558 -16.4065 -5.4455
6.99787 -10.4073 -1.60931
10.7215 8.77787 -1.7788
-34.2871 -23.6284 -5.32849
-32.0037 23.3633 -5.01242
-36.0897 -22.5203 -5.33173
41.5052 -10.7339 -5.36557
6.77786 -10.3399 -1.54507
-7.79232 15.5866 -2.15835
-25.4304 21.3533 -4.06625
-34.0114 23.9701 -5.13271
6.2732 -12.0313 -1.65325
44.2732 -9.44554 -5.54537
14.928 7.82089 -2.02589
-18.471 -44.7356 -5.83547
7.06736 -10.5037 -1.52453
-20.7197 9.18267 -2.68235
-14.7671 -44.6691 -5.53123
-32.3041 -24.9059 -4.76936
-31.7836 -25.4188 -4.76222
41.5834 -11.1389 -5.06024
11.1969 -9.64254 -1.71215
-30.409 23.0574 -4.39063
6.62386 -10.7927 -1.44993
7.4735 -9.20128 -1.35609
11.5468 -9.69324 -1.71255
9.43341 -4.60203 -1.1886
14.9071 7.66033 -1.8886
-10.521 16.7493 -2.23271
-32.7736 23.9478 -4.5473
38.4655 -12.6623 -4.54193
9.33364 -9.00076 -1.43469
-11.2449 16.865 -2.20391
6.76636 -12.739 -1.56279
44.4122 -9.65232 -4.92762
10.7186 8.80807 -1.49482
16.6879 -12.3962 -2.23149
41.7745 -10.8345 -4.6249
9.59462 -8.95587 -1.39069
8.36175 -8.44668 -1.24524
-31.3361 -25.0762 -4.17891
-31.3215 -62.8246 -7.32273
14.9045 7.47476 -1.70329
-32.2416 -24.8603 -4.17704
-13.0627 17.8072 -2.24275
-12.9752 17.3837 -2.15642
10.1801 -9.0636 -1.33544
-21.6134 -54.8897 -5.78296
6.29218 -12.0498 -1.31596
16.559 -12.1148 -1.97256
41.6643 -11.1957 -4.13599
-31.9051 -64.4922 -6.83953
-21.6232 -56.7454 -5.76663
-23.6851 20.717 -2.94172
45.0941 -10.0316 -4.31544
9.69161 -8.96399 -1.22224
39.2785 -12.9569 -3.85474
-15.2586 18.7045 -2.18622
-30.0039 -13.6797 -3.00563
-33.5785 -65.4585 -6.7808
15.7819 -11.8125 -1.79359
8.61674 -8.70749 -1.10945
12.8425 -10.6008 -1.45034
44.6849 -10.3571 -3.92996
9.37833 -9.00534 -1.09311
10.9186 -9.61515 -1.22309
-34.7763 23.8825 -3.51051
16.7578 -12.2204 -1.71819
-17.4346 -45.3679 -3.89271
14.6178 -11.4301 -1.48
-11.9848 -33.5518 -2.81201
-30.3403 23.0693 -2.94747
-33.6911 23.814 -3.1849
-23.4758 -53.6247 -4.5191
-52.3016 28.4647 -4.50878
-21.7274 20.4488 -2.1704
-33.9212 23.9935 -3.01104
16.2969 -12.177 -1.48854
41.6877 -11.1556 -3.14457
-41.0962 -77.7577 -6.34696
13.9161 -11.0104 -1.27022
-15.9884 -42.4129 -3.12835
10.7338 -9.58594 -0.986174
-23.7097 20.76 -2.1283
12.8208 -10.5791 -1.11293
17.8541 -12.9495 -1.47077
15.9621 -12.0734 -1.32209
-15.0765 -41.8008 -2.87444
43.412 -11.2904 -2.8044
-33.1308 -67.1282 -4.56819
35.5184 -8.61673 -2.24346
42.6072 -9.75203 -2.68391
6.02022 -13.0134 -0.857276
30.5889 -20.2405 -2.19552
-10.0065 16.7044 -1.14491
-15.979 -41.6824 -2.54192
16.5253 -12.3501 -1.15867
-9.73091 -12.6146 -0.873033
14.8943 7.64129 -0.90491
13.844 -10.9589 -0.94574
-12.9846 17.5961 -1.14228
-16.9012 -41.8909 -2.39911
14.7886 7.77631 -0.818724
-16.7377 -42.7837 -2.2543
-14.3713 18.2156 -1.10956
9.54091 -8.99959 -0.601715
-24.8301 -56.9572 -2.81179
12.4055 -10.1983 -0.744738
-16.4979 -45.9894 -2.16942
-17.6785 -43.5561 -2.01268
6.8246 -12.6016 -0.636033
-14.3335 -43.6928 -1.95896
-53.7649 29.2391 -2.47869
18.2316 -13.0981 -0.911401
16.7139 -12.4234 -0.811358
-43.5031 -84.4354 -3.58384
-18.8146 -49.3383 -1.94506
-34.222 23.5136 -1.51818
42.1638 -10.8641 -1.56838
-35.9054 -71.4221 -2.67499
-26.779 -58.6861 -2.17231
19.9081 23.0247 -1.01009
-21.7712 20.4016 -0.971825
8.07167 -14.2458 -0.550187
9.39778 -8.9716 -0.421305
11.2624 -9.91491 -0.487928
18.4848 -13.0701 -0.744358
34.5115 -13.0165 -1.22455
21.6484 26.2052 -1.08927
-27.6422 -13.8651 -0.96914
-23.2558 20.7093 -0.948666
-32.2332 22.8291 -1.23223
-25.8852 -59.5109 -2.01043
-14.1639 -40.0689 -1.30936
-22.2799 -56.8327 -1.84877
-17.1211 -46.4017 -1.41741
-34.4576 -20.8925 -1.07314
11.4113 -9.68063 -0.401058
16.2563 -12.0912 -0.534366
-41.85 25.8897 -1.29716
-30.8055 23.44 -0.957143
-31.3274 22.959 -0.917671
9.54341 -8.984 -0.303767
-41.9653 14.5042 -0.980732
-32.3193 -54.119 -1.42016
21.1275 -14.1301 -0.55907
30.2025 -18.3138 -0.797758
14.1734 3.91695 -0.29986
26.6947 46.6477 -0.986888
23.3932 -10.8908 -0.454769
46.5902 -10.7281 -0.88985
-31.0148 -22.2883 -0.696351
-30.0218 -29.4874 -0.667332
-19.5416 -47.95 -0.862833
12.6728 -10.4212 -0.270148
18.4128 -13.3049 -0.347486
-29.56 -13.1387 -0.42445
-33.2782 -24.9046 -0.578263
-34.7179 -69.9886 -1.05565
-28.714 -61.1125 -0.926008
-34.3869 -23.4844 -0.543566
-30.8264 23.4522 -0.455362
16.9078 -12.6263 -0.250843
29.0455 -18.0097 -0.402678
-31.2814 22.965 -0.431406
-19.596 -44.9423 -0.525159
-12.3091 -37.0489 -0.39369
-34.4796 -60.7522 -0.64432
-14.546 18.4512 -0.179903
-26.9562 -13.5905 -0.243542
-15.2459 18.5845 -0.163942
-22.9023 20.4538 -0.157437
-21.3173 19.9949 -0.132399
-10.6157 -13.6475 -0.0607006
14.657 7.69968 -0.0198418
11.0721 -9.73598 -0.00790414
-34.9241 -19.1287 0.0609421
-11.5981 -34.4698 0.117804
16.8688 -12.2557 0.0902678
-19.3027 -44.3152 0.214117
18.6726 -13.1562 0.121064
7.1472 -12.2858 0.103616
25.8303 -10.5976 0.171462
-56.46 20.1601 0.572775
16.1676 -11.9818 0.191928
37.1117 -7.57677 0.35712
-29.3496 -8.27593 0.35704
-36.7772 -22.198 0.473909
-11.5705 -33.1508 0.376008
-12.9998 -36.0228 0.455272
-10.5025 -32.2823 0.406711
6.30059 -12.8784 0.18294
7.19024 -11.077 0.17355
-28.6528 22.4915 0.55864
11.276 -9.84777 0.224951
-24.5007 20.9524 0.532937
10.8656 -9.70168 0.228505
12.9215 -10.6373 0.263543
36.0771 -7.72093 0.613541
-35.0255 -23.4665 0.76695
-31.7673 22.7137 0.767782
6.11405 -12.7742 0.274742
6.99959 -11.0153 0.251359
8.00638 -9.39491 0.240965
26.5573 54.6075 1.32152
7.70998 -9.42046 0.275142
10.1008 -9.14865 0.328683
-29.0842 -9.32614 0.73604
-23.6768 20.6662 0.851215
-28.0398 22.1093 0.959345
-29.2135 -8.77182 0.804114
9.16656 -8.873 0.344541
9.59916 -8.92167 0.357131
-26.0103 21.9217 0.92521
25.2157 -5.10116 0.71613
12.9312 -10.6081 0.498111
14.5922 23.7717 0.860912
6.16172 -12.7113 0.444478
7.43068 -11.5832 0.431789
-28.7304 -8.10291 0.979794
-12.7236 -19.4813 0.766425
-28.4091 -8.87924 1.02943
16.001 10.9519 0.700923
-30.1702 -18.6953 1.24071
15.4937 26.9137 1.10863
-30.7862 -16.793 1.2997
23.3975 -4.22498 0.858876
-28.1495 -20.0204 1.28003
-7.3151 -7.97597 0.408544
9.02858 -8.80416 0.468678
12.3245 13.4818 0.704499
25.1393 51.86 2.18321
24.0263 51.1543 2.12872
-11.6066 -9.1871 0.583816
8.70225 -8.64802 0.485246
-26.0915 21.4931 1.37338
21.7162 -2.94309 0.887742
-29.1194 -17.6872 1.39585
9.38915 -8.9027 0.530421
12.3428 14.2154 0.810156
6.54857 -12.4015 0.595503
14.6769 19.0703 1.05817
20.422 28.2081 1.52549
-9.54856 -13.8837 0.74059
-10.0476 -15.714 0.827842
7.57264 -10.9142 0.585201
8.60356 -8.69276 0.552621
24.0373 -3.68227 1.09784
-30.1589 -8.78875 1.43423
6.71962 -11.0468 0.594868
-8.29941 -8.1676 0.548142
20.7153 41.7953 2.23211
-28.8781 -17.8478 1.60482
-9.8233 -13.779 0.805385
9.63362 -8.93827 0.618868
14.9354 41.5042 2.13553
-30.5789 -13.5443 1.59653
-6.78081 -8.26681 0.526231
14.1687 32.9496 1.83041
-30.0522 -11.7685 1.61995
-7.61236 -6.99982 0.522902
-6.71617 -7.61349 0.513724
15.7963 28.6148 1.69742
10.4512 12.2207 0.869162
14.0346 19.0987 1.27274
9.31941 -8.90101 0.6904
14.6186 19.0207 1.32477
15.0272 23.2094 1.52268
-27.9516 19.6808 1.87489
-6.99242 -8.21759 0.598482
-26.8768 20.6225 1.88462
6.06372 -12.8031 0.792614
-7.12896 -9.18734 0.663251
9.86121 12.3173 0.928089
14.6355 24.659 1.67544
6.43006 -12.9142 0.830243
13.6066 22.1987 1.53809
-8.28615 -8.14496 0.700208
11.4343 11.5132 0.96776
14.4666 19.2407 1.44647
-7.42502 -10.0514 0.77724
6.9835 -11.1287 0.800642
11.2193 -9.6772 0.898113
5.84653 -10.7176 0.757561
-7.21277 -6.66683 0.613937
14.2601 20.2289 1.56615
16.0352 7.1178 1.13914
-7.05311 -6.16236 0.614769
6.42979 -13.377 0.989139
9.21547 20.816 1.53578
10.3128 12.4302 1.10426
13.3635 17.9692 1.56202
12.1938 20.2171 1.63379
11.2388 11.8722 1.14757
6.57791 -9.80987 0.836381
11.388 11.651 1.17912
9.7769 -6.90151 0.851456
12.2424 11.8516 1.25152
9.892 -8.35363 0.94842
-6.20735 6.72766 0.683982
10.3506 9.11397 1.03607
11.7483 17.5656 1.59009
11.2995 18.0023 1.60159
-6.96477 -7.72005 0.806404
10.678 18.4301 1.63434
9.48046 -8.92581 1.00622
-6.42732 -4.30676 0.610447
9.02695 18.0852 1.61526
10.0486 -6.87614 0.974861
12.3384 11.4477 1.36065
9.57534 18.5914 1.68393
-7.2916 -9.67171 0.986675
6.69723 -9.35149 0.93594
12.126 11.6002 1.37507
12.029 11.8301 1.40107
11.3104 11.8219 1.35456
-5.07424 -11.5813 1.06358
10.2007 12.7624 1.39022
-6.97684 -6.09666 0.798265
-6.83365 -6.71225 0.809296
-5.23531 -11.4822 1.07314
-7.32238 -7.77 0.919588
9.25614 -7.23373 1.0149
-7.14251 -8.08255 0.944089
-7.03718 -7.71262 0.91837
9.28685 12.396 1.37326
-6.97401 -8.39853 0.975424
10.7284 9.00181 1.27638
10.344 13.3224 1.52392
10.4382 9.16737 1.27175
7.6157 13.8242 1.45172
-6.51727 -8.15977 0.956975
-6.92672 -9.0495 1.05196
11.0956 10.7014 1.4224
11.1585 9.10415 1.34767
10.7682 10.7033 1.42326
6.38493 14.7547 1.51066
-11.4903 2.94366 1.11288
-6.37219 -4.17804 0.714132
-6.82158 -6.30859 0.861851
9.32267 13.1476 1.55481
-6.0766 6.60297 0.884316
7.94208 -6.59395 1.00598
7.83398 13.0623 1.51296
-7.08885 -7.63936 1.05009
9.21271 11.5194 1.48779
6.92329 12.2925 1.43177
6.97451 12.849 1.49039
9.45633 9.01915 1.35241
5.775 13.7668 1.54725
9.04138 12.2969 1.59129
-6.11664 -4.46365 0.793966
5.87514 13.4998 1.55073
6.13443 13.437 1.55283
-6.98381 -4.43626 0.885242
8.69644 8.94497 1.33004
9.05441 10.0868 1.47415
7.25426 10.8924 1.42224
5.75866 11.3424 1.38292
-6.3145 -7.42842 1.06583
10.2013 6.41122 1.33311
8.92441 8.07733 1.32688
7.23272 11.5611 1.50578
6.77087 11.5078 1.47613
5.29066 11.7482 1.43343
4.80491 11.9433 1.44015
4.62878 13.4612 1.56583
9.79992 7.00697 1.34521
8.68508 9.23213 1.41638
5.31789 11.3785 1.41428
-6.85747 -6.73924 1.07036
6.79797 10.6106 1.41951
4.25183 12.97 1.54242
9.72771 -3.18765 1.14132
-6.11411 -5.42288 0.946439
7.27572 -6.1086 1.07834
10.3517 5.67972 1.35423
-7.39684 -0.987856 0.855546
-6.26784 -5.36511 0.949935
5.2416 -5.5498 0.879434
5.00488 11.4796 1.45463
-6.89565 -4.56758 0.958771
4.44712 -7.25137 0.983707
10.3474 5.1188 1.3547
8.81888 7.82717 1.38421
-6.01061 -4.37447 0.866673
-6.49728 -5.28281 0.989531
4.0853 -7.85299 1.05271
4.96111 -5.84371 0.919615
10.1104 4.7275 1.33795
8.45332 8.20841 1.42717
5.21168 11.3539 1.52485
8.9883 6.22666 1.33878
7.94909 8.27271 1.43716
-6.50196 -5.75757 1.0814
3.70181 -7.56331 1.05463
8.61925 6.64578 1.36862
-6.47942 -5.35403 1.06407
9.03498 5.97615 1.383
8.12748 7.09173 1.37619
8.05635 7.454 1.4014
5.76936 -5.33838 1.00909
-6.98528 -4.45165 1.06358
8.04113 7.93929 1.46566
-7.37299 -1.04458 0.962601
-6.93572 -2.83155 0.978744
8.9318 4.08103 1.28601
8.3484 6.58621 1.39592
4.99278 -6.02123 1.02811
4.91083 -6.1854 1.04577
6.85949 -4.27599 1.07588
-7.14749 -1.72166 0.98604
-7.02283 -2.22418 0.985307
-6.0345 -4.42906 1.00105
8.08316 6.61593 1.41604
8.56722 4.41758 1.31418
8.5846 5.13901 1.36657
7.97415 7.08988 1.45232
-6.82043 -3.74011 1.05658
8.81851 4.13938 1.33344
8.2172 5.79969 1.3773
-6.40849 -4.33621 1.05914
-5.96635 -4.53186 1.02356
5.30999 8.94798 1.43703
3.59588 9.94749 1.46863
-7.38317 -1.09525 1.03413
-6.91652 -3.93409 1.10464
4.94438 -5.53847 1.026
5.22312 -5.39295 1.04193
7.45129 -3.53118 1.15306
3.34114 10.0196 1.47962
8.36058 4.57575 1.3482
7.36326 -3.67226 1.16718
7.5742 -3.32925 1.17948
7.74812 -3.29982 1.1949
8.90188 2.80295 1.34327
4.82945 -5.63033 1.06617
7.34215 -2.84857 1.14649
-6.9708 -3.30601 1.12495
7.90356 -2.77448 1.2212
8.64496 -1.81592 1.29659
4.96545 8.50134 1.4531
2.91541 9.31802 1.45212
7.71818 -1.8845 1.17085
7.19034 5.72629 1.3695
3.41396 9.44413 1.48411
3.14556 9.66967 1.50664
-7.38556 -1.04553 1.10651
-7.08751 -2.02679 1.09908
6.90725 6.25269 1.4066
-6.27248 -2.27507 1.00178
-7.2544 -1.378 1.11517
7.90122 4.79456 1.40797
5.67068 7.30692 1.40327
5.25463 7.57636 1.40314
5.01755 7.95136 1.42134
6.75083 -3.22153 1.13115
7.23535 -3.11998 1.20658
7.62308 -2.75078 1.2349
-7.33207 -0.734483 1.12585
-7.11031 -1.95807 1.13877
6.78031 -3.08884 1.15217
3.75004 -5.78687 1.06622
-7.06577 -2.07974 1.15522
-7.36108 -1.09511 1.16911
7.32706 4.75247 1.37929
-7.21237 -1.44627 1.17087
-7.28582 -1.30364 1.18811
-7.11041 -2.0227 1.20267
7.03732 4.74129 1.3851
-7.11415 -1.949 1.21222
6.97684 4.84229 1.41057
6.58469 4.82971 1.36268
5.17663 6.20744 1.34637
4.64035 7.12162 1.41942
3.78856 7.86309 1.45054
-7.26333 -1.37618 1.23462
2.79413 -5.78036 1.08218
7.11071 4.4092 1.40943
6.4817 5.21264 1.40313
3.87426 -5.36607 1.11579
3.93762 -5.02217 1.08023
-7.28669 -1.2549 1.25485
-6.60847 -2.62929 1.20719
7.39074 2.83789 1.34271
7.00187 3.87559 1.36373
-6.42371 -2.75705 1.1898
6.7467 4.08173 1.35361
5.67921 -3.5176 1.14973
-7.4113 -1.04173 1.29485
-6.36629 -2.28381 1.1633
5.53252 -3.64607 1.14202
5.31686 -3.77252 1.14262
3.56781 7.1041 1.39813
-6.81118 -1.73815 1.23506
4.4802 -4.46759 1.11338
-7.1061 -0.916416 1.27695
4.72477 -4.45733 1.14939
4.30061 6.45071 1.38324
6.56184 3.46106 1.33967
6.60027 3.66839 1.35646
-6.4517 -1.50296 1.19202
3.61004 -5.32803 1.17065
5.05074 5.58298 1.37836
-6.1638 -2.18635 1.19914
3.41491 -5.1612 1.15081
3.36158 6.71871 1.40524
-1.69636 -5.77762 1.14404
6.42409 2.72314 1.32773
-2.14197 -5.72444 1.17524
6.28874 2.78696 1.32418
-2.78665 -5.37503 1.18671
-3.54773 5.38806 1.3989
4.45393 3.87875 1.34776
4.15255 -2.87971 1.1773
4.62857 -2.18624 1.23675
4.18606 3.28111 1.3173
3.70988 -2.93216 1.22451
4.0081 2.56796 1.32965
-1.44148 -4.11347 1.22082
-2.31953 -3.5775 1.21212
3.851 2.35877 1.30814
-2.87283 3.54119 1.36824
-2.47934 -2.91511 1.18923
-2.37678 -2.93616 1.19412
1.84614 -2.81628 1.18366
1.86908 -2.79433 1.21367
1.99507 -2.53006 1.19982
-2.04915 2.81585 1.32556
2.80454 -0.555815 1.25918
2.78354 -0.336886 1.24075
-2.08817 -1.61843 1.2129
-2.07604 -1.45069 1.23805
-1.86092 -1.79486 1.28314
-1.99375 -1.13099 1.20462
-1.98531 -1.06999 1.23149
-1.94524 -0.880085 1.23182
-1.92973 -0.708212 1.22222
-1.92862 -0.701322 1.24945
-1.90516 -0.469576 1.22242
-1.87063 -0.345615 1.21971
-1.85542 -0.401064 1.22638
2.37852 -19.71 -10.018
-7.62211 -8.99891 0.466402
8.00623 -8.78678 -10.4523
8.25284 -8.6182 -10.4897
8.20455 -8.27944 -9.87302
6.94831 -11.9415 -11.3953
8.50314 -8.95997 -9.72674
7.83965 -8.92532 -9.12333
5.84348 -12.7852 -10.7186
9.41069 -8.81885 -9.7281
6.14058 -14.0804 -11.5646
8.27491 -8.66624 -9.00926
8.00597 -9.15569 -9.09541
7.28189 -9.23319 -8.76144
5.9025 -14.1361 -11.1776
7.70687 -9.2924 -8.71167
7.84419 -9.10378 -8.65679
7.11876 -10.5663 -9.07147
6.81008 -11.0574 -9.20671
10.0321 -9.17365 -9.54795
6.52991 -11.1597 -8.85221
8.02144 -8.61552 -7.83904
7.34943 -9.267 -7.86033
8.50266 -8.66786 -8.07107
7.70771 -9.45761 -8.01579
6.47684 -12.7553 -9.34204
7.92075 -9.16652 -7.90169
4.99828 -16.0295 -10.8
-0.471234 13.945 -8.92161
7.71585 -9.23056 -7.71504
7.32262 -10.8455 -8.33266
8.36417 -8.55228 -7.62153
10.8496 -9.59811 -9.18867
8.97428 -8.80421 -7.88495
11.7325 -10.005 -9.66398
8.0595 -8.52195 -7.21653
4.03979 -16.8423 -10.6156
4.24609 -15.3709 -9.7919
7.83169 -9.34383 -7.30682
3.9512 -15.6283 -9.61292
11.4484 -9.80117 -9.02683
6.85243 -11.0586 -7.72544
7.76098 -8.80715 -6.95416
5.47995 -13.9804 -8.87265
6.47797 -12.6871 -8.33735
8.34875 -8.58099 -6.97727
9.6678 -9.06252 -7.72711
2.78754 -11.7843 -6.94181
5.46769 -13.8717 -8.44323
9.57463 -9.08636 -7.46223
6.60708 -11.053 -7.25121
3.35176 -20.7346 -11.7713
8.86296 -8.92334 -7.0507
12.154 -10.1972 -8.88865
6.81262 -10.9889 -7.2034
4.67614 -14.593 -8.46959
6.21124 -12.6017 -7.72929
0.897858 18.5481 -10.1071
14.5568 7.69161 -8.94357
4.19778 -14.2254 -8.01119
14.666 -11.6057 -10.0825
14.9083 7.40804 -8.86566
13.9516 7.68663 -8.46182
4.75973 -14.8335 -8.27815
12.0462 -10.1194 -8.27977
1.81486 -20.5225 -10.5994
11.3825 -9.82332 -7.70337
2.08235 -20.2434 -10.3267
0.00737329 14.2787 -7.16628
-7.3577 15.2985 -8.5103
10.5657 -9.57486 -7.16516
7.50025 -9.40763 -5.99481
-8.582 16.2736 -8.89452
11.6051 -9.74645 -7.33575
10.4668 -9.55982 -6.80736
14.7225 -11.2873 -8.94878
16.5833 15.7081 -10.8489
7.46666 -11.0364 -6.3492
14.942 7.38265 -7.81824
13.8748 -10.9871 -8.27243
-12.0715 17.2886 -9.66401
15.7666 -11.9469 -9.03809
9.7588 -2.44676 -4.62107
-9.13373 -1.6605 -4.22192
18.5658 17.9145 -11.638
3.90932 -9.09024 -4.49151
-10.3096 16.8449 -8.87198
-5.36483 4.46178 -3.13888
6.84233 -11.2653 -5.93432
9.40694 -9.06664 -5.76268
15.9389 7.27088 -7.7273
-6.6888 15.1966 -7.25473
1.49944 -18.7535 -8.13733
-11.2869 17.176 -8.85214
9.56577 -3.36467 -4.34297
7.00178 -11.0214 -5.52041
15.7524 -11.9081 -8.26683
14.5796 7.7068 -6.91559
18.5904 19.3404 -11.2083
1.02124 -22.6916 -9.45624
-4.5607 13.9586 -6.05267
-9.96231 -1.11426 -4.1548
14.0215 7.74206 -6.5382
20.244 22.0197 -12.1885
-13.1281 2.4603 -5.44159
15.0416 7.14652 -6.73356
-5.26154 14.4256 -6.1783
3.63398 -8.7981 -3.7892
13.8836 -10.9625 -6.91394
19.1232 21.401 -11.1297
18.7087 5.76905 -7.59047
1.53619 19.1685 -7.45368
-8.81498 15.8868 -7.00722
11.3662 -10.0219 -5.82924
19.0513 22.0861 -11.2317
0.684211 15.3452 -5.88091
-1.66565 12.8078 -4.96988
2.71262 -12.2431 -4.81151
-8.79148 -1.25563 -3.3758
0.704061 -23.7724 -8.97366
15.1107 -11.5801 -7.18063
9.47508 -3.4573 -3.80446
-7.9076 -3.51272 -3.17371
1.09714 -10.4743 -3.87321
7.01258 -11.2121 -4.83673
14.1268 7.88766 -5.83983
-8.31165 -2.85369 -3.1602
0.790329 15.2476 -5.44258
-3.98543 13.4868 -4.97808
5.72566 -10.9651 -4.35374
15.7558 -11.9074 -6.99573
18.9783 5.8614 -6.9869
2.09643 20.4379 -7.20126
21.3713 25.8347 -11.6481
-15.0446 18.5729 -8.20724
2.96397 -13.3092 -4.6938
-8.98212 16.2289 -6.34203
18.3655 -13.008 -7.71466
-5.08141 14.6068 -5.26173
1.36428 -22.3505 -7.41994
1.75291 19.5067 -6.46744
1.44849 -10.324 -3.44549
38.6404 -19.7525 -14.2439
6.15756 -10.0291 -3.76747
17.4645 -12.3316 -6.84852
2.10888 20.5526 -6.57271
-13.4997 18.0244 -7.1032
1.45794 -22.8702 -7.13981
-4.33904 14.8624 -4.81411
-11.0696 16.7746 -6.09413
-2.79408 -28.4133 -8.672
3.06017 -9.45773 -3.02137
0.79778 -24.4616 -7.35963
18.994 -13.482 -6.9127
17.5106 5.53962 -5.38818
-7.96913 15.4305 -5.05885
4.21985 -10.4722 -3.2818
3.61264 -10.5458 -3.17319
4.23068 -10.9186 -3.28761
-13.462 17.9952 -6.25426
-9.38871 16.052 -5.06196
-13.3012 1.99392 -3.6881
-17.1234 19.6745 -7.08492
26.0622 -17.1574 -8.45636
-3.99667 -28.4882 -7.71328
3.77783 -9.13355 -2.64483
-9.90714 16.4712 -5.11912
46.62 -13.6122 -12.88
10.5002 -9.36514 -3.72479
-6.51968 15.0995 -4.29959
-14.58 18.2812 -6.13874
-8.18056 -38.6956 -10.3
4.94736 -9.55087 -2.78452
6.5413 -10.4692 -3.18525
-7.29365 15.4831 -4.35361
-10.6708 16.622 -5.0497
-10.1355 -40.1595 -10.2979
-9.27769 -40.0462 -10.0354
10.9042 -9.61247 -3.57485
-8.05661 15.6393 -4.26876
-11.8608 17.2411 -5.0684
14.5352 7.67787 -3.90083
4.03949 -9.23648 -2.38626
15.1362 7.49607 -3.97982
3.74045 -8.89388 -2.26836
-6.64898 -33.1195 -7.82068
5.61218 -9.85985 -2.62994
44.1775 -10.6908 -10.5655
-12.9576 17.6513 -5.04269
14.7906 7.57467 -3.75878
43.2409 -9.35404 -10.0231
-9.90448 16.4999 -4.30995
3.70536 -9.23034 -2.16431
42.4171 -10.8814 -9.55874
15.0475 7.46495 -3.59631
-10.7643 16.8044 -4.27691
-22.3035 -35.0628 -8.92646
4.8081 -9.72528 -2.34093
44.461 -10.4103 -9.7711
-14.968 18.5456 -5.0162
-32.6455 -24.0952 -8.59963
41.1762 -13.7774 -9.18709
14.7733 7.80644 -3.48399
-36.0854 24.4028 -8.90894
-8.56967 -35.0496 -7.30518
3.93754 -11.4651 -2.43741
44.0004 -9.49325 -9.15638
11.7338 -9.71267 -3.05522
42.4382 -10.9249 -8.73362
-27.3567 20.6441 -6.80381
6.12362 -10.2496 -2.37757
45.3256 -10.5991 -9.09256
-12.9511 17.6716 -4.23598
-27.2407 21.3482 -6.72642
15.936 12.054 -3.81814
-6.97577 15.3583 -3.24068
-33.5653 -24.278 -7.92854
-32.0515 -25.0984 -7.82282
-36.3147 24.1985 -8.21853
-34.0666 -22.4725 -7.71176
17.9249 5.63546 -3.50664
-34.5899 -20.8705 -7.54404
-15.4819 -44.6343 -8.79931
3.7601 -9.79403 -1.97577
-25.5271 -63.5507 -12.7347
-17.2747 -46.5369 -9.07803
3.96638 -9.61396 -1.87625
13.0158 -10.1706 -2.97942
44.8235 -9.97442 -8.24935
-14.9341 18.5225 -4.25296
-27.3981 21.4887 -6.14844
15.0076 7.9442 -2.95693
-30.7114 -26.7627 -7.09973
42.2974 -10.8342 -7.49748
-8.04212 15.4939 -2.95906
-9.89947 18.2329 -3.5069
44.1074 -10.3829 -7.66337
-31.2363 22.7525 -6.50683
-30.6574 -23.5861 -6.46459
-21.1014 20.1765 -4.85833
-32.8914 23.2287 -6.71836
15.8401 -11.8188 -3.23929
-10.4717 16.6258 -3.12751
-44.2407 26.0325 -8.14433
-32.0642 -24.0878 -6.41987
-33.9333 -23.4061 -6.49219
3.42537 -9.47381 -1.57578
-24.1133 20.5987 -4.89854
16.8193 -11.8901 -3.19125
-11.3216 16.945 -3.09753
45.456 -10.6531 -7.0873
-23.6705 -54.8541 -9.02602
-29.9676 22.475 -5.60159
-39.1035 24.3818 -6.84034
-32.0938 -24.9124 -6.06091
44.1149 -9.45353 -6.71871
-34.2306 -24.7559 -6.17217
-51.0887 28.5248 -8.41364
-36.0648 -24.0556 -6.23973
6.6988 -12.8554 -2.10558
-7.05792 15.5622 -2.37499
-13.2988 17.9527 -3.10966
-32.7274 23.5623 -5.63718
-25.5028 -56.7953 -8.58383
-16.6821 -48.7665 -7.08712
36.3246 -12.0801 -5.25092
-23.5229 20.6708 -4.16724
-32.7317 -24.5123 -5.33845
-31.0704 -25.4892 -5.31302
-34.3879 -23.6831 -5.34817
7.42717 -9.40738 -1.55014
42.3495 -10.8405 -5.61022
-34.0996 23.2039 -5.24414
-30.1113 -16.0676 -4.35031
6.03168 -7.8114 -1.26078
44.2461 -10.3995 -5.76332
-31.6261 23.2433 -4.8979
14.4387 -11.2489 -2.24921
-30.5252 22.9907 -4.6231
-33.1813 23.456 -4.89263
-10.5113 16.7182 -2.28261
-31.9398 -22.9715 -4.62845
12.9403 -10.466 -1.94868
35.4464 -11.713 -4.3205
6.32478 -10.3142 -1.39101
11.1569 -9.6682 -1.66368
16.3572 -12.1786 -2.29859
-11.2294 16.8383 -2.24182
6.72954 -12.5388 -1.55995
11.5613 -9.65481 -1.66843
42.191 -10.819 -4.78282
-39.7995 24.8153 -5.03375
44.3046 -10.3526 -4.89967
14.8464 -11.4003 -1.99192
-13.1482 17.7635 -2.27058
14.6946 7.77762 -1.6611
13.9433 -10.9995 -1.77451
-14.2137 18.1788 -2.23863
6.37327 -12.2137 -1.32664
9.37972 -8.89703 -1.24981
16.9221 -12.3735 -2.04649
-29.1848 -13.946 -3.0469
-15.2069 18.6216 -2.24154
-38.7972 -75.5838 -7.90798
-34.4392 -21.5501 -3.59706
16.0531 -12.029 -1.80566
38.08 -12.6704 -3.59272
11.0758 -9.84545 -1.22496
42.5851 -10.8841 -3.66673
-16.6839 -43.4159 -3.73583
-42.0623 -82.247 -7.19602
17.5128 -12.7614 -1.71189
-30.736 23.2617 -2.94814
7.42841 -9.15045 -0.912531
-33.475 23.6958 -3.04636
-17.0581 -42.1988 -3.40172
-38.4489 -72.3513 -5.82703
-37.3924 -74.891 -5.73449
12.5228 -10.4216 -1.09696
16.9753 -12.3638 -1.42013
-40.2673 25.0674 -3.10085
42.8323 -10.966 -2.903
-28.9762 -13.6254 -1.91737
-42.4208 -81.9551 -5.58918
14.442 -11.2589 -1.10379
30.7961 -20.287 -2.01618
30.7798 -19.3993 -1.98958
15.2626 7.53787 -0.882947
14.7044 7.79715 -0.855468
-13.0748 17.8424 -1.12245
-25.6166 -56.5285 -3.18912
-44.5117 -83.8898 -4.63847
9.62865 -9.06827 -0.661782
13.3945 -10.6519 -0.840892
15.8641 10.092 -0.887926
16.149 11.319 -0.917818
6.7966 -12.4655 -0.675498
-20.173 -5.95241 -0.902834
-30.887 -55.0436 -2.7854
10.175 -13.7368 -0.699098
17.9433 -12.9397 -0.90455
42.0722 -10.7468 -1.72866
-9.43938 -12.4847 -0.603786
43.5621 -10.2007 -1.75994
21.831 26.2454 -1.16365
-33.3586 22.8036 -1.39983
-37.0369 -20.7687 -1.38217
-18.8143 -46.8893 -1.62404
16.3924 -12.2296 -0.667684
14.3273 3.88081 -0.437666
-27.0038 -62.0516 -2.0302
-23.205 20.6707 -0.887248
-12.6927 -38.4874 -1.0904
42.4843 -9.02484 -1.21508
-43.025 26.7615 -1.36897
-55.7652 20.0521 -1.41868
43.1474 -10.0192 -0.953338
-31.6449 23.9153 -0.792033
-30.8544 9.81386 -0.676357
30.2987 53.0478 -1.1213
-30.8712 22.7837 -0.734091
12.9177 -10.5844 -0.289615
-35.1726 -21.8889 -0.642072
-31.8891 -64.1327 -1.06729
17.3877 -12.5396 -0.311816
-12.976 -39.2292 -0.534069
-14.5008 18.408 -0.238349
-20.7389 -47.6623 -0.56588
29.9198 -18.7397 -0.319009
-23.193 20.6932 -0.210136
-9.98007 -12.8091 -0.0490919
6.98895 -11.6582 -0.0236535
14.5324 7.59968 0.000719684
-36.2097 -22.3594 0.22686
-24.4935 -41.863 0.356576
-55.0259 30.1437 0.643161
6.66016 -11.817 0.140425
7.98517 -9.07904 0.120746
-41.9136 -22.2835 0.521976
-11.7511 -33.2781 0.39273
11.0603 -9.64138 0.192239
-23.5771 20.1453 0.409285
-12.5167 -19.4201 0.335675
-31.8872 22.6906 0.698567
-35.8775 -24.053 0.773069
-35.3927 -26.1461 0.767766
10.5967 -9.52278 0.232362
7.76625 -9.57303 0.264825
7.87359 -9.18984 0.261053
-73.5125 25.4553 1.82067
17.9824 -13.0535 0.54085
-29.0751 -8.73496 0.812988
-28.5908 22.4208 1.04816
11.537 -9.88437 0.414273
17.1776 -7.44593 0.532975
-25.5369 21.6582 0.998482
-7.94213 -9.3134 0.389659
12.568 13.6643 0.660553
6.10614 -12.5811 0.492071
8.88246 -8.74049 0.425782
24.3467 -4.31426 0.826858
18.2802 17.4573 0.913074
13.5703 23.4916 1.02073
-58.4451 19.2108 2.2168
24.1579 -4.69283 0.932214
-26.0074 21.2449 1.27107
9.34837 -8.89327 0.49879
22.2134 -3.06031 0.847065
12.072 13.9819 0.756544
14.5429 18.791 0.973469
6.48119 -12.2883 0.570295
17.2561 39.8836 1.81509
7.61519 -10.9736 0.563061
-7.58193 -7.46346 0.470256
-8.33102 -11.5262 0.635507
-29.9838 -11.8697 1.53629
16.2294 10.5357 0.96454
-7.75904 -7.21943 0.507782
14.9776 23.2691 1.43034
-6.98444 -8.22215 0.593224
14.3007 19.5827 1.32923
-26.6444 20.5169 1.86125
14.1171 22.9907 1.56268
-7.16032 -9.23016 0.667684
6.76897 -13.4139 0.862566
9.78716 12.3109 0.93118
14.4573 19.2083 1.50764
14.6474 26.0687 1.84164
9.99197 28.0218 1.89251
-7.34532 -10.0255 0.795173
9.27249 21.131 1.54924
11.3133 9.95157 1.0742
11.3247 11.9756 1.16379
13.505 15.6053 1.4772
8.13803 -12.5447 1.05566
10.6663 8.90368 1.02251
12.7177 14.2642 1.43024
-14.5299 8.56854 1.27661
-11.1996 2.10987 0.862822
12.2412 15.9345 1.55972
11.3668 18.1152 1.66113
10.0555 -6.88143 0.951393
-7.70842 -8.15442 0.897884
12.6061 11.4111 1.3872
11.7164 11.4621 1.36085
-7.03377 -6.18867 0.761575
-7.08767 -6.93062 0.822508
11.3276 11.8242 1.41224
10.5306 9.27647 1.27597
-11.4782 2.93918 1.08962
-7.65452 -7.12951 0.940029
11.5256 8.89326 1.39415
9.08089 12.8413 1.51045
7.0692 13.0076 1.45114
8.28836 12.8867 1.53671
-6.77031 -6.74658 0.950317
7.8405 -6.51721 0.997918
9.55056 11.9623 1.53431
9.82179 10.033 1.45026
-6.90609 -5.42125 0.913984
9.51275 9.05833 1.40051
8.08485 10.9918 1.43044
6.64207 12.879 1.54397
9.49414 8.28467 1.33394
9.07289 10.1052 1.47956
5.5854 12.3032 1.46268
-6.41373 -7.55356 1.07105
6.58642 11.2099 1.43058
5.13774 12.873 1.52913
-6.84729 -3.99354 0.875738
-6.72046 -6.09935 1.00022
3.91301 -7.75494 0.961646
5.43111 -6.08472 0.916383
9.26878 7.46159 1.33748
8.9595 9.5348 1.47554
7.80913 11.1226 1.51928
6.67945 10.5412 1.42315
-6.90131 -4.58402 0.940005
4.69723 -7.66395 1.03865
-10.7359 7.19717 1.50124
-7.11176 -2.13969 0.86475
8.93674 6.03705 1.28321
5.78718 11.8113 1.55441
4.8869 11.3012 1.45213
4.76667 -5.8548 0.888637
4.10411 -7.86892 1.07919
8.28327 3.83662 1.1443
10.8697 5.42163 1.49299
4.46293 12.4167 1.6422
-6.1768 -5.4042 1.00697
-9.1877 1.30968 1.15746
8.17409 7.47603 1.40205
-6.45722 -5.33667 1.05993
7.70654 8.09421 1.43692
-6.90803 -3.58395 1.00814
4.96055 -5.95739 1.00085
5.01641 -5.41965 0.962907
8.32202 6.84691 1.42761
7.85868 7.7708 1.47049
-7.22713 -1.72962 1.00183
-7.05336 -2.21644 0.991262
-6.50534 -4.38623 1.04272
4.8229 -6.07936 1.03266
8.31083 6.29866 1.41843
-6.87129 -4.23125 1.08777
-6.06554 -4.45688 1.01272
4.94309 -5.53012 1.01851
7.39343 -3.51165 1.13922
8.30292 4.21537 1.32265
8.26449 4.54138 1.33812
-6.9613 -2.9161 1.07969
7.46023 -3.7234 1.19057
7.00214 -3.04871 1.07731
4.93374 -5.78028 1.097
8.16604 -1.7279 1.20881
-6.98068 -3.26784 1.1437
7.32618 5.52042 1.37779
5.68727 7.34267 1.40277
7.9303 3.8859 1.34942
7.85049 4.16329 1.35106
5.36609 7.70528 1.42751
5.00624 8.55138 1.49704
3.43113 9.38491 1.5072
-7.03017 -2.83558 1.15623
7.65997 -2.78662 1.24856
7.82298 -2.22938 1.25534
7.77294 -2.01091 1.24061
7.41004 4.17364 1.37135
7.01344 4.71591 1.38878
6.6885 4.87483 1.37619
5.32755 6.38411 1.38367
-7.23135 -1.36562 1.21917
4.93038 7.24042 1.46185
4.66526 7.1402 1.43166
-7.24721 -0.80728 1.22172
2.86761 -5.93314 1.11089
6.65315 4.05984 1.33165
6.45283 5.18339 1.40557
3.77745 7.81726 1.45692
-6.39762 -2.30738 1.15446
-6.3028 -2.68946 1.16926
3.77303 -5.24117 1.0995
-6.99714 -1.80186 1.26327
4.2351 -4.64193 1.10424
6.62437 3.48823 1.35203
5.01387 5.54576 1.36627
3.63306 -5.36176 1.17944
3.31628 6.64953 1.38507
6.46009 3.03137 1.35565
6.39544 2.70046 1.32538
-1.64899 -5.70752 1.14076
-2.17146 -5.76493 1.20135
6.22439 2.36639 1.33099
3.93982 -4.58129 1.20182
-3.01606 5.63154 1.36369
-3.63982 5.23664 1.39127
4.20969 -2.92826 1.20531
-4.29263 3.94311 1.42138
4.58704 -2.18723 1.23331
4.47815 -1.26914 1.15728
3.71089 -2.93725 1.23278
3.68069 -2.58607 1.19338
3.4279 -2.98031 1.22581
-2.31895 -3.61353 1.20652
-2.49709 -2.92475 1.1969
1.87583 -2.49615 1.13341
1.93737 -2.65422 1.1981
-2.04568 2.80878 1.31808
-2.06993 -1.46275 1.19688
-1.82261 -1.82878 1.30189
-1.97452 -1.17098 1.20945
9.64184 -9.01923 -9.34611
9.20693 -8.89447 -7.62932
2.4472 -20.0853 -10.7456
3.66655 -9.28673 -4.50246
26.1065 32.4319 -13.9782
2.0637 20.412 -6.08125
9.4768 -8.74337 -1.61205
8.73047 -8.60249 -1.22918
8.87978 -8.75814 -0.924768
19.0077 -13.4583 -1.27405
42.8481 -11.5087 -2.2978
9.99303 6.87768 1.28812
-3.51421 5.3478 1.37579
7.95828 -8.21633 -10.2625
7.81944 -8.24225 -10.0023
8.34776 -8.43761 -9.83048
6.81729 -11.7719 -11.1775
7.94891 -8.20841 -9.03965
7.98855 -8.6862 -9.07018
6.19769 -14.114 -11.599
5.84782 -14.1324 -11.2004
9.05344 -8.80134 -9.25749
7.60537 -9.17964 -8.64091
7.83346 -9.08329 -8.57576
7.19229 -10.6579 -9.15014
10.1858 -9.27313 -9.65711
6.40417 -11.0394 -8.72114
8.14281 -9.04207 -8.16044
7.31391 -9.29678 -7.89626
7.93333 -9.17369 -7.97461
5.02207 -15.9351 -10.7789
-0.52162 14.3571 -9.22133
7.27868 -10.7528 -8.33051
7.58488 -9.10812 -7.58455
10.9505 -9.77149 -9.31864
7.03033 -10.889 -8.07967
8.16661 -8.57351 -7.35666
0.114625 14.3674 -8.75537
7.74057 -8.70609 -7.01944
11.4397 -9.71223 -9.05654
8.94877 -8.87773 -7.45045
6.55619 -12.8046 -8.48733
5.49995 -13.9465 -8.81144
7.02815 -11.0601 -7.52298
5.10251 -12.8142 -7.7459
3.15864 -19.3075 -10.9706
6.59153 -11.0625 -7.21688
7.831 -9.02694 -6.70206
12.133 -10.1632 -8.8519
9.66549 -9.46871 -7.42054
13.2118 -10.5916 -9.13469
14.9879 10.2651 -9.75843
14.9728 7.35651 -8.91393
13.8029 7.60989 -8.33528
11.3691 -9.81173 -7.71727
2.365 -19.4991 -9.92277
10.6367 -9.53575 -7.18748
7.32359 -9.2502 -5.91962
14.0471 -11.1418 -9.02908
17.9483 -12.8343 -10.7366
18.522 5.71901 -9.41817
2.66315 -19.5686 -9.59099
12.8016 -10.576 -8.02958
15.3225 -11.6663 -9.34364
7.28015 -10.7327 -6.24696
14.9382 7.32255 -7.74151
7.06816 -10.874 -6.04564
6.20533 -10.6002 -5.68935
9.97966 -2.50414 -4.73019
17.2802 -12.6264 -9.83491
-11.8893 17.0682 -9.48232
3.53767 -9.02338 -4.39116
-10.3019 16.8444 -8.87465
15.9153 7.19823 -7.81538
-11.3393 17.253 -8.90555
-7.08149 6.86866 -4.24947
-6.49774 6.48211 -3.90757
1.19631 -15.4354 -6.58171
19.7881 20.5005 -11.9563
16.1447 -12.2021 -8.51047
15.0906 7.41587 -7.02586
-10.0922 -1.10128 -4.21601
19.7569 21.5052 -11.9898
14.0353 7.75475 -6.52613
16.3285 7.35444 -7.19397
14.9386 7.68682 -6.73853
1.48594 -17.9133 -7.01975
18.5814 5.73325 -7.52562
19.2897 21.5251 -11.1776
0.769978 16.2517 -6.25013
0.710944 -24.2234 -9.21674
16.8269 -12.4464 -7.82995
14.0955 7.87077 -5.83538
0.537459 -22.701 -8.00311
-4.08685 13.7494 -5.0348
-10.7004 16.4461 -6.86861
-0.869176 -23.008 -8.09325
-15.1572 18.7054 -8.3275
-8.9887 16.239 -6.37082
-5.06452 14.4306 -5.15712
1.27141 17.5656 -5.86747
-5.39382 14.3754 -5.06311
38.1673 -19.6111 -14.1684
12.4323 -10.2837 -5.20025
7.99927 -9.16496 -3.89815
7.38649 -8.77358 -3.55057
-4.28052 14.4131 -4.52581
11.499 -9.7527 -4.55164
15.0321 9.46113 -5.08606
13.5994 -10.6191 -4.95148
-5.56528 14.8403 -4.4624
-13.587 18.2354 -6.41842
15.5843 10.5337 -5.18039
-9.7118 16.3212 -5.04845
-27.4073 21.2273 -9.05309
-24.1371 20.2761 -8.15508
-7.2188 15.3253 -4.33276
-8.0179 15.5582 -4.26914
-26.3579 20.8009 -8.18266
-3.32303 13.6022 -3.35402
-11.8584 17.2061 -4.99505
3.10143 -9.5256 -2.36948
14.6981 7.8404 -3.93195
-33.7255 -26.4763 -10.0542
5.37758 -11.5956 -3.01207
48.7905 -11.7676 -11.6656
-7.37985 -36.0937 -8.46465
-9.84049 16.5044 -4.39339
14.9998 7.34979 -3.78362
-30.5187 22.1884 -8.37685
-12.5962 -45.0762 -10.2775
3.71713 -9.39153 -2.22492
42.108 -10.6695 -9.38502
-35.2237 -23.1346 -8.9816
-14.956 18.5589 -4.95028
14.5771 7.78568 -3.43188
-32.298 -24.4394 -8.33741
9.27005 -9.17692 -2.7055
42.8169 -10.885 -9.06351
45.5032 -9.6501 -9.38869
-28.854 21.6566 -7.11608
-21.4688 -34.8972 -8.0541
-33.5543 -24.2424 -7.82647
-35.0231 -23.1104 -7.83584
-14.9409 18.573 -4.32972
15.2493 7.4772 -2.99208
-5.34193 14.2558 -2.67995
-18.7787 20.0932 -4.86266
-22.541 -53.6697 -10.1493
-22.7627 -36.7202 -7.45517
-34.4155 23.3161 -7.05142
9.10268 -8.95305 -2.16718
-31.5598 22.9895 -6.35453
-32.4084 -24.3501 -6.47314
-20.7546 -55.2359 -9.423
42.183 -10.7101 -6.94307
-45.2154 26.7056 -8.27497
-37.4858 -23.4684 -6.85777
6.41936 -10.8347 -1.96785
-29.5499 -26.3411 -5.9805
-30.935 -25.3821 -5.99774
-20.7891 -51.217 -8.21051
6.45223 -12.3582 -2.08248
-33.4679 -24.0696 -5.90016
-31.4343 -24.7452 -5.67702
-32.6618 23.3838 -5.61808
-13.1887 17.8064 -3.01648
-33.225 -24.8398 -5.61684
-30.5472 -26.2804 -5.46968
-32.1016 -19.9642 -4.96384
-34.1136 -23.5149 -5.46512
-33.9109 23.0006 -5.16338
-31.0112 23.0809 -4.72718
-41.3509 24.4246 -5.90285
12.9053 -10.4344 -1.94662
9.6815 -9.06465 -1.52557
10.5211 -9.20475 -1.54014
-13.2312 17.8893 -2.34395
15.0415 -11.5666 -2.02615
-31.264 -24.725 -4.0421
45.3443 -9.63705 -4.63487
17.0451 -12.4369 -2.07777
41.8998 -11.2614 -4.0924
-34.7668 -71.3217 -7.03714
-23.6246 20.6709 -2.75044
-29.1875 -13.0988 -2.77953
6.92706 -10.6473 -1.11596
16.9623 -12.2565 -1.8129
-29.6533 -26.4574 -3.35286
9.82084 -8.91698 -1.09526
13.6663 -10.8658 -1.40542
-34.8204 23.6065 -3.21695
-30.3866 22.7673 -2.80824
16.6699 -12.1597 -1.50845
-17.7942 -43.6296 -3.37935
7.32993 -9.09368 -0.85193
-26.565 -60.9725 -4.57877
9.54836 -8.99432 -0.870878
9.70092 -4.72407 -0.680855
11.2737 -9.76734 -0.939894
-15.236 -41.8315 -2.62129
15.1482 7.44069 -0.924179
14.5858 7.80941 -0.899487
11.7477 -9.97459 -0.796072
16.8121 -12.5916 -1.00483
-12.7113 17.4123 -1.03718
-37.5979 -67.1774 -3.69902
-27.7853 -55.6296 -2.98151
-35.4157 -19.9843 -1.3677
-18.5792 -45.9839 -1.65515
-25.8611 -59.8077 -1.88698
-22.9085 -61.792 -1.91336
15.3312 13.3758 -0.392403
11.476 11.165 -0.300039
23.3983 28.5701 -0.629224
13.1836 -10.8481 -0.315236
-22.5431 -49.5068 -0.894249
-19.6283 5.68909 -0.106811
-35.8995 -68.9052 -0.418173
29.5207 -18.6214 -0.232411
18.4973 -12.8536 -0.0244828
14.7225 7.61809 0.0338074
6.49248 -12.1302 0.15719
11.3453 -9.91381 0.164537
-12.3834 -19.1251 0.3012
25.858 -5.01862 0.746625
20.9837 42.9931 1.50239
-7.87572 -9.29263 0.421153
-30.9025 -14.7323 1.28904
15.7946 28.5003 1.40857
-10.881 -16.9955 0.852056
14.5909 19.3634 1.11091
18.3673 35.8977 1.82387
16.3576 31.3623 1.65934
6.52971 -12.3636 0.659699
-6.97921 -8.48208 0.564274
15.2542 25.2299 1.57761
6.26467 -13.6455 0.778411
-6.74942 -4.55666 0.482047
-11.6706 -8.90919 0.869034
-7.5604 -10.4389 0.857416
10.8984 9.02897 1.0075
6.21327 -12.8886 1.00525
-7.17886 -6.36079 0.68351
7.04815 -10.7751 0.917235
12.7055 19.8283 1.8054
-15.1236 8.45333 1.33332
10.9648 -4.90439 0.913244
9.43668 -8.85643 1.03314
10.2969 12.3939 1.4532
6.49996 -6.18454 0.831099
10.9401 9.04168 1.33382
6.37335 13.2619 1.40332
4.51867 12.5027 1.2988
9.64531 12.1097 1.5576
7.56315 10.353 1.33706
6.5328 12.6603 1.51705
8.19657 -6.61569 1.10731
10.0483 9.50285 1.47811
7.05169 10.6389 1.37419
8.72359 9.26975 1.43959
4.73895 -5.85061 0.848018
9.85181 5.43329 1.2852
6.95828 11.0515 1.52266
5.86768 10.5395 1.42912
-7.03667 -2.10037 0.853253
8.40412 8.53984 1.42074
-7.20577 -0.819294 0.868585
-6.88874 -3.97097 0.945714
4.36665 12.0591 1.56102
-7.04083 -2.33561 0.894505
-7.47096 -0.988673 0.92785
-9.19665 1.34521 1.16276
8.28314 7.56193 1.42444
4.84015 -5.26479 0.934065
7.70445 8.13476 1.4741
-7.27531 -4.51696 1.15624
7.25595 -3.86603 1.14047
7.45588 -3.53557 1.15082
7.45932 -3.26691 1.13733
8.11356 4.12691 1.30086
7.41362 -3.70153 1.1835
8.30349 4.56185 1.35643
7.69754 -3.0163 1.19942
7.91292 -1.91738 1.17093
5.66505 7.32329 1.39644
5.20318 -5.60789 1.17161
-7.15345 -1.83214 1.15715
-7.19707 -1.33231 1.16476
5.26469 6.32575 1.36282
-6.42148 -2.31825 1.14021
6.79449 4.17508 1.35678
-7.34803 -0.958786 1.25743
2.98721 -6.17273 1.15422
-6.97537 -1.77055 1.2656
3.99955 -5.11263 1.12936
4.70514 -4.47725 1.15092
3.55025 -5.23361 1.16095
4.98972 5.52212 1.3597
-7.2623 -1.15976 1.34306
3.8466 -5.2245 1.2083
-7.06791 -0.81085 1.35039
6.31157 2.8236 1.33022
3.69522 -4.57517 1.13638
-2.24915 -5.37503 1.17086
4.93859 -6.43269 1.59754
3.81356 -4.42347 1.15578
4.16025 -4.32949 1.22964
-6.42835 1.48305 1.36989
-2.90742 4.86798 1.19084
-1.34051 -4.98267 1.14415
4.03963 -3.76134 1.2225
4.46376 -2.75794 1.21377
-4.47581 3.94015 1.38788
4.7994 -1.93884 1.2456
-2.75073 4.72857 1.29192
4.34299 -2.67939 1.23109
-1.01421 -4.20664 1.16511
-1.42519 -4.00181 1.17941
-2.14615 -3.81145 1.21572
3.98976 2.54964 1.32892
1.84797 -3.18797 1.22145
-2.04194 -2.42935 1.27244
2.58092 -1.819 1.32267
2.47796 -1.91946 1.32369
-2.16693 -1.77719 1.21311
2.36511 -1.3025 1.19721
-2.00234 -1.4881 1.20282
7.73095 -8.27619 -9.97815
8.1394 -8.16603 -9.53404
6.72836 -11.7561 -11.0665
7.98452 -8.33814 -9.10581
8.02813 -8.89623 -9.06372
6.2507 -13.8979 -11.4647
9.00969 -8.84933 -9.2645
7.24044 -9.42549 -8.71752
7.3551 -10.8294 -9.30825
8.14494 -8.87214 -8.16868
8.89653 -8.91133 -8.35675
6.36725 -12.4832 -9.12964
5.23234 -16.0859 -10.9631
7.25802 -10.579 -8.26299
10.5754 -9.61215 -9.1742
7.8714 -8.32503 -6.99034
0.115527 15.6598 -9.43304
12.1071 -10.2291 -9.56059
8.24496 -9.11745 -7.34832
-0.321185 13.2562 -7.71935
7.40498 -10.8271 -7.22681
7.8058 -8.97892 -6.57603
5.82488 -12.6227 -7.5788
14.9203 10.1231 -9.7372
14.0901 7.81599 -8.4564
0.300153 14.7424 -7.73608
5.73463 -10.0025 -6.03388
10.5628 -9.58421 -7.19201
12.7147 -10.6127 -8.08208
15.3317 -11.5675 -9.34784
10.0284 -2.52263 -4.71411
16.0348 7.36076 -7.80731
9.59248 -3.44811 -4.52608
14.5885 7.9179 -7.24145
19.7697 20.2286 -11.886
14.0787 -11.1353 -7.59957
15.5529 7.38895 -7.21652
9.66015 -3.26117 -4.24427
14.1098 7.85723 -6.48427
15.4461 7.93158 -6.91247
16.9253 15.782 -9.22375
-9.43774 -1.36763 -3.75627
0.615286 -25.234 -9.84647
0.871981 16.8845 -6.5715
15.9337 -11.9652 -7.6349
14.9419 11.4775 -6.89189
10.4475 -9.43589 -5.10042
-0.378768 -23.203 -8.23861
-0.889493 -26.3821 -9.1773
-4.12633 13.8956 -5.01511
-13.9051 18.1995 -7.90229
1.39516 17.6781 -5.87445
-5.22338 14.4048 -5.0445
-2.82261 -26.3399 -8.39275
-11.2687 17.3025 -6.47796
-4.27988 14.4552 -4.60694
3.81111 -12.5507 -3.96607
-5.59935 15.417 -4.76169
3.56635 -10.4088 -3.18628
-3.93358 -28.0179 -7.63616
-23.7858 19.9011 -8.25519
3.21105 -10.3645 -2.85615
5.03764 -9.67779 -2.82362
-27.3855 21.3828 -8.79511
-30.587 22.3402 -9.62127
-32.2508 -45.5519 -13.4934
-9.7377 16.44 -4.46512
-9.275 -44.2601 -10.7721
-35.1807 -23.0038 -9.37869
-21.5747 20.4581 -6.51756
-14.9908 -42.5408 -9.84478
10.3039 -9.23457 -3.05198
-29.6756 -76.6827 -17.1429
42.767 -10.491 -9.12938
-28.6163 21.1717 -6.87379
14.6553 7.97503 -3.14609
-5.06652 13.888 -2.69826
-32.4497 -24.3529 -6.61288
6.71207 -12.7056 -2.23068
-21.7698 19.4575 -4.23441
-32.091 22.8691 -5.58394
46.5723 -10.108 -6.6829
-36.0212 -69.3212 -9.90956
-31.0909 23.2615 -4.69436
-35.094 -22.8422 -4.36896
14.6682 8.00441 -1.66421
-23.7613 20.7909 -2.52703
-31.3115 23.5447 -2.80536
42.741 -10.487 -3.25239
-23.858 -54.1747 -4.12966
7.99844 -11.2788 -0.907611
7.18969 -9.05207 -0.752833
16.843 -12.3224 -1.36656
14.8407 8.0696 -0.99958
29.1255 -18.7719 -1.90007
14.9454 7.67631 -0.585948
-24.2786 -54.1101 -1.36988
-19.1211 -52.1106 -1.26613
-23.3899 20.781 -0.55233
-36.6106 -21.6553 -0.350227
-38.9883 -25.7069 -0.262736
19.6297 -13.4751 -0.183694
15.5406 7.98436 0.133676
-32.2656 22.8247 0.383978
25.0533 -4.92197 0.86937
-6.78433 14.9945 0.653831
16.0792 10.1845 0.866054
10.7532 12.8255 0.715846
13.9303 18.4943 1.05687
6.67009 -12.636 0.643736
7.43758 -10.6952 0.564773
6.25925 -10.2871 0.588459
15.6575 25.2815 1.56593
-7.31638 -8.0474 0.551035
-6.66919 -8.04097 0.538469
10.2745 -9.38896 0.756258
8.95059 17.8529 1.33505
-7.3477 -10.2779 0.90506
10.5795 -4.76933 0.830583
-14.474 7.97514 1.28573
6.62313 -11.5959 1.04726
-6.20732 -4.26547 0.677457
-7.44354 -7.89223 0.932061
6.3601 13.1762 1.3312
9.57121 9.0524 1.25357
7.0849 10.7866 1.34684
7.3139 12.5806 1.49938
8.07192 -6.50672 1.0979
-9.05668 1.37017 1.11606
