ply
format ascii 1.0 
element vertex 1881
comment /media/mkaihara/Seagate Backup Plus Drive/model_iterations/model_53.ply
property float32 x 
property float32 y 
property float32 z 
end_header 
-6.88154 -6.79154 0.560733
11.2396 11.9853 0.967658
-6.80755 -8.41201 0.64765
6.23244 -12.5282 0.817692
14.5784 19.3968 1.45926
14.0477 22.9678 1.60631
13.3032 30.7446 2.01074
-6.14216 6.5419 0.551034
-8.16797 -7.73948 0.680616
-7.11653 -8.16396 0.665128
5.70512 -12.4074 0.825872
-7.4812 -6.88784 0.632624
6.98681 -11.1319 0.812776
6.96992 -10.5337 0.788444
11.3115 -9.76421 0.922994
12.0976 -10.1202 0.97755
16.1776 7.16472 1.12749
14.8249 19.2048 1.53517
-7.23736 -6.3074 0.622657
10.2411 -9.35343 0.895219
-7.37878 -6.25988 0.634739
11.4418 12.0735 1.13353
9.48487 21.3524 1.59109
-7.27239 -9.65337 0.807485
11.6005 12.5818 1.17415
-6.9557 -4.45754 0.568255
-6.75287 -8.20163 0.724514
-6.7 -4.43392 0.554174
9.25424 -8.84768 0.891437
9.98008 -7.83008 0.893685
12.6635 15.9605 1.4733
-6.67025 -6.66272 0.655071
9.79297 -8.26973 0.937382
11.4168 17.0709 1.54407
11.3456 18.0881 1.59517
9.54732 18.1715 1.54807
8.96453 19.3736 1.60567
7.2852 21.713 1.72186
10.7199 18.5032 1.62927
9.99789 -7.58553 0.959689
-7.02898 -7.19007 0.77048
-17.206 -6.24077 1.43114
9.4573 -7.66708 0.954507
9.28562 18.5462 1.63713
-6.38112 -4.26079 0.608314
-6.83089 -8.22131 0.847368
4.83153 -5.72947 0.595967
8.96651 19.7268 1.71882
7.71846 18.8717 1.6395
5.0248 -5.79127 0.617836
12.7456 11.501 1.39124
11.7474 11.8002 1.36357
6.7185 -9.3727 0.937495
12.2034 11.6722 1.38825
6.6339 19.4744 1.68413
-6.35729 -4.38858 0.629578
-7.16321 -9.4805 0.975285
11.5161 12.065 1.38014
10.4505 9.14239 1.18246
-5.04076 -11.5006 1.06074
6.12179 -6.04194 0.750891
9.20402 -7.17025 1.00359
-6.79625 -6.69392 0.810453
10.4028 12.3283 1.40831
8.78482 -7.32003 0.994116
10.8002 12.1747 1.42447
-7.31086 -7.76575 0.93505
8.17967 -7.282 0.972457
10.1793 12.4421 1.44532
-7.07276 -7.74311 0.929858
-6.93948 -8.34211 0.973867
10.5705 12.2875 1.47196
10.4707 13.5066 1.5485
-7.11837 -8.32995 0.998131
11.1938 10.8123 1.43164
-6.3154 -4.23181 0.699051
-6.86278 -8.5954 1.00635
-6.3293 -4.39501 0.710303
11.0641 8.53848 1.31163
10.6208 9.31066 1.31707
6.46245 15.3515 1.56674
10.4848 11.2797 1.45739
-11.2369 2.87946 1.09609
6.15346 -5.96138 0.816895
7.9963 -6.629 0.997753
10.7209 9.18059 1.37036
9.50323 12.5043 1.5209
9.68821 12.4331 1.55307
7.64643 12.2288 1.43283
7.88935 13.1886 1.52991
11.2063 8.04726 1.40621
7.11951 12.6689 1.4668
9.04059 11.3297 1.475
6.97582 13.5051 1.55579
5.8476 13.8949 1.54779
9.17925 10.4648 1.43888
9.01027 12.2751 1.58226
11.3705 7.6461 1.42956
9.23471 9.987 1.41638
4.97084 -5.81674 0.821525
-6.84756 -4.65721 0.873574
5.55738 13.8456 1.58374
-7.06074 -4.50774 0.893394
8.90968 10.6757 1.49316
-6.76815 -6.77782 1.02461
5.90637 -5.82981 0.896539
9.6762 8.51934 1.38979
8.9463 9.34411 1.39154
9.24013 10.3005 1.50047
4.76439 13.8081 1.57667
4.233 -8.05053 0.985375
6.45192 10.794 1.384
-6.80308 -3.92587 0.864615
6.33181 11.8723 1.49308
-6.89695 -3.86405 0.875857
9.69864 7.19629 1.35068
6.65488 11.3577 1.46626
9.79368 7.02193 1.35398
5.42145 11.5574 1.44363
5.42593 12.0649 1.49437
4.69034 12.2061 1.47975
9.82369 6.67693 1.35387
-6.89389 -4.56499 0.946989
7.40194 -6.22607 1.10262
-7.33289 -0.785701 0.845701
-6.27694 -5.39233 0.953098
5.24775 -5.56657 0.882862
8.86539 7.88152 1.38217
4.41689 -7.18126 0.976779
10.4043 5.1508 1.35973
8.94924 7.78537 1.39453
5.19917 -5.61022 0.903777
8.59314 7.90988 1.38602
8.89101 9.04509 1.48408
-7.05029 -5.65307 1.06932
10.1328 4.7447 1.33323
-6.92073 -3.85294 0.954471
9.13324 6.13972 1.33492
5.20105 11.4006 1.51925
-6.89516 -3.06644 0.916994
-6.87956 -3.25251 0.920319
4.88007 -5.95152 0.939513
5.9721 -6.12722 1.04188
9.36643 5.61812 1.35034
8.4552 7.21853 1.37473
-6.95267 -4.31194 1.00789
-6.88414 -4.53654 1.0162
8.2502 8.57648 1.47662
5.02256 11.2954 1.5352
-6.55293 -5.62007 1.07444
3.70795 -7.57279 1.05088
8.49553 7.73581 1.43788
6.07638 -5.61603 1.0375
9.16011 6.05664 1.39179
-6.13716 -5.41538 1.03287
8.54282 6.60878 1.37756
8.0814 7.50326 1.40298
-7.10253 -1.78331 0.936764
-7.01528 -2.3066 0.943243
-6.44812 -5.32092 1.06672
8.82299 5.65651 1.34375
8.14751 8.0381 1.47531
-7.26499 -1.25349 0.945481
-6.90017 -4.12031 1.03912
7.42666 6.21692 1.25458
8.07207 7.03548 1.38865
7.96161 8.11788 1.47361
-6.91213 -2.82695 0.972357
-6.91344 -2.96688 0.97274
4.54586 10.0669 1.45184
8.99183 4.10822 1.30139
-7.24894 -1.60643 0.975882
6.83746 -4.25786 1.07064
4.92792 -5.9433 1.02372
-7.33422 -1.11732 0.993198
-7.0156 -2.19978 0.983651
-7.05274 -2.26905 0.98993
-5.99674 -4.39955 0.994078
5.1872 -6.56333 1.11504
6.90821 -4.17477 1.08679
8.06633 7.1639 1.46169
-7.15244 -1.71849 0.989077
-7.0838 -1.95603 0.98855
8.7878 4.8516 1.36353
8.32575 5.86877 1.38513
-6.92304 -3.62009 1.06468
8.86127 4.15884 1.3428
3.33992 10.4971 1.50828
-7.31369 -1.20009 1.01471
-6.01196 -4.44282 1.02824
-5.99247 -4.54168 1.02948
7.14586 -3.93302 1.12122
8.06553 6.48075 1.43113
5.35014 9.04279 1.45515
-6.38412 -4.32273 1.05709
4.93287 -5.5258 1.02912
7.18349 -3.82879 1.13303
7.55753 -3.68533 1.16354
3.61409 10.0263 1.48426
3.42838 10.3159 1.51578
-7.37005 -1.08225 1.04011
-7.07464 -2.00407 1.02483
4.97224 -5.28759 1.01477
7.2452 -3.73684 1.14541
7.36153 -3.67152 1.16689
7.87058 -3.35573 1.21649
-7.15558 -1.87494 1.05216
-7.00941 -2.94641 1.10202
-6.00979 -4.37478 1.06923
7.90527 -2.78233 1.22632
8.22916 4.61877 1.38278
4.98917 8.54693 1.45069
8.36645 4.50539 1.40458
7.83091 -2.34092 1.20497
7.14341 5.68657 1.36747
2.95831 9.44291 1.47978
-7.09449 -2.01969 1.10569
7.48455 -3.11 1.22199
8.2258 4.54604 1.42481
5.78398 7.43864 1.43104
5.28935 7.63081 1.41503
5.12503 7.94039 1.43574
5.07838 8.04884 1.44061
7.33482 -3.17026 1.22059
7.68052 -2.75656 1.24279
-6.75632 -1.68283 1.04895
7.8329 -2.25719 1.25019
7.23372 5.42523 1.38865
-7.10399 -1.95255 1.14347
-6.92074 -2.78622 1.15974
6.81373 5.52678 1.37635
-7.35582 -1.09581 1.16181
-7.14475 -1.82428 1.15507
-7.04704 -2.06767 1.1509
-7.12141 -1.87261 1.15573
-6.89593 -2.93463 1.17669
4.81013 7.45843 1.41168
3.44546 -6.03055 1.10915
-7.27625 -1.29951 1.18427
3.52715 -5.70622 1.0808
3.56406 -5.6117 1.07021
7.07915 4.77184 1.39137
4.66381 7.38156 1.42129
-7.07171 -2.02368 1.19896
-7.09373 -1.94712 1.20729
6.97454 4.83301 1.40355
3.82073 7.93749 1.45872
6.05496 -3.32025 1.15046
6.64231 4.87963 1.37444
4.6661 7.1718 1.42749
3.83557 -5.29943 1.09962
7.11501 4.4306 1.41152
7.48381 2.86168 1.35426
6.32912 5.29093 1.39838
-7.2798 -1.25585 1.25822
6.76243 4.08856 1.35734
-6.45143 -2.77221 1.19831
5.51073 -3.63052 1.13373
5.69232 -3.51954 1.14916
2.75804 7.8603 1.44046
-7.37341 -1.03966 1.29119
5.33474 -3.78411 1.14024
-6.31143 -2.25985 1.16267
-6.27192 -2.41695 1.17712
4.28064 -4.66415 1.10716
4.49379 -4.47698 1.11282
4.59158 -4.44893 1.12174
-6.80178 -1.73276 1.23667
4.33831 6.5088 1.39562
-7.16044 -0.928405 1.29088
-6.14467 -2.25795 1.16628
6.64895 3.69725 1.36399
6.10894 4.36826 1.36243
3.60788 -5.32629 1.17004
5.15572 5.69415 1.40526
2.5194 7.20989 1.43496
6.49397 3.05639 1.35725
-1.7074 -5.78576 1.14187
6.43054 -1.38686 1.24829
6.28176 2.78173 1.3229
6.2265 2.38463 1.33045
-4.45486 3.94207 1.39874
4.33085 3.53913 1.338
4.216 3.29614 1.32508
4.66563 -1.6779 1.24514
4.81955 -1.38118 1.25436
-2.14565 4.80753 1.31531
3.72627 -2.9524 1.22231
3.67245 -2.54909 1.19357
3.40567 -2.96091 1.22563
4.0062 2.57071 1.33045
-2.59522 -3.53519 1.25131
-2.32672 -3.57155 1.21669
3.7558 2.05836 1.30232
3.73238 1.98066 1.30173
-2.84478 3.48839 1.38872
-2.29681 -2.41971 1.18763
1.95449 -2.7799 1.21252
-2.12507 2.76939 1.32607
-2.02999 2.75748 1.33225
2.25004 -1.86913 1.22518
2.37958 -1.49788 1.2223
-2.01676 1.87788 1.29695
-2.0646 -1.44309 1.22861
1.44894 -2.06936 1.24537
-1.99251 -1.08779 1.21463
-1.92496 -0.707665 1.22016
-1.9267 -0.703453 1.24575
-1.95583 -0.344355 1.2291
-1.89293 -0.564683 1.23007
-1.89253 -0.530891 1.23516
8.22271 -8.70228 -7.4678
12.1208 -10.2831 -8.79652
-8.77877 15.6707 -6.96962
20.5207 24.9892 -11.6163
-8.80604 -2.52191 -2.58108
-34.5132 -23.0549 -7.66727
-34.1121 -22.3084 -6.01403
-33.8417 -22.9982 -6.07636
-31.2197 -20.0223 -2.78916
9.28336 -8.84218 -0.391705
-7.69034 16.5766 -0.450834
-29.4813 -11.4083 0.72827
-6.92108 -8.27185 0.46072
16.6699 23.9371 1.5849
11.378 16.0018 1.62413
-6.69661 -6.66964 0.883815
4.22088 12.2477 1.49306
8.72644 9.08986 1.47403
7.98048 -8.77281 -10.3899
8.8415 -8.54875 -10.5085
6.96366 -11.9483 -11.5247
6.87902 -11.3606 -10.9057
8.16074 -8.27309 -9.54231
7.02855 -12.0399 -11.3364
7.0731 -10.9836 -10.4662
8.0104 -8.38629 -9.21324
6.7343 -11.2957 -10.2988
6.45158 -11.7083 -10.2228
7.76548 -8.85982 -8.98143
6.2119 -14.3303 -11.8194
8.30763 -8.71036 -9.11114
6.30614 -11.9206 -10.1851
6.15326 -12.099 -10.1218
7.4994 -9.45553 -9.01083
7.91778 -9.06549 -8.93608
10.4794 -9.46063 -10.5001
6.12601 -14.1266 -11.3811
6.10666 -13.6794 -11.0142
6.13724 -12.5885 -10.3007
9.20588 -8.83477 -9.36
9.29388 -9.08177 -9.47744
5.8707 -12.5171 -10.0434
9.36979 -8.99833 -9.27117
6.86888 -11.1375 -9.28661
5.62115 -12.9823 -10.0128
9.7015 -9.09003 -9.42178
7.61703 -9.35392 -8.48125
10.0071 -9.19576 -9.54785
10.9288 -9.50335 -10.1624
11.4531 -9.70896 -10.0834
8.3938 -8.6173 -7.96439
7.43902 -9.30897 -7.8734
8.17671 -8.72826 -7.90528
7.63645 -9.36219 -7.90428
7.84558 -9.41238 -7.85338
8.32983 -8.54483 -7.62838
0.358474 15.8788 -10.1338
7.53602 -9.33438 -7.63441
10.922 -9.61708 -9.25269
7.23431 -10.7143 -8.18212
8.16433 -8.50689 -7.43586
4.61692 -15.4177 -10.1218
8.72295 -8.70997 -7.62677
7.93018 -9.04242 -7.41869
4.05178 -18.0312 -11.3838
8.20685 -8.63709 -7.28373
4.08839 -17.3148 -10.8557
0.144376 14.8832 -9.05608
6.66214 -11.2753 -7.97346
7.75099 -9.27802 -7.33543
10.1364 -9.32233 -8.35621
6.82838 -11.264 -7.90753
8.06958 -9.21475 -7.35242
11.2802 -9.70652 -8.89732
5.40662 -13.8713 -8.82957
7.74358 -9.27643 -7.16606
9.36113 -9.04326 -7.71251
6.91024 -11.128 -7.75264
7.99226 -9.13809 -7.12342
9.76339 -9.19749 -7.81704
14.866 7.42848 -9.65193
8.6771 -8.84101 -7.158
6.94053 -10.9765 -7.4636
2.64206 -11.2205 -6.62953
7.86854 -9.08158 -6.882
9.61536 -9.14987 -7.53972
10.804 -9.50511 -8.11771
3.27981 -20.5946 -11.7277
6.80821 -10.9936 -7.24921
10.1165 -9.30079 -7.69584
12.3528 -10.365 -9.04285
9.25014 -9.01698 -7.2183
4.62051 -14.3067 -8.38156
8.01291 -9.22674 -6.78702
14.7885 7.56074 -9.11876
9.70752 -9.11648 -7.31377
0.835782 17.4778 -9.55526
2.74111 -19.8465 -10.9246
11.1415 -9.6548 -8.00457
4.23816 -14.4373 -8.14469
14.7017 7.68842 -8.93671
15.0936 10.4212 -9.84829
14.0361 7.74354 -8.56572
10.9613 -9.62723 -7.7579
13.2773 -10.8122 -9.10839
3.04324 -19.3232 -10.2835
11.3666 -9.83428 -7.64778
2.16861 -20.3737 -10.3413
10.2708 -9.35092 -6.98452
14.2822 -11.2965 -9.14269
13.8188 -11.1771 -8.89752
11.0181 -9.66403 -7.30156
7.51515 -9.34595 -5.93899
3.56454 -8.47157 -4.52951
-8.70303 -1.91087 -4.38072
2.22256 -20.1468 -9.94148
4.53361 -9.30243 -5.06102
0.402631 13.6637 -6.6916
7.61414 -9.27774 -5.8567
-8.4973 16.2145 -8.86533
-9.20354 -2.43306 -4.58684
15.0076 -11.5894 -9.1121
19.3914 5.5483 -9.64582
-10.3169 -2.55433 -5.02707
1.90964 -20.5485 -9.81309
17.2258 16.188 -11.1961
7.58874 -11.219 -6.391
20.0444 5.41035 -9.77749
14.0395 -11.1152 -8.3271
2.93168 -17.3441 -8.179
19.3697 5.73107 -9.33204
17.8583 -13.0145 -10.2071
9.86425 -2.4916 -4.701
20.2995 5.14514 -9.66211
17.3519 16.3174 -10.9763
1.80966 -20.2118 -9.28721
9.67835 -9.0501 -6.06749
-9.21329 -1.67231 -4.27036
9.45146 -3.46808 -4.58543
6.71783 -11.3246 -5.98906
9.91155 -2.61801 -4.65004
19.2626 5.87378 -9.06648
17.7407 17.5973 -11.2337
9.36752 -3.0858 -4.43953
15.442 -11.8825 -8.74387
7.04198 -11.5698 -6.05812
7.1553 -10.9227 -5.82024
9.55776 -3.40423 -4.52145
-10.0146 16.4131 -8.55932
17.6674 -12.8939 -9.71921
19.5495 5.63168 -9.01749
16.1172 7.31053 -7.83718
17.8489 18.0288 -11.2204
16.4384 -12.2255 -9.02904
-11.2632 17.1264 -9.00901
-6.5688 15.0097 -7.18296
-5.23693 4.91174 -3.12799
20.1485 5.47067 -9.07688
9.55668 -3.4045 -4.37837
18.2445 18.4921 -11.1656
15.8338 -12.1848 -8.59717
14.8747 7.43731 -7.09781
3.83966 -9.30461 -4.2766
-11.1877 17.0145 -8.62
6.94776 -10.9117 -5.45457
-13.5895 3.33041 -5.89476
0.743352 -22.3695 -9.43206
15.8176 -11.9764 -8.29714
-5.16582 5.68813 -3.21442
0.998448 -22.2311 -9.3286
1.23232 -20.7792 -8.72036
14.1825 7.60655 -6.7316
18.5778 19.3608 -11.2116
3.78352 -8.95654 -4.05462
14.7868 7.73784 -6.94714
17.945 19.1659 -10.8963
-9.5157 -1.09214 -3.95373
4.00762 -8.50304 -3.85136
14.0495 7.75776 -6.58861
6.8472 -10.992 -5.29446
-13.6292 2.54598 -5.67175
-7.9813 15.4606 -7.06981
19.2856 20.9564 -11.5385
15.0892 7.25041 -6.74534
-5.28616 14.4336 -6.16231
13.9626 -11.0387 -6.97145
1.53294 19.2747 -7.51013
-8.76752 15.8334 -7.03258
19.0089 5.79708 -7.70031
-1.75624 13.296 -5.1944
5.29752 -9.39716 -4.16014
-2.3882 13.5132 -5.27034
19.6195 22.6965 -11.5042
4.66147 -8.51713 -3.68732
19.4362 5.57589 -7.69452
0.875712 -26.4797 -10.0688
14.9162 -11.4944 -7.08683
19.9962 5.41738 -7.75401
9.44214 -3.44013 -3.75724
0.532814 -22.6399 -8.43964
3.25028 -10.8001 -4.21357
20.2224 23.5275 -11.5217
0.909467 -8.71964 -3.25124
14.0371 -11.1166 -6.60254
20.4051 5.18982 -7.74158
17.9094 17.6968 -9.20142
-13.0441 2.28519 -4.81443
20.8779 24.9323 -11.7949
2.2884 -13.2651 -4.84945
13.0428 -10.5474 -6.03589
0.795712 15.455 -5.53759
-8.20242 -2.79912 -3.09993
0.409862 -21.8215 -7.80203
-4.2282 13.8736 -5.15835
0.638137 -21.9086 -7.78906
15.8689 -11.9851 -7.04834
-15.783 18.2459 -8.5017
5.93073 -11.3424 -4.50036
-11.0594 16.6888 -6.99208
0.093922 -18.4951 -6.50161
14.2743 -11.3125 -6.36853
20.3601 5.36205 -7.3491
0.657376 -23.0227 -7.95434
-5.02995 14.5993 -5.29022
3.64003 -8.44997 -3.16709
4.87789 -9.03551 -3.51864
-14.5533 18.0676 -7.94063
2.27581 -10.8894 -3.81235
-8.91655 16.1739 -6.2951
3.03105 -13.7126 -4.78785
-15.0302 18.4473 -8.06626
20.1781 5.48616 -7.0286
22.0873 27.3239 -11.7433
36.1259 -20.3932 -13.8631
-5.32359 14.1182 -5.01075
1.91677 20.7862 -6.92696
1.26745 -10.2478 -3.41419
-5.27119 14.5121 -5.01432
-12.6307 17.291 -6.94591
18.5817 -13.2411 -7.40949
3.56006 -8.67309 -3.00591
6.22266 -10.1174 -3.80656
2.31392 -11.0092 -3.57999
-4.55932 -34.2556 -10.9841
-1.13722 -23.8411 -7.59779
15.0368 10.3561 -5.76238
-13.256 17.639 -6.97385
-18.0512 19.4696 -8.3457
6.9662 -11.1017 -4.05195
1.38511 -21.8875 -6.78445
-2.57417 -27.4254 -8.45556
7.20183 33.2666 -10.3876
0.770904 15.047 -4.57677
-11.172 16.8559 -6.09459
-2.70044 -26.5214 -8.02856
-14.3933 17.9957 -6.87533
-5.30071 -34.7647 -10.4711
0.837863 -25.0301 -7.48841
-5.41146 14.8819 -4.7099
2.08374 20.7434 -6.14297
-21.3442 19.9016 -8.6096
18.2298 5.80114 -5.63125
-4.31146 14.4784 -4.44142
-7.95393 15.4301 -5.09262
4.25745 -9.14676 -2.9653
4.63988 -11.6256 -3.65999
-12.6232 2.22373 -3.68372
-33.0149 -46.7664 -16.4728
-15.2466 18.3414 -6.85604
6.96395 -11.0914 -3.77031
2.56424 -9.54743 -2.80886
12.9445 -10.4777 -4.73927
-8.45217 -2.45985 -2.49602
21.1152 27.2323 -9.7638
-8.57954 -2.26125 -2.50711
-2.55242 -26.0508 -7.34603
-13.0299 1.99667 -3.67083
4.39151 -11.3386 -3.37479
-9.34003 16.0619 -5.10058
-13.1 17.4709 -5.99745
-5.41124 14.4404 -4.2145
-8.51506 -41.3562 -11.5529
-21.5323 20.0935 -7.9172
-9.76147 16.1861 -5.0651
-26.7859 20.5763 -8.98557
11.4506 11.5248 -4.28713
4.33066 -11.305 -3.20702
47.1846 -13.7166 -13.0171
-8.20478 -38.7221 -10.4042
4.0911 -8.66078 -2.52207
11.1802 -9.94421 -3.9142
-14.4943 18.1479 -6.03893
6.54034 -10.4299 -3.18639
3.17937 -9.6499 -2.62657
-30.1457 -44.1518 -13.8053
-4.36141 -28.6096 -7.48802
3.54327 -10.3784 -2.82771
4.07013 -9.39154 -2.6308
15.6238 -11.748 -4.9876
-7.17639 15.2879 -4.27429
-31.5823 -42.1191 -13.3501
4.31524 -11.1529 -3.02658
4.25648 -7.70699 -2.24073
6.54133 -10.67 -3.12119
44.8641 -13.5643 -11.6856
-28.336 21.3783 -8.77545
-11.563 16.9876 -5.06558
-27.6347 -40.3134 -12.0176
-9.90247 -38.9782 -9.92044
-24.5385 20.6103 -7.8748
4.35194 -10.3363 -2.75545
-12.0975 17.3279 -5.12369
-7.86767 15.3288 -4.15253
10.282 -9.27441 -3.31546
40.3268 -13.3956 -10.1684
15.1333 7.56835 -4.02838
-6.318 -36.186 -8.75066
3.96652 -9.08938 -2.34988
47.0537 -12.5935 -11.5606
-12.1666 -44.7991 -10.9974
4.20369 -8.99451 -2.36848
3.8629 -11.0793 -2.76523
4.9103 -8.69662 -2.34945
-12.813 17.4607 -5.03995
11.0157 -9.65362 -3.34766
-6.19625 -31.424 -7.30842
-27.2094 21.0152 -7.79313
41.5627 -9.08954 -9.65482
-30.5535 22.1833 -8.46516
-35.4688 -23.2436 -9.50191
40.7589 -12.5999 -9.57867
5.45673 -9.47792 -2.44174
-12.4115 2.83203 -2.79324
40.6327 -11.9074 -9.35502
42.6142 -12.1591 -9.74951
-5.39269 14.1478 -3.31012
13.4034 -10.7855 -3.78679
38.0896 -12.2407 -8.79526
-23.434 20.4239 -6.74256
-29.5566 -72.8703 -17.0637
4.31113 -9.70324 -2.30249
4.54059 -9.18321 -2.21274
-14.6116 18.2044 -4.98484
-30.9863 22.5079 -8.17768
-31.8643 22.6129 -8.35226
-28.1751 -74.7534 -17.1242
-10.7138 16.7409 -4.21416
-8.44865 -35.8658 -7.8358
3.19149 -9.68877 -2.17522
3.96803 -9.83377 -2.26095
45.8214 -10.6237 -10.0406
14.9654 7.49599 -3.54866
-15.1872 18.6953 -5.09941
5.16562 -9.05768 -2.19067
26.6772 38.5985 -9.80577
15.0061 7.85347 -3.51659
-30.1772 -23.306 -7.90983
-32.9987 -84.6109 -18.8026
-11.4713 16.9014 -4.15066
-15.6502 18.5036 -4.93346
-35.2197 23.642 -8.61952
44.4536 -9.69631 -9.27831
-13.2644 -42.6818 -9.08427
4.13717 -9.73733 -2.15249
11.6123 -9.65303 -3.07233
-12.0189 17.2477 -4.19624
-19.9351 -57.2147 -12.1092
-12.9837 -40.3336 -8.38915
4.07112 -9.92449 -2.12385
-34.1436 -23.3471 -8.15402
-26.7642 21.0056 -6.69607
-33.1756 -23.731 -7.95121
-6.90104 15.2488 -3.24852
-26.5965 -62.4938 -13.1926
-33.5864 -22.3595 -7.7754
3.43672 -9.36465 -1.92622
45.9001 -10.6348 -9.04729
-12.7652 17.4284 -4.1296
3.99033 -9.34766 -1.9396
-36.471 -22.1535 -8.07778
-21.2929 -34.5898 -7.72496
-15.5979 -45.0065 -9.01303
37.9245 -12.5104 -7.54923
-35.9759 24.1624 -8.1103
-33.7193 -23.2872 -7.6983
-32.6713 -23.9036 -7.59917
-21.3339 -52.8533 -10.7248
-16.9006 -45.9071 -9.07445
3.82102 -9.20872 -1.84152
42.6028 -11.4822 -8.19345
5.76029 -9.71727 -2.07026
-24.5468 -55.6609 -11.1378
-20.4683 -50.8045 -9.90691
-14.5746 18.1675 -4.12971
-31.1228 -25.1013 -7.10731
-20.316 -27.0718 -6.0528
-39.3875 24.854 -8.21727
-26.7722 21.0213 -5.92445
-34.0994 23.334 -7.17401
3.91095 -10.0535 -1.87052
4.77319 -8.61498 -1.71159
14.0201 7.52921 -2.74489
14.0949 8.08832 -2.78342
-30.8382 22.4251 -6.53663
42.2815 -11.9624 -7.48081
42.0753 -10.8972 -7.39883
-31.28 -24.8423 -6.77622
-21.0746 20.0708 -4.88695
-20.4072 -50.7244 -9.23853
14.8778 7.45675 -2.79119
-31.7091 22.4482 -6.4896
-23.5793 -56.2174 -10.0736
43.6101 -11.7482 -7.34098
-10.3568 16.4419 -3.13556
-20.6916 -51.3329 -8.82737
-34.9117 -24.0998 -6.68486
-22.7825 20.0164 -4.74867
-24.1814 20.6427 -4.92757
-40.094 24.2756 -7.263
-11.2257 16.8013 -3.11921
3.47337 -9.53241 -1.56905
3.87127 -10.2372 -1.69462
-7.61926 15.4537 -2.63149
-31.0662 22.6108 -5.87348
-31.7802 -24.5461 -6.10628
-27.9625 -26.1558 -5.80059
42.2658 -10.9878 -6.63794
44.9211 -9.78675 -7.00419
-6.54089 14.5686 -2.38924
9.83604 -5.15581 -1.64828
-33.5094 -24.1688 -6.15284
-26.4699 -66.9295 -10.6748
10.2013 -9.17212 -2.0444
45.0639 -10.425 -6.869
-36.668 -24.4094 -6.48301
-31.5295 -26.0068 -5.97886
-12.6827 -42.0232 -6.45882
16.9379 -12.2545 -3.06231
-25.3897 20.9041 -4.77938
-24.7223 -55.3935 -8.74131
-7.61711 15.2562 -2.4381
-12.7125 17.3328 -3.06451
6.04023 -11.5398 -1.86118
-13.4119 17.9263 -3.14473
-34.6946 23.437 -5.88635
6.76498 -11.0503 -1.8109
37.6434 -12.423 -5.57525
-31.1689 -24.9757 -5.57438
-32.9957 23.7124 -5.62884
-20.6035 -49.6583 -7.42586
45.2156 -10.1153 -6.38893
-6.86736 15.1873 -2.27757
-22.6536 -59.123 -8.60127
7.75618 -9.38637 -1.63407
-14.0043 17.8812 -3.06166
13.2299 -10.5519 -2.28975
-22.2223 20.2139 -4.03945
42.1887 -10.908 -5.7851
44.9383 -9.84336 -6.08902
-22.6047 19.8923 -3.93737
-32.7039 -24.4718 -5.33529
-14.8951 18.2396 -3.04475
-34.0185 22.7056 -5.30989
-38.351 -16.1933 -5.37512
7.02162 -10.4426 -1.61455
10.7881 8.83252 -1.79044
-33.821 -23.3072 -5.25641
-31.4292 22.9441 -4.92237
-35.5964 -22.2125 -5.25921
42.0504 -10.8749 -5.43543
6.80072 -10.3748 -1.55008
-7.65191 15.3052 -2.11857
-25.0118 21.0019 -3.99917
-33.3837 23.5279 -5.03795
6.30112 -12.0847 -1.66029
44.8899 -9.57721 -5.62202
15.0218 7.87007 -2.03905
-17.9705 -43.5241 -5.67816
7.09177 -10.5399 -1.52958
-20.5295 9.09844 -2.65782
-14.3275 -43.3406 -5.36753
-31.8651 -24.5674 -4.70487
-31.3504 -25.0724 -4.69764
42.1349 -11.2867 -5.12673
11.2407 -9.68025 -1.71864
-29.8713 22.6498 -4.31296
6.64743 -10.8311 -1.45486
7.4933 -9.22562 -1.35954
11.5936 -9.7326 -1.71929
9.45343 -4.61182 -1.19113
14.9999 7.70802 -1.90076
-10.3455 16.4698 -2.19492
-32.1718 23.5082 -4.46381
38.9513 -12.8224 -4.59867
9.36314 -9.02923 -1.43907
-11.0619 16.5905 -2.16757
6.80084 -12.8038 -1.57042
45.0325 -9.78719 -4.99585
10.7866 8.86397 -1.50483
16.7936 -12.4748 -2.24526
42.3318 -10.9791 -4.68599
9.62567 -8.98488 -1.39504
8.38378 -8.46895 -1.2484
-30.9146 -24.7388 -4.12297
-30.1632 -60.5015 -7.05267
14.9965 7.52093 -1.71417
-31.8063 -24.5247 -4.12094
-12.8516 17.5194 -2.20615
-12.7707 17.1097 -2.12212
10.215 -9.09465 -1.33985
-20.8556 -52.9657 -5.58089
6.32331 -12.1094 -1.3222
16.6623 -12.1904 -1.98452
42.2209 -11.3453 -4.19064
-30.6928 -62.042 -6.58027
-20.8227 -54.6453 -5.55384
-23.3031 20.3829 -2.89428
45.7384 -10.175 -4.37649
9.72322 -8.99325 -1.22608
39.7864 -13.1245 -3.90396
-15.013 18.4035 -2.15085
-29.7024 -13.5422 -2.97568
-32.2987 -62.9637 -6.52291
15.8756 -11.8827 -1.80392
8.64129 -8.73233 -1.11248
12.9034 -10.6511 -1.45699
45.3237 -10.5052 -3.98554
9.4082 -9.03405 -1.09645
10.9603 -9.65196 -1.22759
-34.1321 23.4402 -3.44573
16.8628 -12.297 -1.72864
-16.9292 -44.0529 -3.78018
14.6983 -11.4931 -1.48787
-11.7325 -32.8456 -2.75305
-29.8018 22.66 -2.89538
-33.0699 23.375 -3.12645
-22.7107 -51.8775 -4.37214
-51.0828 27.8015 -4.40423
-21.3778 20.1198 -2.13558
-33.2959 23.5513 -2.95584
16.3987 -12.2531 -1.49753
42.2488 -11.3059 -3.18632
-39.2477 -74.2603 -6.06175
13.989 -11.0681 -1.27663
-15.5537 -41.2598 -3.04347
10.7746 -9.62246 -0.989758
-23.3261 20.4241 -2.09405
12.8819 -10.6295 -1.11801
17.976 -13.0379 -1.48046
16.0604 -12.1478 -1.32993
-14.6642 -40.6579 -2.79598
44.0196 -11.4485 -2.84307
-31.8153 -64.463 -4.38689
35.9152 -8.71307 -2.26811
43.1827 -9.88385 -2.71963
6.05745 -13.0939 -0.862329
30.977 -20.4974 -2.2227
-9.82977 16.4094 -1.12454
-15.5587 -40.5861 -2.4751
16.6303 -12.4286 -1.16573
-9.68524 -12.5554 -0.86899
14.9881 7.68945 -0.910872
13.9156 -11.0156 -0.950398
-12.7743 17.3112 -1.12381
-16.4632 -40.8054 -2.33693
14.8824 7.82564 -0.82417
-16.2877 -41.6334 -2.19363
-14.139 17.9212 -1.09172
9.57197 -9.02892 -0.603543
-23.9566 -54.9537 -2.71274
12.4622 -10.2449 -0.747945
-15.9949 -44.5873 -2.10316
-17.2004 -42.3784 -1.95813
6.86348 -12.6735 -0.639455
-13.9045 -42.3854 -1.90021
-52.4844 28.5429 -2.42045
18.3614 -13.1914 -0.917572
16.8223 -12.504 -0.816336
-41.3543 -80.2649 -3.40643
-18.2115 -47.7566 -1.88247
-33.5989 23.0856 -1.4911
42.7296 -11.0099 -1.58889
-34.3961 -68.4199 -2.56214
-25.8271 -56.6001 -2.09476
20.2117 23.3759 -1.02612
-21.4205 20.0731 -0.956548
8.12819 -14.3457 -0.553807
9.42792 -9.00041 -0.422532
11.3087 -9.95566 -0.489767
18.6169 -13.1636 -0.749369
34.9092 -13.1666 -1.23817
22.0232 26.659 -1.10883
-27.3848 -13.736 -0.960317
-22.8787 20.3736 -0.933702
-31.6616 22.4243 -1.21093
-24.934 -57.324 -1.93617
-13.7983 -39.035 -1.27532
-21.4736 -54.7764 -1.78148
-16.6008 -44.9917 -1.37401
-34.0214 -20.6279 -1.05972
11.4579 -9.72019 -0.402537
16.3575 -12.1665 -0.537433
-40.9911 25.3585 -1.27126
-30.2516 23.0187 -0.940515
-30.7721 22.5522 -0.902002
9.57435 -9.01315 -0.304629
-41.2993 14.2741 -0.965849
-31.3788 -52.5444 -1.37847
21.3 -14.2455 -0.563288
30.5635 -18.5328 -0.806764
14.2422 3.93595 -0.301409
27.5677 48.1737 -1.02034
23.5764 -10.9761 -0.458025
47.2915 -10.8898 -0.902685
-30.6346 -22.0151 -0.687912
-29.5766 -29.0501 -0.657393
-18.9614 -46.5266 -0.836741
12.732 -10.47 -0.271231
18.5463 -13.4015 -0.349716
-29.2733 -13.0112 -0.420555
-32.8258 -24.566 -0.570467
-33.2825 -67.0951 -1.01127
-27.6675 -58.8853 -0.89162
-33.9269 -23.1702 -0.536395
-30.2702 23.0292 -0.447816
17.0191 -12.7095 -0.252235
29.3776 -18.2156 -0.406796
-30.731 22.561 -0.424496
-19.0689 -43.7336 -0.510542
-12.0131 -36.1584 -0.383783
-33.3242 -58.7166 -0.622114
-14.3085 18.15 -0.177375
-26.713 -13.4679 -0.241531
-14.9984 18.283 -0.161707
-22.5382 20.1287 -0.155519
-20.9803 19.6788 -0.130865
-10.5598 -13.5756 -0.0603824
14.75 7.74851 -0.0201028
11.1168 -9.77536 -0.00779488
-34.4935 -18.8928 0.0600296
-11.3377 -33.6959 0.115693
16.9782 -12.3352 0.0910874
-18.7914 -43.1416 0.209096
18.8067 -13.2508 0.1222
7.18427 -12.3496 0.104262
26.0498 -10.6877 0.173229
-55.275 19.7371 0.559692
16.2685 -12.0567 0.193344
37.5443 -7.66517 0.361667
-29.0838 -8.20097 0.3535
-36.2801 -21.8979 0.467398
-11.3282 -32.4569 0.368698
-12.7069 -35.2115 0.445641
-10.2841 -31.611 0.398825
6.33892 -12.9569 0.184136
7.21986 -11.1227 0.174361
-28.1603 22.1051 0.548219
11.3224 -9.88829 0.226012
-24.102 20.6115 0.52351
10.9088 -9.74029 0.229542
12.9846 -10.6894 0.264993
36.4885 -7.8091 0.62091
-34.5547 -23.151 0.756599
-31.2094 22.3149 0.753412
6.15096 -12.8514 0.276466
7.02794 -11.06 0.252464
8.03105 -9.42391 0.241801
27.6672 56.8901 1.37602
7.73349 -9.44925 0.276069
10.1365 -9.181 0.329956
-28.8204 -9.24152 0.729078
-23.2972 20.3349 0.836755
-27.5631 21.7335 0.942152
-28.9493 -8.69248 0.796543
9.1954 -8.90097 0.345725
9.63062 -8.95095 0.358406
-25.5717 21.5521 0.908747
25.4067 -5.13984 0.72178
12.9943 -10.66 0.500696
14.8503 24.1923 0.875866
6.1978 -12.7858 0.447122
7.46428 -11.6356 0.43382
-28.4762 -8.03118 0.970813
-12.6147 -19.3145 0.760049
-28.1597 -8.80129 1.0201
16.1303 11.0404 0.706519
-29.8394 -18.4903 1.22704
15.8066 27.4575 1.13077
-30.4582 -16.6141 1.28573
23.56 -4.25435 0.865039
-27.8448 -19.8037 1.26616
-7.29892 -7.95832 0.407555
9.0565 -8.83144 0.470223
12.4435 13.612 0.711173
26.1436 53.9323 2.27003
24.9965 53.2202 2.21427
-11.5622 -9.15197 0.581484
8.72767 -8.67333 0.486754
-25.66 21.1377 1.34972
21.8553 -2.962 0.893599
-28.8148 -17.5021 1.38117
9.41952 -8.93155 0.532235
12.4691 14.3609 0.818332
6.58369 -12.4681 0.598733
14.8756 19.3286 1.07237
20.8178 28.7549 1.55489
-9.499 -13.8116 0.736817
-9.98465 -15.6156 0.822785
7.60294 -10.9579 0.587613
8.62842 -8.71791 0.554306
24.2092 -3.70865 1.10589
-29.8791 -8.7072 1.42061
6.74683 -11.0916 0.59733
-8.27809 -8.14662 0.546641
21.3856 43.1479 2.30414
-28.5767 -17.6615 1.58801
-9.77266 -13.708 0.801299
9.66559 -8.96799 0.621021
15.5157 43.1172 2.21836
-30.2742 -13.4093 1.58042
-6.76632 -8.24914 0.525034
14.5709 33.885 1.88226
-29.7636 -11.6555 1.60416
-7.59681 -6.98552 0.521715
-6.70353 -7.59917 0.512664
16.1433 29.2435 1.7346
10.546 12.3317 0.876988
14.2279 19.3618 1.29019
9.34928 -8.92958 0.692707
14.8165 19.2782 1.34264
15.2835 23.6053 1.54858
-27.5216 19.3781 1.84504
-6.97714 -8.19963 0.597097
-26.4495 20.2947 1.85363
6.09986 -12.8794 0.797324
-7.11059 -9.16367 0.661495
9.95309 12.4321 0.936693
14.9086 25.1192 1.70666
6.46825 -12.991 0.835169
13.8353 22.5719 1.56391
-8.26497 -8.12414 0.698323
11.5299 11.6095 0.975819
14.6658 19.5057 1.46635
-7.4027 -10.0211 0.774882
7.0122 -11.1745 0.803972
11.2648 -9.71658 0.901873
5.86869 -10.7583 0.760455
-7.19963 -6.65469 0.61269
14.4692 20.5256 1.5891
16.1383 7.16358 1.14652
-7.04142 -6.15214 0.613606
6.46949 -13.4596 0.995208
9.38894 21.208 1.56476
10.4086 12.5456 1.11451
13.5378 18.2037 1.58242
12.3842 20.533 1.65934
11.3363 11.9751 1.15753
6.59811 -9.84007 0.838995
11.4844 11.7498 1.18913
9.80291 -6.9199 0.853818
12.3469 11.9529 1.26223
9.92326 -8.38008 0.951514
-6.16413 6.68075 0.67868
10.421 9.17598 1.04313
11.9047 17.7995 1.61132
11.4573 18.2537 1.62402
-6.95079 -7.70454 0.804686
10.8358 18.7024 1.65857
9.51137 -8.95497 1.00959
-6.41978 -4.30171 0.609531
9.16878 18.3695 1.64077
10.0767 -6.8954 0.977685
12.4405 11.5424 1.37196
9.72659 18.8852 1.71066
-7.27113 -9.64453 0.983874
6.71556 -9.37712 0.938551
12.2277 11.6975 1.38666
12.1319 11.9313 1.41312
11.408 11.924 1.3663
-5.05623 -11.5402 1.0599
10.2988 12.8851 1.40366
-6.96561 -6.08684 0.796824
-6.82213 -6.70093 0.807798
-5.21734 -11.4429 1.06955
-7.30674 -7.7534 0.91752
9.28024 -7.25261 1.01763
-7.12697 -8.06495 0.941945
-7.02293 -7.69699 0.916408
9.37599 12.5151 1.38653
-6.95847 -8.37979 0.973173
10.8005 9.06235 1.28503
10.4479 13.4563 1.53934
10.5096 9.23015 1.28053
7.70713 13.9903 1.46932
-6.50417 -8.14336 0.954971
-6.90968 -9.02722 1.04932
11.1828 10.7855 1.43366
11.2341 9.16587 1.35688
10.8531 10.7877 1.43458
6.4773 14.9683 1.53277
-11.4393 2.93059 1.10747
-6.36495 -4.1733 0.713107
-6.81075 -6.29856 0.860331
9.41845 13.2828 1.57093
-6.0353 6.55799 0.877679
7.95756 -6.60684 1.00803
7.92015 13.2061 1.52979
-7.07452 -7.6239 1.04785
9.29423 11.6214 1.50109
6.99797 12.4253 1.44742
7.0542 12.996 1.50764
9.52069 9.08057 1.36173
5.85551 13.959 1.56915
9.12793 12.4147 1.60669
-6.11026 -4.45899 0.792925
5.95414 13.6816 1.5719
6.21457 13.6127 1.57341
-6.9739 -4.42996 0.883763
8.75599 9.00627 1.33927
9.12402 10.1644 1.48563
7.32007 10.9913 1.43534
5.82016 11.4638 1.39796
-6.3038 -7.41581 1.06391
10.2539 6.44431 1.34009
8.97958 8.12729 1.33521
7.30355 11.6745 1.52075
6.83879 11.6233 1.49117
5.35282 11.8866 1.45059
4.8657 12.0948 1.45874
4.70104 13.6717 1.59073
9.85359 7.04537 1.35269
8.74657 9.29753 1.42655
5.37775 11.5068 1.43051
-6.8458 -6.72775 1.06839
6.85942 10.7066 1.43255
4.31649 13.1679 1.56639
9.74958 -3.19484 1.14399
-6.10714 -5.41669 0.945169
7.28688 -6.11799 1.08008
10.4014 5.70702 1.36085
-7.38282 -0.986002 0.853587
-6.26024 -5.3586 0.948592
5.244 -5.55237 0.879926
5.06405 11.6156 1.47218
-6.88606 -4.56122 0.957212
4.4505 -7.25694 0.984523
10.3943 5.14199 1.36095
8.87188 7.87424 1.39267
-6.00462 -4.37011 0.865584
-6.48884 -5.27594 0.988047
4.08953 -7.86118 1.05385
4.96302 -5.84598 0.920059
10.1539 4.74787 1.34383
8.5068 8.26038 1.43636
5.27109 11.4836 1.54261
9.03291 6.25759 1.34555
8.0004 8.32616 1.44661
-6.49305 -5.74966 1.07973
3.70411 -7.56807 1.05534
8.66426 6.6805 1.37591
-6.47101 -5.34707 1.06249
9.0785 6.00497 1.3898
8.17243 7.13099 1.38396
8.10314 7.49734 1.4097
5.77332 -5.34207 1.00988
-6.97533 -4.4453 1.06182
8.09077 7.98835 1.4749
-7.3592 -1.04265 0.960448
-6.92589 -2.82755 0.977064
8.96563 4.0965 1.29101
8.39162 6.62034 1.4033
4.99516 -6.02414 1.0287
4.91329 -6.18854 1.04638
6.86684 -4.28059 1.07714
-7.13571 -1.71884 0.98408
-7.01216 -2.22081 0.983494
-6.02838 -4.42457 0.999801
8.12519 6.65037 1.42358
8.60062 4.43481 1.31944
8.62146 5.1611 1.37259
8.01839 7.12926 1.46056
-6.81133 -3.73511 1.0549
8.85198 4.15511 1.33864
8.25553 5.82677 1.38388
-6.40098 -4.33112 1.05766
-5.96045 -4.52737 1.02231
5.35372 9.02183 1.44919
3.63791 10.0643 1.48637
-7.36944 -1.09323 1.03184
-6.90703 -3.92869 1.10286
4.9459 -5.54021 1.02642
5.22534 -5.39527 1.04247
7.46105 -3.53583 1.15469
3.38245 10.1442 1.49855
8.39361 4.59385 1.35368
7.37265 -3.67696 1.16878
7.58456 -3.33383 1.18121
7.75932 -3.30461 1.19674
8.93049 2.81197 1.34773
4.83077 -5.63191 1.06657
7.35145 -2.85219 1.14806
-6.961 -3.30136 1.12308
7.9156 -2.77873 1.22319
8.66139 -1.81939 1.29919
5.00497 8.56921 1.46503
2.95022 9.43017 1.47018
7.72993 -1.88739 1.17275
7.2234 5.75267 1.37599
3.45264 9.55166 1.50154
3.18375 9.7878 1.52563
-7.37172 -1.04359 1.10406
-7.07636 -2.02361 1.09701
6.94173 6.28397 1.41384
-6.26498 -2.27236 1.00026
-7.24166 -1.37559 1.11285
7.93309 4.81392 1.41382
5.70602 7.35258 1.41229
5.28988 7.62733 1.41287
5.05414 8.00951 1.43205
6.75759 -3.22477 1.1324
7.24416 -3.1238 1.20817
7.63381 -2.75467 1.23676
-7.31795 -0.733089 1.12329
-7.09899 -1.95496 1.13661
6.78719 -3.09199 1.15346
3.74872 -5.78488 1.06597
-7.05478 -2.07651 1.15308
-7.34745 -1.0931 1.16656
7.35606 4.77131 1.38494
-7.19994 -1.44379 1.16848
-7.27287 -1.30134 1.18562
-7.09916 -2.01951 1.20041
7.065 4.75998 1.39074
-7.10281 -1.9459 1.20993
7.00468 4.86166 1.41641
6.61094 4.849 1.36832
5.2041 6.24052 1.35381
4.6709 7.16869 1.42914
3.81999 7.92865 1.46309
-7.25059 -1.37378 1.23207
2.79119 -5.77442 1.08121
7.13724 4.42569 1.41489
6.50922 5.23483 1.40932
3.87274 -5.36402 1.1155
3.93581 -5.01992 1.07988
-7.27367 -1.25267 1.25222
-6.59993 -2.62589 1.2053
7.4121 2.84611 1.34676
7.02559 3.88875 1.36854
-6.41594 -2.75371 1.18803
6.77023 4.09601 1.35853
5.68187 -3.51928 1.15041
-7.39744 -1.03981 1.29202
-6.35841 -2.28099 1.16151
5.53469 -3.64752 1.14261
5.31833 -3.77359 1.14308
3.59436 7.15732 1.40905
-6.80089 -1.73553 1.23281
4.47943 -4.46687 1.11333
-7.09345 -0.914808 1.27426
4.7247 -4.4573 1.14951
4.32642 6.48963 1.39194
6.58207 3.47177 1.344
6.62151 3.68023 1.36103
-6.44266 -1.50086 1.18996
3.60799 -5.32509 1.17014
5.07487 5.60977 1.38526
-6.15667 -2.18382 1.19739
3.41227 -5.15728 1.15009
3.38547 6.76686 1.41578
-1.69814 -5.78324 1.14493
6.44105 2.73036 1.33144
-2.14366 -5.72868 1.17589
6.30539 2.79437 1.32789
-2.78804 -5.37755 1.18703
-3.52581 5.35409 1.38911
4.46869 3.89171 1.35257
4.15096 -2.87864 1.17706
4.62867 -2.1863 1.23699
4.19781 3.29043 1.32135
3.70732 -2.93019 1.22391
4.01689 2.57369 1.33294
-1.44405 -4.12005 1.22239
-2.32219 -3.58135 1.21303
3.85873 2.36361 1.31114
-2.86245 3.5277 1.36216
-2.48189 -2.91793 1.18994
-2.37934 -2.9391 1.19488
1.84171 -2.80993 1.18137
1.86473 -2.78821 1.21139
1.9908 -2.52494 1.19777
-2.0439 2.80758 1.3208
2.80317 -0.555552 1.259
2.7825 -0.336753 1.24073
-2.09038 -1.61997 1.21345
-2.0781 -1.45196 1.23852
-1.86327 -1.79685 1.28395
-1.99563 -1.13193 1.20494
-1.98712 -1.07084 1.23177
-1.94689 -0.880735 1.23199
-1.93123 -0.708696 1.22227
-1.93009 -0.701787 1.24949
-1.90642 -0.469874 1.2223
-1.87179 -0.345845 1.2195
-1.85666 -0.401333 1.22623
2.37764 -19.6867 -10.0062
-7.60192 -8.97506 0.465106
8.02327 -8.80526 -10.4741
8.26918 -8.63498 -10.5101
8.22067 -8.29548 -9.89205
6.96278 -11.9653 -11.4176
8.52244 -8.98005 -9.74832
7.85547 -8.94304 -9.14127
5.85419 -12.8069 -10.7364
9.4346 -8.84105 -9.75236
6.15215 -14.1046 -11.5841
8.29314 -8.68513 -9.0287
8.02357 -9.17554 -9.1149
7.29687 -9.2519 -8.77894
5.91458 -14.1627 -11.1982
7.72378 -9.3125 -8.73026
7.86104 -9.12306 -8.67491
7.13329 -10.5872 -9.08915
6.82462 -11.0802 -9.22537
10.0618 -9.2006 -9.57567
6.54379 -11.1826 -8.87001
8.03844 -8.63359 -7.85531
7.36537 -9.28684 -7.8769
8.52193 -8.68731 -8.089
7.72582 -9.47958 -8.03412
6.492 -12.7837 -9.36244
7.93876 -9.18712 -7.9192
5.00479 -16.046 -10.8109
-0.474214 13.9353 -8.91575
7.73284 -9.25062 -7.73158
7.34059 -10.8715 -8.35228
8.38355 -8.57197 -7.63887
10.8847 -9.62895 -9.21785
8.99577 -8.82507 -7.90346
11.7763 -10.0422 -9.69942
8.07831 -8.54174 -7.23306
4.04273 -16.8482 -10.6192
4.25169 -15.3867 -9.80169
7.85011 -9.36556 -7.32356
3.95417 -15.6348 -9.61683
11.4898 -9.83645 -9.0589
6.86886 -11.0845 -7.74313
7.77626 -8.8242 -6.96751
5.49144 -14.0073 -8.88934
6.49307 -12.7153 -8.3555
8.36758 -8.60016 -6.9927
9.69545 -9.08829 -7.74881
2.79235 -11.8023 -6.95196
5.48422 -13.9117 -8.46692
9.60257 -9.11276 -7.48361
6.62206 -11.0773 -7.26685
3.34885 -20.7032 -11.7537
8.88535 -8.94571 -7.06816
12.2012 -10.2366 -8.92256
6.82806 -11.0131 -7.21896
4.68683 -14.6233 -8.48667
6.22674 -12.6318 -7.74735
0.895993 18.5887 -10.1304
14.6339 7.73269 -8.99238
4.20718 -14.2541 -8.02686
14.7382 -11.6626 -10.1313
14.9882 7.448 -8.9145
14.0247 7.72722 -8.50758
4.7688 -14.8584 -8.29167
12.091 -10.1568 -8.31004
1.81414 -20.4912 -10.5834
11.4231 -9.8582 -7.73036
2.08184 -20.2189 -10.3142
13.9736 -11.0916 -9.024
0.00402173 14.2805 -7.16774
-7.29106 15.1554 -8.42917
10.6008 -9.60651 -7.18852
7.51909 -9.43111 -6.00948
-8.4991 16.1124 -8.80486
11.6496 -9.78379 -7.36343
10.501 -9.5909 -6.82918
14.7952 -11.3429 -8.99232
16.7199 15.8386 -10.9407
7.48918 -11.0693 -6.36768
15.0245 7.4236 -7.86259
13.9362 -11.0354 -8.30841
-11.9347 17.0905 -9.55164
15.8495 -12.0095 -9.08486
9.78043 -2.45224 -4.63165
-9.10969 -1.65614 -4.21052
18.7474 18.0906 -11.7543
3.91512 -9.10343 -4.49782
-10.1979 16.6595 -8.77276
-5.34345 4.44354 -3.12539
6.86287 -11.2986 -5.95144
9.4332 -9.0918 -5.77845
16.0305 7.31286 -7.77283
-6.62296 15.0422 -7.17949
1.50138 -18.7562 -8.13827
-11.1571 16.9761 -8.74749
9.58614 -3.37189 -4.35246
7.02219 -11.053 -5.5359
15.8332 -11.9689 -8.30855
14.661 7.75006 -6.95534
18.7813 19.5401 -11.3259
1.0202 -22.6177 -9.42575
-4.52673 13.8468 -6.00312
-9.93255 -1.11096 -4.14213
14.0991 7.78516 -6.57554
20.4863 22.2843 -12.3371
-13.0647 2.44837 -5.41487
15.1261 7.18682 -6.77242
-5.21313 14.2866 -6.11739
3.63931 -8.81086 -3.7945
13.95 -11.0148 -6.94649
19.336 21.6407 -11.2563
18.8231 5.80439 -7.63765
1.54077 19.2715 -7.49533
-8.714 15.7019 -6.92412
11.4071 -10.0578 -5.8498
19.274 22.3455 -11.3658
0.682797 15.3888 -5.89866
-1.66067 12.7458 -4.94534
2.7144 -12.248 -4.81332
-8.76928 -1.25247 -3.36705
0.702902 -23.6529 -8.9291
15.1918 -11.6422 -7.21856
9.4949 -3.46458 -3.81262
-14.5444 17.9308 -8.60613
-7.89204 -3.50582 -3.16732
1.09611 -10.4605 -3.86825
7.03311 -11.2445 -4.85033
14.2075 7.93293 -5.87424
-8.2938 -2.84757 -3.15326
0.789702 15.2992 -5.4621
-3.94588 13.3453 -4.9244
5.74049 -10.9929 -4.36448
15.8435 -11.9736 -7.03403
19.097 5.89813 -7.03133
2.1155 20.6564 -7.28075
21.6782 26.2068 -11.8182
-14.8432 18.3231 -8.09545
2.9722 -13.3429 -4.70523
-8.86826 16.0207 -6.2591
18.489 -13.0955 -7.76583
-5.02761 14.4458 -5.20236
1.36045 -22.2512 -7.38736
1.76153 19.6426 -6.51419
1.4483 -10.3199 -3.44412
39.1722 -20.0242 -14.4384
6.17094 -10.0505 -3.77531
17.5745 -12.4093 -6.89103
2.12098 20.7063 -6.62361
-13.3181 17.7806 -7.00576
1.4516 -22.7347 -7.09805
-4.29235 14.6941 -4.75829
-10.9206 16.5474 -6.01018
-2.75099 -27.9952 -8.54591
3.06446 -9.47046 -3.02527
0.794523 -24.2876 -7.30791
19.1311 -13.5792 -6.96186
17.6137 5.57226 -5.4205
-7.86439 15.2253 -4.99014
4.22889 -10.494 -3.28838
3.62134 -10.5704 -3.18033
4.24218 -10.9476 -3.29603
-13.271 17.7389 -6.1639
-9.2574 15.8261 -4.98929
-13.2382 1.98445 -3.67045
-16.8707 19.3835 -6.97895
26.3185 -17.326 -8.53849
-3.91555 -27.9182 -7.56086
3.78306 -9.1459 -2.64827
-9.7693 16.2405 -5.04609
47.3062 -13.8125 -13.0685
10.537 -9.39793 -3.73758
-6.42519 14.8777 -4.23491
-14.3729 18.0207 -6.05009
-7.99288 -37.8164 -10.0679
4.95799 -9.57121 -2.79025
6.55909 -10.4973 -3.19357
-7.18423 15.2486 -4.28615
-10.5211 16.3876 -4.97724
-9.87533 -39.1334 -10.0369
-9.0207 -38.9416 -9.76088
10.9455 -9.64889 -3.58812
-7.93997 15.4109 -4.2051
-11.6892 16.9907 -4.99363
14.6225 7.72407 -3.92497
4.04556 -9.25005 -2.38964
15.2264 7.54083 -4.0042
3.7459 -8.90666 -2.2715
-6.51845 -32.4766 -7.67029
5.62514 -9.88237 -2.63575
44.7868 -10.8383 -10.7105
-12.7687 17.3932 -4.96789
14.8794 7.62021 -3.78201
43.8235 -9.48016 -10.1574
-9.75745 16.2539 -4.24448
3.71331 -9.25009 -2.16875
42.9857 -11.0274 -9.68612
15.1382 7.51001 -3.61862
-10.6032 16.552 -4.21158
-21.9043 -34.4357 -8.76778
4.81969 -9.74856 -2.34632
45.0809 -10.5555 -9.90658
-14.7427 18.266 -4.93964
-32.2065 -23.7713 -8.48456
41.7195 -13.9592 -9.30745
14.8638 7.85432 -3.50597
-35.4088 23.9452 -8.74134
-8.35502 -34.1739 -7.12432
3.95097 -11.5035 -2.44523
44.6071 -9.62426 -9.28196
11.7825 -9.75301 -3.06763
43.0078 -11.0716 -8.85012
-26.9237 20.3173 -6.69559
6.14259 -10.2813 -2.38466
45.9721 -10.7504 -9.22151
-12.7542 17.4026 -4.17057
-26.7979 21.0011 -6.61652
16.0659 12.1524 -3.85013
-6.85914 15.0998 -3.18484
-33.106 -23.9458 -7.82056
-31.6128 -24.755 -7.71629
-35.6353 23.7458 -8.06434
-33.6145 -22.1743 -7.60989
18.0351 5.67012 -3.52861
-34.1409 -20.5996 -7.44655
-15.0334 -43.3424 -8.54624
3.76977 -9.81905 -1.9806
-24.5183 -61.0409 -12.2339
-16.7738 -45.1888 -8.81658
3.97474 -9.63399 -1.87999
13.0742 -10.2162 -2.99249
45.452 -10.1143 -8.36433
-14.7031 18.2358 -4.18635
-26.9481 21.1357 -6.047
15.1013 7.9939 -2.97597
-30.2818 -26.3884 -7.00092
42.8674 -10.9803 -7.59782
-7.91101 15.2403 -2.9096
-9.72133 17.9038 -3.44251
44.7218 -10.5276 -7.76944
-30.6932 22.3569 -6.39334
-30.2625 -23.2823 -6.38174
-20.7698 19.8593 -4.78145
-32.3048 22.8144 -6.59821
15.9313 -11.8869 -3.25756
-10.3065 16.363 -3.07725
-43.3235 25.4929 -7.97536
-31.6366 -23.7666 -6.3347
-33.4761 -23.0907 -6.40514
3.43267 -9.49379 -1.57894
-23.731 20.2721 -4.82052
16.9252 -11.965 -3.21093
-11.1442 16.6792 -3.0482
46.1102 -10.8065 -7.18861
-22.8711 -53.0021 -8.72261
-29.451 22.0876 -5.50479
-38.3507 23.9126 -6.70854
-31.6582 -24.5743 -5.97906
44.7224 -9.58376 -6.8106
-33.754 -24.4113 -6.08665
-49.9099 27.8667 -8.21951
-35.5559 -23.7163 -6.15211
6.73434 -12.9235 -2.11633
-36.2355 -21.0603 -5.93155
-6.92375 15.2656 -2.32867
-13.0876 17.6675 -3.05968
-32.1354 23.1361 -5.53505
-24.6245 -54.8397 -8.28942
-16.1371 -47.1742 -6.85688
36.7513 -12.2221 -5.31199
-23.1463 20.34 -4.10029
-32.2877 -24.1799 -5.26641
-30.6481 -25.1428 -5.24117
-33.9193 -23.3604 -5.27564
7.44809 -9.43386 -1.55434
42.9214 -10.9869 -5.68533
-33.4836 22.7849 -5.14937
-29.7944 -15.8985 -4.3048
6.04175 -7.82447 -1.26282
44.867 -10.5455 -5.84355
-31.0614 22.8284 -4.81037
14.5163 -11.3094 -2.261
-29.9873 22.5856 -4.54157
-32.5802 23.0312 -4.80398
-10.3363 16.4398 -2.24402
-31.5313 -22.6778 -4.56957
13.0009 -10.515 -1.95754
35.8536 -11.8476 -4.36957
6.3456 -10.3481 -1.39539
11.2007 -9.70618 -1.67001
16.4588 -12.2543 -2.31252
-11.0476 16.5657 -2.20505
6.76321 -12.6014 -1.56742
11.6087 -9.69445 -1.67507
42.7601 -10.965 -4.84673
-39.0193 24.329 -4.93522
44.9285 -10.4985 -4.96805
14.9285 -11.4634 -2.00263
-12.9368 17.4778 -2.23372
14.7865 7.82627 -1.67187
14.0159 -11.0567 -1.78347
-13.987 17.8889 -2.20266
6.40515 -12.2747 -1.33299
9.4091 -8.92491 -1.25358
17.0306 -12.4529 -2.05926
-28.8977 -13.8088 -3.01718
-14.9632 18.3233 -2.20542
-37.0798 -72.2382 -7.55859
-33.9931 -21.271 -3.55074
16.151 -12.1025 -1.81635
38.5574 -12.8294 -3.63717
11.1199 -9.88467 -1.22965
43.1677 -11.0331 -3.71631
-16.2254 -42.2229 -3.63348
-40.0309 -78.2752 -6.84892
17.632 -12.8484 -1.7232
-30.1865 22.846 -2.89566
7.44989 -9.177 -0.915044
-32.8619 23.2619 -2.99086
-16.6126 -41.0968 -3.3131
-36.8423 -69.3282 -5.58379
-35.7333 -71.5682 -5.48027
12.5808 -10.4699 -1.10183
17.0844 -12.4433 -1.42894
-39.4685 24.5704 -3.03978
43.4234 -11.1174 -2.94249
-28.6958 -13.4935 -1.89904
-40.4004 -78.052 -5.32305
14.5202 -11.3198 -1.10951
31.1874 -20.5448 -2.04113
31.1578 -19.6375 -2.01337
15.3591 7.58555 -0.888776
14.7975 7.84655 -0.861147
-12.8599 17.5491 -1.10404
-24.7388 -54.5914 -3.07977
-42.3468 -79.8098 -4.41271
9.66089 -9.09869 -0.663863
13.4606 -10.7046 -0.844829
15.9836 10.168 -0.894924
16.2813 11.4117 -0.925677
6.83398 -12.5341 -0.679009
-20.0501 -5.91614 -0.897554
-29.9454 -53.3658 -2.70035
10.2386 -13.8227 -0.703215
18.0685 -13.03 -0.91055
42.6411 -10.8922 -1.7515
-9.39637 -12.4279 -0.601075
44.1704 -10.3432 -1.78398
22.2074 26.6979 -1.18442
-32.7651 22.398 -1.37548
-36.5458 -20.4933 -1.36405
-18.2667 -45.5247 -1.5765
16.495 -12.3061 -0.671592
14.3972 3.89973 -0.439907
-25.9702 -59.6767 -1.95207
-22.8294 20.3362 -0.873318
-12.3641 -37.4913 -1.06189
43.0569 -9.14657 -1.23097
-42.1166 26.1967 -1.34081
-54.5953 19.6316 -1.38978
43.7441 -10.1578 -0.966011
-31.0626 23.4753 -0.778083
-30.4927 9.69888 -0.668951
31.4273 55.024 -1.16439
-30.3264 22.3818 -0.721752
12.9796 -10.6352 -0.290819
-34.7116 -21.6019 -0.633796
-30.6886 -61.7182 -1.02647
17.5027 -12.6225 -0.313612
-12.6351 -38.1988 -0.519589
-14.2654 18.1092 -0.234872
-20.1412 -46.2887 -0.549042
30.2781 -18.9642 -0.32233
-22.8196 20.3602 -0.207334
-9.93229 -12.7478 -0.0488674
7.02102 -11.7118 -0.0236467
14.6236 7.64735 0.000592423
-35.7228 -22.0586 0.223704
-23.9468 -40.9285 0.349132
-53.708 29.4217 0.626556
6.6914 -11.8725 0.141178
8.00842 -9.10553 0.121192
-41.2958 -21.955 0.514122
-11.507 -32.5869 0.385134
11.104 -9.67953 0.193132
-23.2064 19.8286 0.40214
-12.4109 -19.256 0.332979
-31.3276 22.2925 0.685432
-35.3819 -23.7206 0.76235
-34.8866 -25.7723 0.756802
10.637 -9.55913 0.233373
7.79068 -9.6032 0.265748
7.89678 -9.21696 0.261912
-71.5322 24.7699 1.77021
18.1084 -13.145 0.54487
-28.8131 -8.65625 0.805366
-28.101 22.0367 1.02929
11.5856 -9.92608 0.416151
17.2676 -7.48503 0.535941
-25.1103 21.2965 0.980933
-7.91948 -9.28683 0.388492
12.6908 13.7979 0.666868
6.14111 -12.6533 0.494923
8.90925 -8.76691 0.42716
24.5244 -4.3458 0.833101
18.4971 17.6644 0.923778
13.8157 23.9165 1.03897
-57.2171 18.8071 2.16901
24.3325 -4.72678 0.939163
-25.5822 20.8976 1.24937
9.37838 -8.92187 0.50049
22.3592 -3.08045 0.852799
12.194 14.1233 0.764069
14.737 19.0418 0.986316
6.51528 -12.353 0.573333
17.8261 41.2017 1.87479
7.64612 -11.0183 0.565421
-7.56566 -7.44744 0.469144
-8.29894 -11.4818 0.633071
-29.6961 -11.7557 1.52131
16.3578 10.6191 0.972151
-7.74238 -7.20393 0.506578
15.234 23.6675 1.45472
-6.96919 -8.20419 0.591851
14.5023 19.8588 1.3479
-26.223 20.1924 1.83079
14.3611 23.3882 1.58964
-7.14196 -9.2065 0.665925
6.81265 -13.5006 0.868122
9.87849 12.4258 0.939828
14.6561 19.4724 1.52835
14.9415 26.5921 1.87859
10.2683 28.797 1.94494
-7.32334 -9.99548 0.792774
9.44926 21.5341 1.57885
11.3959 10.0243 1.08206
11.4236 12.0802 1.17396
13.6546 15.7782 1.49359
8.18038 -12.61 1.06118
10.7372 8.96289 1.02933
12.8478 14.4101 1.4449
-14.4176 8.50232 1.2661
-11.1543 2.10131 0.858918
12.3841 16.1206 1.57799
11.526 18.369 1.68448
10.0836 -6.9007 0.95415
-7.69013 -8.13506 0.895662
12.71 11.5052 1.39869
11.814 11.5576 1.37224
-7.02213 -6.17843 0.760163
-7.07469 -6.91792 0.820873
11.4253 11.9262 1.42449
10.6034 9.34061 1.28486
-11.4274 2.92615 1.08432
-7.63871 -7.11478 0.937957
11.6025 8.95256 1.40353
9.17249 12.9709 1.52582
7.15044 13.1572 1.46802
8.37552 13.0223 1.55305
-6.75901 -6.73531 0.948592
7.85529 -6.52954 0.999889
9.63775 12.0716 1.54846
9.89555 10.1084 1.46127
-6.89586 -5.41322 0.912443
9.57765 9.12016 1.41019
8.15575 11.0883 1.44314
6.72016 13.0305 1.56239
9.554 8.33692 1.34246
9.14272 10.1831 1.4911
5.65344 12.4533 1.48081
-6.40238 -7.54018 1.06905
6.65117 11.3202 1.44487
5.20779 13.0489 1.55036
-6.83807 -3.98816 0.874321
-6.71032 -6.09014 0.998539
3.91642 -7.76173 0.962533
5.43491 -6.089 0.917109
9.32193 7.50441 1.34527
9.02464 9.60417 1.48642
7.87959 11.223 1.53319
6.73986 10.6367 1.43624
-6.89169 -4.57762 0.938471
4.70248 -7.67255 1.03987
-10.6661 7.15025 1.49077
-7.10061 -2.13635 0.863093
8.97993 6.06626 1.28953
5.85268 11.9452 1.57234
4.94434 11.4343 1.46957
4.76801 -5.85648 0.888977
4.10837 -7.87715 1.08036
8.31254 3.85021 1.14846
10.9212 5.44735 1.5002
4.52459 12.5889 1.66543
-6.16954 -5.39782 1.00559
-9.15852 1.30549 1.15333
8.22167 7.51958 1.41037
-6.44891 -5.32978 1.05836
7.75546 8.14565 1.44622
-6.89856 -3.57904 1.00649
4.96273 -5.96004 1.00138
5.01797 -5.42137 0.963307
8.36663 6.88365 1.43543
7.90638 7.81801 1.4796
-7.21505 -1.72675 0.999824
-7.04257 -2.21306 0.989427
-6.4974 -4.38086 1.0412
4.82489 -6.08191 1.03319
8.35226 6.3301 1.42567
-6.8619 -4.22545 1.08603
-6.05929 -4.45228 1.01144
4.94459 -5.53184 1.01893
7.40294 -3.51619 1.1408
8.33405 4.2312 1.32776
8.29686 4.55919 1.34352
-6.9514 -2.91196 1.07785
7.47004 -3.72832 1.19225
7.00993 -3.05211 1.07863
4.93561 -5.7825 1.09752
8.18018 -1.73091 1.21103
-6.97084 -3.26324 1.14179
7.35892 5.54512 1.38413
5.72289 7.38878 1.41183
7.95824 3.89961 1.35434
7.87927 4.17857 1.35618
5.40247 7.75766 1.4375
5.04625 8.61992 1.50939
3.46969 9.49089 1.52476
-7.01998 -2.83148 1.15423
7.67085 -2.79059 1.25046
7.83497 -2.23282 1.25739
7.78486 -2.014 1.24264
7.43662 4.18866 1.37645
7.04092 4.73443 1.39442
6.71531 4.89442 1.38192
5.35662 6.41905 1.39152
-7.21875 -1.36325 1.21667
4.96259 7.28789 1.47176
4.69605 7.1875 1.44148
-7.23361 -0.805784 1.21902
2.86503 -5.92793 1.11006
6.67619 4.07394 1.33646
6.4802 5.20543 1.41176
3.80864 7.88214 1.46946
-6.38965 -2.30451 1.15268
-6.29548 -2.68633 1.16757
3.77105 -5.23847 1.09907
-6.98615 -1.79903 1.26091
4.23377 -4.64051 1.10405
6.64497 3.49911 1.35644
5.03768 5.57221 1.37306
3.6311 -5.35894 1.17896
3.33968 6.69687 1.3954
6.47829 3.03994 1.35968
6.4122 2.70757 1.32905
-1.65083 -5.71337 1.14171
-2.17304 -5.76883 1.20195
6.23935 2.3721 1.3344
3.93787 -4.57908 1.2014
-2.9946 5.59047 1.35269
-3.61824 5.20501 1.38193
4.20823 -2.92727 1.2051
-4.2756 3.92716 1.41484
4.58705 -2.18726 1.23352
4.47882 -1.26933 1.15767
3.70834 -2.93528 1.23218
3.67827 -2.58442 1.19284
