ply
format ascii 1.0 
element vertex 1860
comment /media/mkaihara/Seagate Backup Plus Drive/model_iterations/model_77.ply
property float32 x 
property float32 y 
property float32 z 
end_header 
14.7959 7.56218 -6.84909
10.4907 -9.25374 -5.78067
19.4149 20.9428 -11.3577
-7.58381 -3.52424 -3.14683
-7.7326 -3.48351 -3.14416
-7.77647 -3.39697 -3.12726
12.4647 -10.165 -5.91817
9.50033 -3.44102 -3.68152
-6.65689 -6.77792 -3.39882
8.78256 -8.87098 -4.44184
13.2294 -10.7216 -5.93713
20.7456 25.4706 -11.3392
12.8821 -10.4419 -5.08817
32.0461 -17.4873 -10.648
46.8902 -15.6873 -14.2657
11.4035 -10.1519 -4.27118
4.41026 -5.92305 -2.05391
45.7928 -14.4239 -13.1987
-25.2803 -35.497 -11.4804
48.968 -12.7351 -13.1309
-26.5817 -37.1211 -11.8119
-24.9077 -35.0079 -10.8886
11.2776 -9.84492 -3.76171
42.0539 -10.7364 -10.4407
41.2664 -11.4898 -10.0158
42.7403 -10.7452 -10.3447
41.2194 -11.7078 -9.87019
-35.4864 -22.9547 -9.67638
-36.7206 -23.3193 -9.71736
14.5253 -11.2402 -4.0624
44.4101 -10.1471 -10.1438
4.11781 -9.44362 -2.18204
-33.2926 -26.5731 -8.91595
-31.7983 -24.9098 -8.40207
11.8903 -10.0918 -3.25763
-34.65 -27.8748 -9.10775
45.9419 -10.5616 -9.68272
-34.1372 -22.7886 -8.34881
-27.6845 -23.1843 -7.26673
-33.1356 -25.4069 -8.32496
41.7145 -10.9593 -8.64453
-32.6719 -24.3614 -8.09283
-28.2038 -24.6367 -7.41087
13.0113 -10.4327 -3.30629
-29.0721 -24.6232 -7.50855
-29.983 -25.7536 -7.80397
-34.401 -23.4127 -8.18806
-29.4378 -24.4965 -7.53424
-30.5435 -25.1203 -7.75777
-36.2522 -22.5227 -8.29895
45.9282 -10.55 -9.1626
-28.2811 -25.8069 -7.37978
-33.152 -24.81 -7.91706
-34.4441 -23.5185 -7.90368
-32.3677 -22.606 -7.49029
-30.7762 -25.0075 -7.44503
-31.264 -25.7377 -7.64788
-30.7586 -25.6269 -7.55614
-23.5453 -31.4969 -7.41575
42.7683 -11.1614 -8.28565
-35.4685 -22.0595 -7.79526
-34.5541 -23.8643 -7.80385
-32.4643 -24.5044 -7.57271
-31.3358 -24.6324 -7.45027
-22.6556 -54.2819 -10.9435
-32.3324 -24.7042 -7.44532
-31.5412 -26.1512 -7.50831
-23.3738 -54.4194 -10.8872
-17.3124 -48.3234 -9.40351
-34.6074 -24.1655 -7.69346
39.9253 -10.4507 -7.53556
3.85549 -9.82232 -1.91256
-31.3456 -25.7557 -7.30196
3.9467 -9.29051 -1.81573
41.6611 -11.668 -7.7396
-31.5011 -26.1191 -7.22208
-15.422 -22.3567 -4.80601
8.82736 -4.26033 -1.70775
44.545 -10.1811 -8.06851
43.5026 -12.4571 -7.93559
-30.1515 -25.8928 -6.93073
40.539 -12.503 -7.32544
-31.3717 -24.5995 -6.85494
-30.781 -26.0491 -6.79847
-31.1356 -24.3595 -6.58202
41.2524 -11.9533 -7.10025
44.5308 -10.2051 -7.41559
-24.6916 -58.2337 -9.96733
-32.1378 -25.0087 -6.27164
45.0509 -10.3173 -7.03126
-31.8376 -25.1407 -6.11783
-33.6069 -23.8509 -6.07668
-29.4801 -25.0659 -5.69557
-34.2454 -23.159 -6.0111
-21.7688 -53.293 -8.38656
-34.4702 -23.5237 -5.90243
41.9109 -10.915 -6.17512
-32.7478 -24.678 -5.78186
-32.2198 -24.7032 -5.76816
-30.8372 -25.6664 -5.62199
-29.697 -26.4936 -5.59387
-31.1285 -25.4452 -5.59883
38.8595 -12.7626 -5.70764
-35.7248 -22.8334 -5.8471
-33.1389 -24.7555 -5.66384
-32.3677 -24.6106 -5.57615
-33.4337 -23.7017 -5.55896
-33.2566 -24.2451 -5.61271
-31.1066 -25.6777 -5.48234
13.2384 -10.5245 -2.28907
-34.8133 -22.0402 -5.51408
-33.7641 -23.4868 -5.53132
-32.7337 -24.6806 -5.45534
6.79874 -10.2025 -1.62922
-35.2856 -22.1432 -5.43124
-34.1124 -23.5606 -5.37635
10.354 -9.14775 -1.78655
-34.1354 -23.2675 -5.28189
-23.139 -52.7909 -7.2859
-35.1894 -22.2438 -5.22451
-33.8977 -23.5621 -5.16411
-31.4643 -25.1939 -5.06128
10.7802 -9.39387 -1.79894
11.5583 -9.72437 -1.88032
-33.349 -22.5802 -4.9524
-33.9416 -23.3453 -5.0737
-32.9427 -24.8565 -5.08181
10.58 -9.30813 -1.74458
-37.8868 23.735 -5.36343
-20.1396 10.2634 -2.69196
-19.2563 9.59038 -2.57633
-27.6266 -14.9346 -3.6616
-26.9666 -16.5924 -3.64625
44.2639 -9.91339 -5.20139
7.14701 -10.2193 -1.41189
9.89916 -8.85746 -1.47844
41.1798 -10.7782 -4.73021
-27.7264 -16.9562 -3.53637
45.3006 -10.3491 -5.0427
-29.4706 -15.145 -3.56951
10.3574 -9.08915 -1.47719
10.091 -8.95633 -1.43205
12.9641 -10.5302 -1.77559
14.7048 -11.3174 -1.95773
9.45599 -4.72315 -1.10703
9.45109 -3.49539 -1.06166
9.44908 -3.38769 -1.05282
-28.3044 -16.8945 -3.44636
10.1044 -9.03798 -1.37744
15.1758 -11.4281 -1.91894
-28.4589 -13.0847 -3.14184
41.9829 -10.9061 -4.2466
9.68175 -8.80265 -1.26793
13.8026 -10.9529 -1.6943
14.5765 -11.2223 -1.76258
9.44289 -3.38844 -0.963355
15.2023 -11.6323 -1.81216
-24.7737 21.0806 -2.99068
-24.2874 -55.2455 -5.56703
9.38391 -8.28216 -1.1706
-25.5821 21.3714 -2.96795
11.4909 -9.77645 -1.33864
15.6805 -11.859 -1.72876
16.6482 -12.2486 -1.8004
9.80577 -9.03262 -1.14699
-36.1265 -69.7286 -6.75102
13.3593 -10.7492 -1.46176
-35.5583 -22.2692 -3.55267
11.483 -9.84702 -1.2733
45.2099 -9.83066 -3.83894
38.8676 -12.7263 -3.27885
-30.3374 -14.5423 -2.69069
18.0537 -12.966 -1.69167
16.8655 -12.3685 -1.4724
-17.574 -46.9956 -3.42178
-15.355 -39.6776 -2.85667
40.9936 -10.7259 -2.87365
42.5665 -9.65793 -2.87281
11.7052 -9.95029 -0.995135
13.1271 -10.658 -1.08855
13.4886 -10.6926 -1.08757
-17.3066 -43.1375 -2.87194
-34.9605 24.0623 -2.50033
16.6492 -12.3179 -1.217
15.6313 -11.8052 -1.12946
17.2644 -12.6231 -1.23264
-37.799 23.7229 -2.43246
-9.57551 -12.5523 -0.840947
-16.257 -41.2621 -2.39946
-14.5356 -41.1924 -2.34261
-28.6432 -16.7779 -1.73527
-17.7001 -43.386 -2.45966
-15.198 -42.09 -2.34675
-28.0774 -13.709 -1.61711
37.8017 -8.06877 -1.99277
-43.2593 -82.4674 -4.58419
17.8718 -12.8673 -1.07016
-27.8495 -13.9755 -1.48397
-16.8642 -41.8162 -2.07964
-26.6096 -16.521 -1.34949
-37.9179 23.8174 -1.61355
43.7164 -9.43494 -1.53085
-28.1263 -60.3981 -2.0524
-13.176 -38.2717 -1.24858
-32.5994 -24.5778 -1.22367
-26.7805 21.8549 -0.933715
35.823 -8.51138 -0.998236
-35.7137 -22.1902 -1.02868
-35.3617 -22.3656 -1.01684
-35.6114 -70.8063 -1.81691
-19.3337 -44.1725 -1.02109
-35.6553 -22.3654 -0.796469
16.8552 -12.3378 -0.402051
-35.1364 -22.2192 -0.569527
16.9776 -12.4308 -0.242417
13.0488 14.8448 -0.205505
-34.2799 -22.864 -0.39987
11.1154 -9.60247 -0.132202
-36.4819 -21.1887 -0.351659
-28.9826 -8.72158 -0.125709
-29.6361 -9.50637 -0.0848613
11.4799 -9.92923 -0.00324572
-13.0446 -20.0803 0.0349846
41.8867 -9.29115 0.130723
9.08053 -8.87747 0.103805
15.0404 -11.4899 0.151671
11.3091 -9.77436 0.139165
13.2587 -10.6561 0.178477
18.0914 -12.9813 0.21602
-27.8998 -13.5172 0.342037
-33.7552 -22.4276 0.465762
-35.1843 -18.89 0.454241
-36.151 -22.263 0.528507
-13.7225 -20.8315 0.286852
-12.9097 -20.2583 0.318497
-13.3952 -20.0654 0.345619
14.9752 -11.4854 0.278273
-30.4295 -13.1668 0.584482
-36.9315 -19.8915 0.811031
-14.2168 -22.3075 0.526366
-30.5965 -13.4212 0.70638
-36.2849 -20.2025 0.846416
18.1316 -13.0146 0.466337
10.4841 -9.21942 0.298196
10.3914 -9.22601 0.345093
-8.23745 -9.77293 0.361055
10.5114 -9.25761 0.415859
13.4889 -10.7739 0.534216
10.3535 -9.43855 0.46065
13.2008 -10.639 0.559537
-9.29215 -13.1153 0.597832
10.4947 -9.45465 0.526753
13.1945 -10.5728 0.666854
-30.5447 -17.0412 1.41451
-32.4635 -18.7743 1.52536
9.52891 -9.102 0.556832
-29.3274 -17.5106 1.49632
22.1232 43.8593 2.17929
9.59577 -8.93551 0.581883
10.4609 -9.36564 0.666306
12.2641 -10.241 0.747182
-6.17144 6.64344 0.448757
-6.89041 -8.18149 0.536018
-7.15152 -9.27948 0.577101
-28.5205 -11.2507 1.60715
-6.84874 -8.48412 0.563223
11.8471 11.6931 0.884912
16.3522 24.4173 1.56107
15.7889 23.908 1.50628
8.87284 -8.62176 0.66438
8.65606 -8.56458 0.670357
14.6084 25.0629 1.61285
-28.8524 -8.65302 1.68017
-7.54635 -8.04202 0.620212
10.3745 -9.36206 0.80332
-6.77827 -8.2257 0.638775
-6.73853 -8.46543 0.650797
-7.58109 -7.97701 0.68291
-6.91553 -8.24887 0.674053
9.54202 -8.87252 0.816094
10.4534 -9.35187 0.880206
10.4374 12.2022 1.04514
-7.35459 -9.52791 0.793971
12.4199 18.8562 1.52444
12.9386 20.6533 1.6407
9.11034 22.6592 1.70029
-7.1135 -8.32084 0.759818
-7.11633 -7.63444 0.741972
9.50451 -8.84269 0.921535
11.3001 11.8798 1.21478
11.7109 16.6478 1.53161
12.5165 11.4505 1.30435
12.7904 11.3924 1.33481
12.1975 11.5016 1.30574
11.9759 11.6292 1.32215
-7.23549 -9.40183 0.940458
11.542 11.8782 1.33397
-7.37697 -6.14659 0.759289
-7.07285 -8.11469 0.866677
-6.77342 -8.32124 0.86435
-7.28317 -6.2578 0.765263
9.24069 -7.57235 0.990205
-7.37578 -8.12088 0.91366
-7.40888 -9.91759 1.03455
-7.30068 -7.88877 0.904136
9.17974 -6.95466 0.975257
11.5849 11.8545 1.40969
-6.36478 -4.33863 0.659789
-7.09088 -8.37583 0.945862
-6.84681 -8.42655 0.964674
8.98006 -6.84895 1.00756
8.20258 -7.12262 0.976892
5.93034 -5.90504 0.772829
10.7668 11.0447 1.4779
-7.03754 -5.73756 0.867118
10.7274 9.26912 1.37822
-7.17145 -5.72225 0.895031
7.72921 -6.56339 0.99793
11.0183 9.78675 1.45725
10.8761 9.05333 1.42172
9.54169 11.4797 1.49519
-6.51244 -6.50764 0.923101
-6.87781 -4.519 0.83362
-6.98502 -7.32465 1.02564
10.7358 9.05264 1.45311
10.09 9.41972 1.41541
9.25927 10.0733 1.42988
-6.86246 -4.45939 0.862502
-7.14622 -5.67964 0.976338
-7.11749 -5.71945 0.975169
-6.92301 -4.63262 0.909546
-7.06832 -5.50887 0.97437
8.65523 10.2339 1.48935
-6.90109 -3.43223 0.863995
-6.97442 -4.3513 0.916981
-6.84748 -3.49227 0.863571
-6.89068 -3.57669 0.870639
-6.897 -4.23539 0.910665
-6.91815 -4.40638 0.925987
-6.91813 -4.49216 0.928703
8.71585 8.78351 1.4016
-6.95571 -3.85536 0.912333
-6.92021 -4.07287 0.91012
-6.9197 -4.15662 0.917834
5.84662 -5.77345 0.949684
-6.93244 -3.41792 0.900802
-6.94368 -4.37461 0.952475
-6.91325 -4.44622 0.9541
-6.90674 -2.83116 0.875438
-6.88826 -3.61872 0.911112
-6.97326 -4.13693 0.954225
-6.91966 -4.20574 0.948919
8.48977 8.02996 1.38676
-6.92245 -2.98419 0.909555
-6.90074 -3.97205 0.956364
-6.8838 -3.65777 0.946603
-6.92765 -4.12876 0.987754
-6.91347 -4.31256 0.99905
-6.47406 -5.36282 1.02787
6.00187 -5.95095 1.03284
-6.91221 -3.75401 0.975332
-6.91053 -3.9188 0.986905
-7.01673 -4.74362 1.05675
-6.94002 -4.3907 1.03653
-6.87222 -3.48036 0.976065
-7.084 -2.17163 0.947052
-6.88938 -3.08415 0.968462
-6.9081 -3.1618 0.977648
-6.14938 -5.49031 1.07433
-6.92926 -3.23226 0.999966
-6.38406 -4.36537 1.01901
-6.80126 -3.78626 1.03171
-6.88843 -4.187 1.06974
-7.05509 -2.13638 0.984873
-7.00524 -2.33715 0.993779
-6.91167 -3.26828 1.02145
-6.91094 -3.54132 1.03972
-6.91861 -3.39541 1.05287
-7.03642 -2.16252 1.02311
-6.93491 -3.18133 1.05654
-6.90477 -3.26502 1.0561
-6.85242 -3.65171 1.0719
-6.90837 -2.94707 1.04997
-6.87377 -3.41237 1.07124
-6.8891 -3.75648 1.10396
-6.9383 -3.23779 1.08293
-6.00679 -4.49315 1.06747
-6.89294 -3.58646 1.11612
7.67283 6.32855 1.43775
5.18348 8.31189 1.41707
-6.89662 -3.49464 1.11953
7.29513 -3.52015 1.17581
-6.8886 -3.28093 1.11343
-6.88508 -3.39271 1.11952
-6.8688 -3.20206 1.11509
-7.17021 -1.75457 1.08818
-6.92026 -2.94354 1.11703
-6.92573 -3.03098 1.12151
7.11304 5.59984 1.40178
-6.37983 -2.28602 1.05152
7.04726 5.16201 1.39423
-7.01796 -2.41211 1.194
-6.46596 -2.82179 1.15091
3.7755 7.91215 1.44527
-6.31341 -2.26268 1.11353
-6.48249 -2.29094 1.17137
-6.15139 -2.28115 1.14293
2.5512 7.37487 1.48012
7.82552 -8.51535 -10.1657
7.95295 -8.79817 -10.38
7.68502 -8.74212 -10.1286
8.18358 -8.31551 -9.99437
6.93499 -11.4553 -10.9729
8.13572 -8.26297 -9.51492
6.93857 -11.8699 -11.1639
8.01365 -8.39999 -9.22692
7.95836 -9.15217 -9.44323
8.22837 -8.68778 -9.3047
7.84733 -8.97341 -9.09232
8.28829 -8.69682 -9.11646
6.31515 -13.9623 -11.4385
7.47852 -9.40767 -8.98262
7.9153 -9.06943 -8.91263
6.21157 -14.3242 -11.5003
6.2536 -12.8479 -10.5014
9.21597 -8.81994 -9.34158
9.2012 -8.97607 -9.35588
5.95101 -12.7052 -10.1813
5.8883 -13.0765 -10.2698
9.34848 -8.97703 -9.27403
9.20508 -9.0191 -9.15446
6.90466 -11.1802 -9.32251
5.60156 -12.9325 -9.97418
6.49913 -10.9823 -8.77801
11.7369 -9.95964 -10.3342
8.23601 -8.6196 -7.8907
7.42638 -9.26454 -7.83134
8.24022 -8.77548 -7.94164
9.15392 -8.77831 -8.35084
7.60027 -9.31922 -7.8553
12.0783 -10.0876 -10.2427
4.66166 -15.7837 -10.6419
9.17458 -8.81608 -8.18267
5.00438 -15.3389 -10.4022
7.75276 -9.29683 -7.7489
8.24594 -8.4672 -7.55776
0.354153 15.6952 -10.0125
4.73405 -15.1195 -10.0876
10.8751 -9.56426 -9.21052
7.91176 -9.0725 -7.62993
8.158 -8.49118 -7.43149
4.7153 -15.7523 -10.3307
-0.391698 13.6138 -8.51607
8.8319 -8.79799 -7.69905
4.22397 -18.6749 -11.8249
7.91484 -9.05205 -7.42425
8.26459 -8.56762 -7.35124
4.25836 -15.3981 -9.78557
8.21647 -8.63803 -7.2899
4.24572 -18.1465 -11.3671
0.156659 15.0623 -9.17468
3.75437 -17.8397 -11.0344
4.17251 -15.7519 -9.85384
7.0444 -10.8164 -7.74765
8.04901 -9.2065 -7.3462
4.19508 -16.5716 -10.1884
8.28884 -8.66465 -7.14418
9.40394 -8.99521 -7.75588
7.01282 -11.0595 -7.78906
7.72633 -9.26087 -7.15921
9.05594 -8.80955 -7.48713
7.99537 -9.16155 -7.11633
8.57604 -8.76991 -7.16044
9.69138 -9.14853 -7.76875
6.76597 -13.3208 -8.62582
9.2386 -8.97031 -7.43746
5.78975 -13.3579 -8.40313
6.88198 -10.863 -7.41239
9.55218 -9.10146 -7.5138
11.9221 -10.2252 -8.86832
10.7783 -9.47317 -8.07319
6.87955 -11.0997 -7.33091
9.13514 -9.08034 -7.22351
9.25039 -9.01816 -7.22413
12.597 -10.5157 -9.16635
4.6495 -14.3586 -8.43725
10.1915 -9.37875 -7.74293
8.52408 -8.70277 -6.78136
2.74327 -17.3138 -9.6709
14.732 7.53443 -9.04644
2.70976 -19.881 -10.914
2.42531 -8.79028 -4.94585
2.97366 -19.8845 -10.8644
14.7024 7.65747 -8.90189
2.36298 -20.1979 -10.7999
10.9468 -9.60063 -7.74641
9.77469 -9.02758 -7.04713
14.8931 7.47321 -8.8182
2.36087 -8.80841 -4.81996
1.65643 -19.8221 -10.2744
2.3861 -20.8536 -10.7664
13.9093 -11.1138 -9.12451
-9.30687 -2.6084 -4.92042
11.3261 -9.80839 -7.61032
2.17202 -20.2782 -10.2784
0.854187 17.4953 -8.71065
10.9809 -9.63394 -7.28323
-8.87767 -1.95285 -4.45906
2.21106 -20.2222 -9.98868
3.85 -9.18423 -4.89186
11.2453 -9.64968 -7.25515
1.99556 -19.9031 -9.77744
-8.44445 16.2072 -8.86299
2.50254 -11.1984 -5.4906
1.99462 -21.1212 -10.1026
14.8549 7.59334 -7.8766
17.2767 16.1807 -11.1949
17.6298 16.8916 -11.3437
14.3205 -11.3245 -8.46684
9.79837 -2.6082 -4.70029
17.2068 16.1946 -10.9181
9.74596 -2.4667 -4.65112
-10.3423 16.9828 -9.06543
-9.58106 -2.07595 -4.44627
9.84738 -2.60551 -4.62382
10.1774 -2.39657 -4.73627
9.75427 -2.97552 -4.61595
-5.4068 4.45735 -3.15973
8.07899 -8.31512 -5.22791
17.7647 17.3092 -11.1362
17.6366 17.4803 -11.1622
19.1451 5.82391 -8.97746
7.13287 -10.8876 -5.79939
20.2703 5.32211 -9.31235
9.55487 -3.41919 -4.51226
-9.9897 16.4216 -8.53726
-5.35828 4.91057 -3.22033
19.2474 5.56039 -8.85639
-11.4111 17.3982 -9.15782
17.9092 17.7633 -11.0597
-6.58741 15.1048 -7.23559
9.58214 -3.59705 -4.46057
20.0106 5.42282 -8.98933
18.0469 18.3094 -11.0834
17.8393 18.4575 -11.0633
14.8214 7.585 -7.09682
3.85619 -9.34123 -4.28418
-11.3482 17.2645 -8.73148
-13.5124 3.30964 -5.8648
1.26347 -21.4691 -9.01232
3.24889 -10.1834 -4.47239
14.1444 7.61895 -6.71756
18.614 19.4308 -11.2559
3.8641 -9.17278 -4.14555
14.767 7.69943 -6.90844
18.2918 19.4986 -11.1018
13.9801 7.72206 -6.56829
3.99798 -8.46643 -3.83861
6.76609 -10.8403 -5.23473
-13.4422 2.52849 -5.5987
14.9259 7.48061 -6.80539
-8.09227 15.6586 -7.16756
1.19006 -10.6041 -4.33428
0.756782 -21.7556 -8.81647
-12.9996 2.35458 -5.31584
-9.33051 -1.4406 -3.76968
-5.08853 5.64715 -3.01452
2.83271 -11.7507 -4.76803
14.1672 -11.1774 -7.05545
1.51989 19.0868 -7.43987
3.93735 -13.1408 -5.30401
18.934 5.78825 -7.6307
0.884551 -26.3159 -10.0535
4.74573 -8.66835 -3.75139
11.6988 -10.1285 -5.88059
19.2917 5.55511 -7.61001
20.0254 23.7405 -11.598
19.8802 5.39928 -7.68655
20.3224 23.6865 -11.6291
3.25924 -10.8335 -4.22145
-13.2077 17.7887 -8.1763
11.8647 -10.069 -5.7222
20.271 5.17491 -7.6699
20.9048 24.9908 -11.8351
-8.18687 -2.82291 -3.1375
19.2127 5.69986 -7.21532
2.27984 -13.2264 -4.82942
0.810877 15.7405 -5.6488
-4.32294 14.0959 -5.25867
-8.24101 -2.8061 -3.10632
6.73155 -10.5122 -4.43226
-16.176 18.6918 -8.73998
15.9109 -12.0148 -7.06426
-11.2176 16.9127 -7.09612
19.2537 5.8701 -6.98987
3.71485 -8.66395 -3.2516
-8.90574 16.1971 -6.29104
2.98335 -13.4629 -4.70392
18.8579 -13.4898 -7.93315
33.845 -20.9692 -13.5339
-15.1075 18.5083 -8.06545
19.9919 5.43197 -6.94571
36.7061 -20.7285 -14.0793
40.2845 -19.826 -14.9655
16.39 7.35172 -5.9841
3.44732 -10.258 -3.6086
1.34773 -10.9198 -3.63719
-6.33149 15.1084 -5.3442
-12.8422 17.6152 -7.09658
15.7204 -12.0814 -6.45097
6.03847 -9.83846 -3.71068
3.33919 -10.1321 -3.42122
-1.14237 -23.9097 -7.64482
2.32391 -11.0264 -3.58996
3.23064 -10.0556 -3.34728
2.82557 -9.03754 -2.98629
13.5904 -10.7463 -5.44614
-18.1711 19.6427 -8.37994
-8.71869 -2.65559 -2.85466
28.4736 -15.6187 -10.1897
1.36914 -21.5053 -6.65402
19.6032 25.3794 -9.66489
3.22208 -9.86287 -3.12852
3.45003 -8.97719 -2.89472
-14.527 18.1696 -6.96055
-21.6367 20.1784 -8.76378
-8.03988 15.6365 -5.17459
4.76837 -11.9789 -3.77735
4.14887 -8.91924 -2.8921
2.07021 20.4498 -6.03486
-4.38091 14.7393 -4.50583
4.05594 -8.95544 -2.87461
-15.4576 18.5981 -6.97492
-32.8913 -47.0029 -16.4092
7.12332 -11.092 -3.76123
2.54433 -9.47418 -2.78135
-8.41797 -2.20502 -2.45331
4.43239 -11.0023 -3.34458
-2.48651 -25.0676 -7.05796
-9.37652 16.1705 -5.14928
4.35514 -11.2386 -3.32343
8.56597 -8.35519 -3.28815
-13.2303 17.6286 -6.03422
45.1176 -14.9587 -12.9582
-8.73773 -2.44404 -2.45679
-24.7271 20.7543 -8.73298
3.24193 -9.96511 -2.8323
3.39363 -9.96951 -2.84479
-4.30843 -30.9643 -8.39248
-27.1657 20.8346 -9.12673
42.2575 -13.942 -11.7612
45.4864 -13.1672 -12.5297
-8.66607 -38.9991 -10.5245
-8.44886 -39.8361 -10.7325
-14.618 18.3192 -6.08315
9.8194 -8.92964 -3.4692
11.289 -10.0241 -3.92215
-10.7571 16.7861 -5.15894
-4.33854 -28.4344 -7.47147
3.25788 -9.84966 -2.68221
3.51477 -10.285 -2.81306
-26.5758 21.0687 -8.69954
4.26894 -11.0328 -2.99344
4.39651 -9.66579 -2.67874
9.4542 -9.14288 -3.31566
6.89619 -11.3314 -3.32959
-27.5689 21.2725 -8.70103
43.5141 -12.6663 -11.3092
-11.6497 17.1651 -5.14954
11.7778 -10.1423 -3.84207
3.35987 -10.2203 -2.64756
-24.8437 20.8693 -7.93813
9.94969 -8.98558 -3.22565
-7.93706 15.4859 -4.17842
4.03736 -11.9289 -3.03504
15.0192 7.54351 -4.02144
3.37388 -11.0895 -2.77941
3.16163 -9.86099 -2.4683
-6.85792 -39.2146 -9.47337
-11.4166 -43.8521 -10.7422
3.9639 -9.08149 -2.34392
-29.2909 21.8901 -8.63938
14.8298 7.59014 -3.90113
-9.54961 16.4974 -4.47796
3.91661 -11.2928 -2.81404
-12.9809 17.6986 -5.13036
-26.7903 21.258 -7.94302
3.47634 -10.2989 -2.49274
11.0108 -9.45285 -3.34911
15.5899 -11.7527 -4.47284
-38.0456 26.9192 -10.6585
-12.7853 -44.5067 -10.5531
10.8812 -9.51414 -3.30682
-12.0628 -43.3537 -10.2077
-6.24975 -31.6896 -7.34929
40.3263 -12.4671 -9.56555
-27.4062 21.1724 -7.81474
14.6502 -11.3691 -4.17021
-31.2064 22.6684 -8.65581
4.44508 -5.79925 -1.64008
5.28521 -9.16202 -2.36686
-29.1384 -75.1678 -17.8237
-9.75568 16.3329 -4.19138
4.09863 -9.75802 -2.32945
13.4076 -10.8156 -3.79832
4.00078 -9.16094 -2.1986
40.6991 -12.0359 -9.29535
-23.8064 20.7517 -6.88786
3.38761 -10.0808 -2.28227
4.38908 -9.88016 -2.33954
14.9034 7.49148 -3.58283
-29.3358 21.9507 -7.87679
-21.5323 -34.1385 -8.67086
-8.47828 -35.9041 -7.88949
-24.7437 20.8694 -6.89803
-31.4915 22.8734 -8.28393
3.24132 -9.90963 -2.22532
4.86546 -8.84852 -2.14155
14.7168 7.68459 -3.51331
4.22134 -10.4676 -2.4022
41.364 -10.7796 -9.05905
-10.6615 16.7018 -4.18133
4.3308 -9.13264 -2.12023
3.15059 -9.12148 -1.99968
5.14848 -9.03232 -2.17838
14.7234 7.40855 -3.43353
-38.6705 25.4646 -9.63855
-27.4813 -25.4813 -7.74628
3.02241 -9.45819 -2.06412
-29.0269 -30.6088 -8.691
-20.0555 -31.3153 -7.65677
3.84777 -9.31487 -2.07974
3.73229 -8.72439 -1.94772
-15.8063 18.6916 -5.01125
-25.5809 -67.8037 -14.8731
3.98249 -8.76901 -1.96955
-14.0234 3.06785 -2.93301
-33.8417 -23.9172 -8.45034
-28.5971 -78.9915 -17.0982
-11.4605 -36.9039 -7.85773
43.4894 -9.49772 -9.04274
14.8741 7.59889 -3.34636
-17.9144 -23.7314 -5.97466
12.3064 -10.0567 -3.1963
-19.3477 -55.3463 -11.7001
4.17147 -10.7326 -2.29684
-12.1764 17.4609 -4.22958
-26.4857 20.8403 -6.68098
-35.7767 -21.1793 -8.26514
-32.4996 -25.3813 -8.17209
-9.3706 -36.3243 -7.46855
14.481 -11.4169 -3.65389
4.02245 -9.80673 -2.08967
3.21928 -9.84071 -2.02997
-36.0979 23.8519 -8.40856
-23.7377 -57.156 -11.9608
-16.2991 -47.062 -9.49712
3.48292 -8.89234 -1.82909
-20.4638 -33.1424 -7.39464
-32.2928 -25.2024 -7.72358
-29.2977 -26.0154 -7.37513
-22.4602 -55.5006 -11.3257
3.87835 -9.07376 -1.87951
-17.0189 -46.4176 -9.25133
3.43648 -9.20668 -1.81455
-32.7651 -24.4555 -7.44264
-31.5751 -27.0732 -7.58001
-33.4138 23.5243 -7.36667
-20.6556 -51.1038 -9.8338
-31.542 -25.4088 -7.12352
-24.9881 -64.6982 -12.2163
-34.6949 23.0887 -7.29757
-16.9219 -47.7188 -8.8765
3.39782 -9.5513 -1.77206
14.0384 7.79119 -2.7839
-35.4839 24.3151 -7.46109
-29.1395 -25.5396 -6.73876
3.46784 -9.4978 -1.7536
4.79171 -8.64551 -1.71307
-27.1775 21.3372 -5.97146
-31.1135 22.6294 -6.63608
-31.3468 -28.8727 -7.35326
3.88077 -9.98688 -1.84888
13.8908 7.4883 -2.71115
-24.1465 -55.4811 -10.2892
-20.8769 19.8636 -4.86304
-31.7975 -25.2735 -6.88737
-20.1577 -49.9764 -9.13652
5.5921 -11.7175 -2.19253
41.9152 -11.8381 -7.3844
-18.5731 -49.5681 -8.91094
41.0568 -10.6823 -7.13677
4.98836 -10.7046 -1.96622
-10.4675 16.6424 -3.19055
-30.5934 -23.6822 -6.30446
42.2933 -11.3578 -7.12698
-22.3701 20.321 -4.9025
-20.8693 -51.6303 -8.84318
-23.1699 20.3721 -4.86676
-24.4032 20.8032 -4.98951
-33.3368 23.483 -6.30937
3.80535 -10.0801 -1.65591
-32.3927 -25.0462 -6.25848
-14.0338 -42.3372 -6.85071
-31.4722 22.9039 -5.91752
-23.2786 -56.0249 -9.2382
-7.73585 15.6652 -2.63512
-33.6471 -23.6458 -6.19577
-32.9124 -24.1965 -6.18942
-28.0306 -26.3001 -5.78423
-33.5083 -24.117 -6.19198
-31.6562 -25.3402 -6.06132
-35.1175 -23.4558 -6.26863
-25.1174 21.0848 -4.83484
-33.4338 -25.0195 -6.15374
-32.3898 -24.5279 -5.99959
-25.7935 21.2547 -4.88988
-12.7376 -42.2094 -6.46215
-12.7258 17.4079 -3.10699
-7.74892 15.5035 -2.47235
3.50057 -9.53859 -1.44586
38.2033 -12.5644 -5.72051
-33.7726 -24.8779 -5.93358
-30.8813 -24.5433 -5.55134
-30.3629 -25.609 -5.59311
-20.9433 -50.4628 -7.61312
-6.9115 15.3152 -2.28185
-14.1268 18.0492 -3.10972
-11.9308 -41.7628 -5.91377
-7.49326 15.1872 -2.27482
-24.924 -64.8816 -9.40291
-22.6199 20.571 -4.0723
-25.2061 -57.1318 -8.2968
-31.6156 -24.4056 -5.2718
45.05 -10.3809 -6.08008
44.4286 -9.76677 -5.99292
-13.6778 -42.5065 -5.86808
6.61445 -10.9011 -1.67719
-15.1518 18.5587 -3.11852
-23.0293 20.2832 -3.97851
-32.9338 -24.5865 -5.29091
10.6844 8.76312 -1.78342
-34.0392 23.4048 -5.30408
-30.0308 22.852 -4.75729
-31.2272 -24.4484 -5.00314
-12.947 -36.8353 -4.93673
9.64256 -9.02461 -1.64816
12.7439 -10.4151 -2.07224
-34.1711 23.9713 -5.21965
-36.4204 -22.69 -5.34409
-30.8938 -25.5352 -4.9802
6.75697 -10.2763 -1.53508
-33.2367 -23.4928 -5.04348
-13.8477 -43.2022 -5.57991
13.1335 -10.9486 -2.09915
41.528 -10.7932 -5.29845
-16.3338 18.8039 -3.04488
-16.1496 -39.144 -5.17617
-8.83433 15.7939 -2.20469
43.3825 -9.99339 -5.39097
14.9444 7.80134 -2.02448
9.38851 -8.90841 -1.54516
-34.0506 -23.7575 -4.92322
-18.0314 19.5975 -3.1165
-20.8949 9.24655 -2.70761
-32.0301 -24.7972 -4.77732
11.2496 -9.67733 -1.73759
41.8739 -11.2098 -5.10454
14.6421 -11.3689 -2.13098
14.8719 7.64443 -1.90083
-30.2543 23.0082 -4.33631
7.24139 -10.9963 -1.49434
-10.3554 16.5337 -2.18543
9.41885 -9.28569 -1.47248
12.723 -10.4498 -1.83609
13.9118 -10.9804 -1.97166
9.423 -9.08722 -1.45306
7.0344 -10.4172 -1.3771
44.3496 -9.68604 -4.94148
-11.0095 16.5382 -2.1429
-33.5567 23.6623 -4.45948
11.669 -9.80383 -1.64588
6.15155 -12.6502 -1.47994
7.52823 -11.5236 -1.43263
9.81534 -8.87611 -1.39242
-15.633 -45.1741 -5.01173
16.4765 -12.2015 -2.15059
-31.2134 -62.7091 -7.26602
14.8152 7.46012 -1.69505
-31.3217 -24.9622 -4.11411
13.7668 -10.8925 -1.79935
-32.0916 -24.8237 -4.10511
14.8018 7.73364 -1.67764
-12.7893 17.1035 -2.09907
-20.7738 -52.6701 -5.48655
-33.488 -67.6491 -7.22683
-23.643 20.6821 -2.96806
-31.1826 -25.5451 -3.83185
-31.1625 -25.8851 -3.8611
-22.1463 -57.9499 -5.84973
-14.2163 18.1913 -2.16149
-31.4429 -24.5994 -3.72585
-15.9485 -43.4398 -4.31094
-14.1531 -43.9896 -4.31052
9.78503 -9.06955 -1.23991
-34.0196 -66.2682 -6.86302
8.53578 -8.63273 -1.10243
16.41 -12.227 -1.87256
-15.1249 18.5538 -2.14786
-36.1058 -22.4571 -3.84787
-33.5045 23.6555 -3.6126
-31.2403 -25.2036 -3.54728
13.9745 -11.1147 -1.58534
-32.3512 -19.7143 -3.2325
11.0061 -9.65878 -1.24706
-26.9397 21.8521 -2.91378
-11.5067 -35.8132 -3.17905
9.36529 -8.97977 -1.08952
-34.2336 23.5367 -3.452
8.65801 -8.65959 -1.00595
16.6713 -12.1585 -1.68586
-16.9739 -44.1062 -3.79838
-21.7974 -49.862 -4.26
-15.4882 -38.2359 -3.27014
-13.493 -37.8583 -3.19335
9.16942 -8.91087 -1.00472
11.2395 -9.74327 -1.16633
14.7859 -11.5651 -1.48644
-30.266 23.0802 -2.96209
-29.408 -13.727 -2.52128
11.8068 -10.0025 -1.19961
-23.6012 -52.5624 -4.41342
12.7169 -10.5555 -1.25231
-42.1511 -79.9684 -6.54275
9.91192 -9.097 -0.975188
10.8626 -9.69613 -1.01503
-33.4555 -20.769 -2.7242
11.9002 -10.0015 -1.07652
14.6339 -11.522 -1.29476
-15.7475 -39.7913 -2.91263
-15.3609 -40.6365 -2.97834
18.4556 -13.3377 -1.512
-23.5395 20.6101 -2.0766
-25.373 -58.5305 -4.21895
12.8123 -10.5396 -1.10929
-14.8791 -41.2794 -2.85192
15.1922 -11.4707 -1.23724
-33.1889 -67.1967 -4.70714
-15.2784 -47.3564 -3.09241
-33.2166 23.4652 -2.489
-33.6332 -66.511 -4.53698
-17.2539 -42.0288 -2.77054
30.625 -20.3043 -2.23733
41.6392 -10.8585 -2.61281
36.2012 -8.72804 -2.25649
-15.3834 -41.3012 -2.66316
-27.271 22.1327 -1.99125
-29.1369 -14.3448 -1.87672
-16.0979 -41.9374 -2.50591
16.7971 -12.5334 -1.1743
-27.2978 -16.4268 -1.71508
42.219 -9.40423 -2.22477
-9.42152 -12.5887 -0.798228
-15.6809 -41.7317 -2.22091
5.68059 -12.3978 -0.677692
-14.3389 18.1773 -1.12908
-15.4326 -48.5068 -2.50036
14.8177 7.77377 -0.805956
-16.6104 -42.5764 -2.17243
-14.8821 -48.4013 -2.38974
18.601 -13.1975 -1.09331
-17.5894 -51.0103 -2.51742
36.4856 -8.96106 -1.76068
-29.037 -14.848 -1.45926
-24.9334 -57.132 -2.76489
-16.8132 -41.3683 -1.98818
9.62362 -9.08125 -0.590001
12.5461 -10.2974 -0.728594
43.8289 -10.0285 -1.9998
-14.3194 -43.5567 -1.95194
-33.1406 23.4275 -1.68991
-54.4465 29.5696 -2.47094
-34.2002 23.5361 -1.52298
-19.2596 -50.3657 -2.02429
-34.8728 -21.96 -1.47311
9.71045 -9.03687 -0.487745
6.58055 -10.7906 -0.438605
-13.2917 -39.6238 -1.38378
7.42141 -13.0265 -0.512122
18.4966 -13.1006 -0.765729
-27.2776 -59.7424 -2.16296
-13.577 -38.5178 -1.32359
20.8889 24.0921 -1.02354
-23.361 20.7393 -0.98358
-21.3232 -54.5993 -1.81812
20.8861 -14.2429 -0.768662
-27.7768 -14.2942 -0.946884
-13.27 -42.4689 -1.32321
-24.3355 20.6778 -0.916928
-24.2385 -55.7823 -1.7305
-17.9266 -48.5178 -1.49243
22.4167 -10.0879 -0.742051
-34.7262 -21.1587 -1.12472
-9.81677 -12.8796 -0.462522
-23.4248 -55.2421 -1.69408
17.9193 -13.3495 -0.568915
29.7538 49.6529 -1.49904
-30.4247 23.2135 -0.9835
-31.5976 23.1111 -0.967777
-27.3836 -13.1576 -0.74444
9.53148 -8.9695 -0.3168
-21.0869 -33.9648 -0.932366
-40.622 14.0907 -0.93966
21.0849 -14.1081 -0.538771
18.3251 -13.2114 -0.423927
12.756 -10.4794 -0.275063
-7.32965 15.8657 -0.305946
-33.4012 10.5629 -0.578679
-28.456 -13.5507 -0.498884
-37.3787 -21.2868 -0.6534
-18.4583 -45.2492 -0.756369
-7.98885 16.8007 -0.252651
-32.8095 -24.5097 -0.567827
-34.1738 -23.2965 -0.52932
17.1967 -12.8303 -0.260352
18.1146 -13.0423 -0.283099
28.6912 -17.6917 -0.449961
-21.9207 -56.1434 -0.731581
-30.6111 23.3381 -0.410128
-28.4052 -60.6108 -0.713104
-18.9478 -43.4593 -0.5078
-54.1176 29.658 -0.512827
-34.4409 -60.7553 -0.643902
-20.5047 -53.776 -0.547095
37.1745 -8.98089 -0.351634
-14.4506 18.3414 -0.163785
-36.4808 -81.2395 -0.610101
-18.2469 -44.2572 -0.326299
9.53892 -8.9758 -0.0407715
14.7162 7.74707 -0.0281332
-29.5878 -13.1992 -0.058514
-11.7326 -17.0823 0.0251933
-12.9472 -19.4876 0.0444726
-19.0115 -43.6405 0.196149
9.40571 -8.95496 0.0592114
-33.1707 23.4749 0.21168
-22.316 -56.3379 0.2929
-30.3973 -14.1079 0.201328
16.7295 -12.2064 0.115749
-13.2021 -20.2423 0.157598
14.6262 -11.3933 0.145882
-53.8408 19.2902 0.506798
7.04652 -12.1074 0.1176
15.8981 -11.7807 0.167953
-36.7793 -22.2563 0.451018
37.8532 -7.78008 0.402298
-35.6056 -22.3132 0.478682
-12.7584 -35.2383 0.436985
-13.2409 -35.6061 0.459917
-11.3633 -32.7209 0.421111
-9.76524 -30.2141 0.383952
25.1043 50.8318 0.739176
9.55083 -8.98333 0.169528
-12.8784 -19.9561 0.323275
-11.055 -33.5585 0.483584
8.53741 -8.4812 0.18246
6.24842 -12.7831 0.207222
7.11507 -10.9639 0.199523
9.30771 -9.02313 0.187245
7.99856 -9.07568 0.193487
9.68565 -8.96823 0.217448
37.3381 -7.9996 0.626462
-24.2018 20.7544 0.571641
-33.5063 -22.5431 0.694898
-34.839 -25.5612 0.756729
12.8432 -10.5506 0.272333
13.1514 -10.6075 0.31663
-9.94365 -12.6076 0.303134
6.79262 -11.1323 0.254309
7.95385 -9.34782 0.241361
25.6195 52.7121 1.17533
6.94151 -10.9108 0.259999
9.14256 -8.6505 0.267422
11.4686 -9.85754 0.331407
17.1449 -7.65795 0.378013
7.1747 -10.8856 0.295094
-9.47752 -12.2352 0.391439
-12.8852 -19.7804 0.563824
7.61443 -9.27041 0.273293
7.79715 -9.32451 0.282214
-26.0151 21.8652 0.88334
-29.1324 -9.34222 0.767886
9.57889 -8.91258 0.336609
17.3591 -12.6811 0.541971
18.1822 -13.0922 0.557214
-23.293 20.3934 0.807174
-28.1451 22.2434 0.937125
-29.1443 -8.74721 0.79679
-33.4466 -17.8338 1.02949
-13.4543 -20.3167 0.64752
14.6612 -11.3916 0.49541
22.5709 -3.284 0.641898
-12.2804 -19.1487 0.657973
24.7728 -4.69292 0.733882
16.0724 24.9425 0.889731
-28.2805 -20.8339 1.03936
7.18562 -11.2557 0.400995
6.92957 -10.6414 0.386804
14.4865 23.5988 0.850553
-7.63432 -8.82161 0.356786
12.951 -10.5972 0.511026
-7.33173 -9.52911 0.368277
-28.7672 -8.11972 0.994932
-11.9635 -17.4882 0.709443
7.83601 -9.3076 0.402631
16.0059 10.9355 0.694464
10.8018 -9.40558 0.520359
11.8247 -9.99067 0.564108
22.0814 44.4649 1.86512
-7.45951 -8.14403 0.412858
9.60591 -8.91706 0.489367
22.6383 -3.17842 0.87767
25.6893 53.1039 2.28484
-7.4616 -9.90384 0.485041
10.3764 -9.46378 0.550968
12.6492 -10.447 0.662884
21.4092 -2.6239 0.879438
-29.3997 -17.8361 1.40609
8.70048 -8.66135 0.507443
-6.93321 -8.4775 0.470807
9.39298 -8.88548 0.540603
12.5378 14.3926 0.843263
-29.111 -8.54358 1.33344
14.5179 18.9097 1.07175
14.733 25.367 1.30752
20.9729 41.2415 2.04678
6.12166 -13.6391 0.666739
10.7857 -9.46235 0.64897
18.3639 -1.62974 0.843528
18.9092 36.0037 1.90783
14.6681 25.844 1.39373
-11.2286 2.78509 0.557437
-7.25694 -9.56554 0.579062
9.12479 -8.94353 0.605203
11.3372 -8.69804 0.669233
19.9669 -2.28811 0.968219
11.525 11.7455 0.817428
15.5572 37.4137 1.99238
7.7238 -9.4136 0.599435
10.1323 -9.22815 0.678744
14.3018 24.2517 1.41018
19.5173 37.8477 2.16195
20.8465 -2.59688 1.06829
-7.41781 -8.52211 0.586231
9.34095 -8.89362 0.671682
16.4065 24.059 1.53013
16.1309 29.2434 1.7435
12.9228 -10.6518 0.889893
10.4531 12.2197 0.860291
14.0124 19.0207 1.26939
11.0142 -9.55049 0.78837
14.7888 19.2684 1.33983
-26.6464 20.426 1.83562
-6.97886 -8.18769 0.595257
10.1505 12.2718 0.892106
-7.2763 -9.39324 0.665532
9.88914 12.3192 0.916416
-28.1139 19.7931 1.95323
6.05985 -12.798 0.810873
11.0758 11.9732 0.937683
-6.89119 -6.80108 0.561648
11.1654 11.9061 0.961318
-6.81966 -8.42698 0.648893
6.20574 -12.4745 0.814253
14.427 19.1953 1.44413
13.8665 22.6716 1.58562
13.0432 30.1436 1.97142
-6.17435 6.57621 0.55431
-8.18371 -7.7544 0.682046
-7.12918 -8.17849 0.666412
5.68069 -12.3543 0.822414
-7.49303 -6.89874 0.633756
6.96439 -11.0962 0.810197
6.95012 -10.5038 0.786226
11.2754 -9.733 0.92002
12.0558 -10.0852 0.974142
16.098 7.12949 1.12194
14.6734 19.0084 1.5195
-7.24758 -6.31632 0.623681
10.2119 -9.32679 0.892653
-7.38947 -6.26896 0.635804
11.366 11.9934 1.12604
9.34973 21.048 1.56836
-7.28877 -9.67513 0.809368
11.5206 12.4951 1.16608
-6.96354 -4.46257 0.569076
-6.76438 -8.21562 0.725845
-6.70704 -4.43858 0.554934
9.23135 -8.82577 0.88922
9.95654 -7.81158 0.891556
12.5534 15.8217 1.46048
-6.67898 -6.67144 0.656061
9.76922 -8.24965 0.93509
11.3055 16.9044 1.52899
11.2265 17.8982 1.57839
9.43803 17.9634 1.53029
8.84892 19.1236 1.58488
7.16084 21.3421 1.69229
10.6012 18.2982 1.61117
9.97487 -7.56803 0.957457
-7.03967 -7.20102 0.771777
-17.2748 -6.26573 1.43709
9.43668 -7.65034 0.952408
9.17473 18.3246 1.61749
-6.38708 -4.26478 0.609068
-6.84268 -8.23553 0.848929
4.83022 -5.72792 0.595801
8.84791 19.4657 1.69597
7.61373 18.6155 1.61711
5.02297 -5.78915 0.617605
12.6658 11.429 1.3825
11.6715 11.7239 1.35474
6.70373 -9.35206 0.935453
12.1257 11.5979 1.37938
6.53089 19.1718 1.65778
-6.36325 -4.3927 0.630352
-7.17882 -9.50118 0.977476
11.4398 11.985 1.37096
10.3967 9.09528 1.17636
-5.05533 -11.5338 1.06377
6.11669 -6.0369 0.750256
9.18555 -7.15585 1.00156
-6.80549 -6.70303 0.811692
10.3307 12.2428 1.39851
8.76784 -7.30586 0.99218
10.727 12.0922 1.41478
-7.32341 -7.77909 0.93677
8.16526 -7.26915 0.970732
10.1076 12.3545 1.43509
-7.08449 -7.75596 0.931513
-6.95186 -8.35702 0.975701
10.4978 12.2029 1.46179
10.3906 13.4033 1.53659
-7.13134 -8.34514 1.00005
11.1268 10.7476 1.42302
-6.32116 -4.23567 0.699882
-6.87541 -8.61125 1.00829
-6.33515 -4.39908 0.71115
11.0103 8.49692 1.30521
10.565 9.26177 1.31012
6.3893 15.1775 1.54881
10.4187 11.2085 1.44815
-11.2746 2.88913 1.10015
6.14833 -5.95639 0.816201
7.98383 -6.61865 0.996183
10.6653 9.133 1.36322
9.43445 12.4138 1.50981
9.61899 12.3442 1.54189
7.58772 12.1348 1.42172
7.82358 13.0786 1.51703
11.1539 8.00965 1.39959
7.06029 12.5635 1.45446
8.98105 11.2551 1.4652
6.91201 13.3814 1.54139
5.78633 13.7491 1.53135
9.12401 10.4018 1.43014
8.94532 12.1866 1.57075
11.3193 7.61163 1.42307
9.18185 9.92981 1.4082
4.96912 -5.81472 0.821224
-6.85517 -4.6624 0.874741
5.49747 13.6961 1.56641
-7.069 -4.51303 0.89464
8.85452 10.6096 1.48382
-6.77741 -6.78712 1.02616
5.90212 -5.8256 0.895878
9.62895 8.47772 1.38294
8.89807 9.29371 1.38397
9.18559 10.2397 1.49153
4.70839 13.6455 1.55782
4.2288 -8.04253 0.984419
6.40584 10.7169 1.37397
-6.81034 -3.93007 0.865751
6.28042 11.7758 1.48078
-6.90452 -3.8683 0.877034
9.65755 7.16579 1.3449
6.60502 11.2725 1.45512
9.75292 6.9927 1.34828
5.37521 11.4587 1.4311
5.37702 11.956 1.48067
4.64405 12.0853 1.46485
9.7843 6.65014 1.34838
-6.9016 -4.57011 0.948252
7.39258 -6.2182 1.10121
-7.34385 -0.786865 0.847253
-6.28323 -5.39776 0.954233
5.24559 -5.56427 0.882478
8.82481 7.84542 1.37576
4.41422 -7.17692 0.976191
10.3683 5.13295 1.35496
8.90878 7.75014 1.38814
5.19709 -5.60797 0.903394
8.55354 7.87341 1.37955
8.84453 8.99778 1.47623
-7.05925 -5.66027 1.07086
10.0995 4.7291 1.32879
-6.92837 -3.8572 0.955748
9.09913 6.11678 1.32986
5.15635 11.3024 1.50594
-6.90277 -3.06983 0.918247
-6.88709 -3.25607 0.921562
4.87832 -5.94938 0.939157
5.96727 -6.12227 1.04102
9.33338 5.59828 1.34551
8.41929 7.18785 1.36881
-6.9605 -4.31681 1.00924
-6.89182 -4.54161 1.01754
8.20874 8.53335 1.46909
4.97911 11.1975 1.52164
-6.56025 -5.62637 1.07582
3.70593 -7.56868 1.05032
8.45709 7.70079 1.43128
6.07187 -5.61186 1.03671
9.1262 6.03421 1.38656
-6.14306 -5.4206 1.03405
8.50918 6.58274 1.37205
8.04568 7.47006 1.39668
-7.11158 -1.78558 0.938234
-7.02364 -2.30935 0.94463
-6.45489 -5.32653 1.06802
8.79206 5.63666 1.33896
8.10906 8.00014 1.46824
-7.27516 -1.25524 0.947093
-6.90778 -4.12487 1.04049
7.39876 6.19354 1.24978
8.03846 7.00616 1.38278
7.92352 8.079 1.46645
-6.91987 -2.83012 0.973698
-6.92116 -2.9702 0.974075
4.51036 9.9881 1.44021
8.96572 4.09628 1.29755
-7.25871 -1.6086 0.977482
6.83167 -4.25425 1.06969
4.9261 -5.9411 1.02332
-7.34477 -1.11892 0.994924
-7.02403 -2.20242 0.985103
-7.06125 -2.27179 0.991393
-6.00165 -4.40317 0.995105
5.18386 -6.5591 1.11431
6.90221 -4.17114 1.08581
8.03217 7.13353 1.45539
-7.16173 -1.72072 0.990644
-7.09264 -1.95847 0.990061
8.76 4.83624 1.35914
8.29595 5.84775 1.38008
-6.9307 -3.6241 1.06609
8.83554 4.14676 1.33882
3.30699 10.3931 1.49294
-7.32406 -1.20179 1.01644
-6.01694 -4.44652 1.0293
-5.99743 -4.54546 1.03055
7.13915 -3.92932 1.12013
8.03426 6.4556 1.42548
5.31664 8.98605 1.44581
-6.39019 -4.32686 1.05831
4.93149 -5.52424 1.0288
7.17667 -3.82514 1.13192
7.54942 -3.68137 1.16225
3.58225 9.93759 1.47078
3.39577 10.2174 1.50091
-7.38077 -1.08382 1.04193
-7.0834 -2.00655 1.02638
4.971 -5.28627 1.01449
7.23818 -3.73322 1.14425
7.35412 -3.66782 1.16567
7.86137 -3.35179 1.21502
-7.16472 -1.87733 1.05379
-7.01735 -2.94975 1.10353
-6.01474 -4.3784 1.07033
7.89585 -2.77901 1.22481
8.20435 4.60483 1.37852
4.95914 8.49536 1.44172
8.34148 4.49193 1.4003
7.82159 -2.33813 1.20348
7.11863 5.6668 1.36261
2.9316 9.357 1.46589
-7.10332 -2.0222 1.10736
7.47671 -3.10674 1.22066
8.20123 4.53244 1.42045
5.75638 7.40307 1.42403
5.26239 7.59182 1.40761
5.09725 7.89723 1.42772
5.05021 8.00408 1.43239
7.32755 -3.16712 1.21933
7.67191 -2.75346 1.24134
-6.76436 -1.68484 1.05049
7.82354 -2.25449 1.24864
7.20957 5.40709 1.38389
-7.1129 -1.955 1.1452
-6.92856 -2.78938 1.16132
6.79063 5.50801 1.37156
-7.36646 -1.09739 1.16382
-7.15389 -1.82661 1.15684
-7.05566 -2.0702 1.1526
-7.13045 -1.87498 1.15749
-6.90362 -2.93791 1.17827
4.78523 7.41971 1.40413
3.44644 -6.03223 1.10942
-7.28637 -1.30131 1.18624
3.52837 -5.70818 1.08112
3.56532 -5.61367 1.07053
7.05787 4.75748 1.38707
4.6397 7.34326 1.41368
-7.08046 -2.02618 1.20074
-7.10261 -1.94956 1.20911
6.95342 4.81834 1.39917
3.79671 7.88734 1.44919
6.0517 -3.31845 1.14978
6.62203 4.8647 1.37012
4.64277 7.13582 1.42009
3.83665 -5.30091 1.09987
7.09478 4.41798 1.40738
7.46714 2.85529 1.35115
6.30836 5.27354 1.39364
-7.28999 -1.25761 1.26031
6.74445 4.07767 1.35361
-6.45774 -2.77494 1.19977
5.50894 -3.62933 1.1333
5.69005 -3.51813 1.14865
2.73785 7.80219 1.42938
-7.38418 -1.04117 1.29341
5.33337 -3.78313 1.13989
-6.31757 -2.26205 1.16409
-6.27783 -2.41923 1.17852
4.28134 -4.6649 1.10728
4.49414 -4.47732 1.11285
4.59174 -4.44908 1.12172
-6.80986 -1.73482 1.23845
4.31851 6.47895 1.38898
-7.17051 -0.929701 1.29304
-6.15024 -2.26 1.16763
6.63255 3.6881 1.3605
6.09205 4.35614 1.35852
3.60929 -5.32834 1.17043
5.13676 5.67314 1.39988
2.50239 7.16055 1.42469
6.47993 3.04976 1.35419
-1.70641 -5.78277 1.14147
6.42515 -1.3857 1.24717
6.26909 2.7761 1.32011
6.21502 2.38022 1.32787
-4.46833 3.9542 1.40365
4.32089 3.53093 1.33469
4.20697 3.289 1.32201
4.66497 -1.67766 1.24484
4.81827 -1.38082 1.25391
-2.15624 4.83249 1.32303
3.72809 -2.95382 1.22277
3.67419 -2.55029 1.194
3.40796 -2.96287 1.22629
3.9995 2.56634 1.32798
-2.59364 -3.53319 1.25092
-2.32496 -3.56906 1.21616
3.75079 2.05555 1.30033
3.72759 1.97805 1.29981
-2.85253 3.4984 1.3934
-2.29506 -2.41803 1.18719
1.9578 -2.7844 1.21423
-2.12918 2.77546 1.32966
-2.0338 2.76345 1.33582
2.2528 -1.87132 1.22636
2.38197 -1.49932 1.22321
-2.01891 1.8804 1.29929
-2.06315 -1.4422 1.22834
1.45168 -2.07288 1.24717
-1.99122 -1.08719 1.21449
-1.9239 -0.707329 1.22019
-1.92566 -0.703131 1.24579
-1.95509 -0.344218 1.22937
-1.89196 -0.564433 1.23017
-1.8916 -0.530658 1.23528
8.20702 -8.68578 -7.45379
12.0834 -10.2515 -8.7698
-8.85643 15.8114 -7.03344
20.3162 24.7389 -11.4983
-8.82181 -2.52641 -2.58573
-34.8815 -23.3009 -7.74866
-34.4675 -22.5408 -6.07632
-34.1986 -23.2408 -6.14008
-31.5098 -20.2084 -2.81485
9.26049 -8.82037 -0.39078
-7.82231 16.861 -0.458556
-29.6987 -11.4924 0.733864
-6.93321 -8.28637 0.461623
16.4584 23.6335 1.56486
11.2753 15.8572 1.6094
-6.70543 -6.67842 0.885119
4.1763 12.118 1.47695
8.68054 9.04202 1.46618
7.96674 -8.75788 -10.3724
8.82518 -8.53314 -10.4894
6.95164 -11.9286 -11.5059
6.86746 -11.3423 -10.8883
8.14667 -8.25895 -9.52611
7.01716 -12.0213 -11.3191
7.061 -10.9654 -10.4491
7.99645 -8.3718 -9.19746
6.7228 -11.2772 -10.2821
6.44072 -11.6895 -10.2066
7.75206 -8.84468 -8.96623
6.20077 -14.3065 -11.8001
8.29221 -8.69433 -9.09453
6.29553 -11.9015 -10.169
6.14345 -12.0808 -10.1067
7.48561 -9.43836 -8.99469
7.90404 -9.04999 -8.92092
10.453 -9.43692 -10.4741
6.11672 -14.1071 -11.3655
6.09885 -13.6638 -11.0017
6.12716 -12.5691 -10.285
9.18636 -8.81615 -9.34047
9.27406 -9.06256 -9.45758
5.86104 -12.4977 -10.0281
9.34991 -8.97939 -9.25183
6.85562 -11.1166 -9.26946
5.61206 -12.9627 -9.99799
9.67898 -9.06904 -9.40026
7.60341 -9.33742 -8.46647
9.98338 -9.17404 -9.52553
10.9018 -9.48004 -10.1376
11.4219 -9.68271 -10.0564
8.37824 -8.60146 -7.94986
7.42536 -9.29206 -7.85929
8.16096 -8.71154 -7.89031
7.62216 -9.34487 -7.88984
7.83088 -9.39496 -7.83901
8.31408 -8.52877 -7.61418
0.361205 15.8795 -10.1338
7.52187 -9.31703 -7.62042
10.8934 -9.59205 -9.22886
7.21908 -10.6921 -8.16547
8.14908 -8.49108 -7.42218
4.61077 -15.4004 -10.1106
8.7072 -8.69444 -7.61323
7.91549 -9.02584 -7.40524
4.04642 -18.0131 -11.3727
8.19164 -8.6212 -7.27046
4.085 -17.3057 -10.8501
0.147017 14.8857 -9.05724
6.6486 -11.2529 -7.95794
7.73694 -9.26141 -7.32244
10.1098 -9.29797 -8.33466
6.81475 -11.2421 -7.89242
8.05398 -9.1971 -7.3385
11.2487 -9.67945 -8.87278
5.39684 -13.848 -8.81504
7.72903 -9.25918 -7.1529
9.34072 -9.02368 -7.69597
6.89612 -11.1058 -7.73743
7.97705 -9.12087 -7.11015
9.74023 -9.17578 -7.79879
14.8054 7.39799 -9.61148
8.65875 -8.82239 -7.1431
6.92679 -10.9553 -7.44941
2.63835 -11.2064 -6.62147
7.85355 -9.06443 -6.86916
9.59248 -9.12818 -7.52206
10.7764 -9.4809 -8.09723
3.27914 -20.6007 -11.7311
6.7955 -10.9736 -7.23624
10.0915 -9.27784 -7.67706
12.3125 -10.3312 -9.01372
9.22972 -8.99717 -7.20262
4.61153 -14.2811 -8.36695
7.99646 -9.20791 -6.77336
14.7274 7.52931 -9.08002
9.68449 -9.09494 -7.29668
0.837967 17.4638 -9.54701
2.74152 -19.8606 -10.9323
11.1112 -9.62872 -7.98317
4.22807 -14.4054 -8.12715
14.6411 7.65647 -8.89876
15.0217 10.3711 -9.79994
13.9789 7.71176 -8.52971
10.9314 -9.60107 -7.73706
13.2308 -10.7744 -9.07696
3.04379 -19.3362 -10.2903
11.3343 -9.80649 -7.62642
2.1682 -20.3847 -10.3469
10.2432 -9.32583 -6.96604
14.2305 -11.2558 -9.11014
13.7669 -11.1352 -8.86457
10.9864 -9.63628 -7.28086
7.50006 -9.32731 -5.92733
3.56121 -8.46382 -4.52544
-8.71947 -1.91448 -4.3892
2.2238 -20.1723 -9.95386
4.52946 -9.29438 -5.05667
0.404803 13.6545 -6.68653
7.59899 -9.25941 -5.8453
-8.5584 16.3344 -8.93197
-9.22198 -2.43793 -4.59619
14.9469 -11.5425 -9.07571
19.3002 5.52214 -9.59972
-10.3408 -2.56022 -5.03882
1.90897 -20.5585 -9.81784
17.1129 16.0811 -11.1209
7.57075 -11.1928 -6.37634
19.9475 5.38416 -9.72956
13.9893 -11.0757 -8.29781
2.92493 -17.3109 -8.16377
19.2774 5.70372 -9.28688
17.7727 -12.9523 -10.1588
9.84668 -2.48711 -4.69235
20.2009 5.12013 -9.61455
17.2367 16.2084 -10.9016
1.81007 -20.2338 -9.29717
9.65603 -9.02934 -6.0537
-9.23216 -1.67573 -4.27928
9.43567 -3.46223 -4.57755
6.70138 -11.2973 -5.97492
9.89381 -2.61327 -4.64145
19.1705 5.84565 -9.02243
17.614 17.4709 -11.1516
9.3521 -3.08067 -4.43198
15.3753 -11.8312 -8.70658
7.02414 -11.5409 -6.04331
7.13928 -10.8986 -5.80765
9.54154 -3.3984 -4.51355
-10.0897 16.5387 -8.62581
17.5821 -12.8318 -9.67292
19.4557 5.60463 -8.97358
16.0452 7.27778 -7.80133
17.7192 17.897 -11.1369
16.3659 -12.1717 -8.98975
-11.3631 17.2801 -9.09117
-6.61687 15.1233 -7.23848
-5.25438 4.92851 -3.13919
20.0498 5.44384 -9.03179
9.5405 -3.39869 -4.37074
18.1077 18.3526 -11.08
15.7654 -12.1324 -8.56058
14.8111 7.40536 -7.0666
3.8345 -9.2924 -4.27113
-11.2842 17.1631 -8.69644
6.9319 -10.8871 -5.44253
-13.6442 3.34384 -5.91882
0.743054 -22.4134 -9.45036
15.7536 -11.9282 -8.2641
-5.1855 5.71032 -3.22754
0.998805 -22.278 -9.34802
1.23113 -20.786 -8.72332
14.1229 7.57442 -6.70243
18.4321 19.2081 -11.1217
3.77913 -8.94639 -4.05013
14.7229 7.70425 -6.91625
17.807 19.0176 -10.8106
-9.53645 -1.09451 -3.96252
4.00454 -8.49675 -3.84852
13.9899 7.72471 -6.55981
6.83136 -10.9669 -5.28263
-13.6816 2.55581 -5.69386
-8.0478 15.5921 -7.13113
19.1216 20.7773 -11.4383
15.0241 7.21898 -6.7154
-5.32299 14.5391 -6.20835
13.909 -10.9964 -6.94504
1.52899 19.1901 -7.47592
-8.84439 15.9745 -7.09644
18.9187 5.76951 -7.66314
-1.76088 13.3493 -5.21563
5.28891 -9.38207 -4.1536
-2.39687 13.5754 -5.29513
19.4396 22.4874 -11.3966
4.65628 -8.50778 -3.68332
19.3426 5.54899 -7.65687
0.878092 -26.6178 -10.1207
14.8546 -11.447 -7.05793
19.8983 5.39082 -7.71549
9.42655 -3.43441 -3.75085
0.534061 -22.7646 -8.48534
3.24292 -10.7764 -4.20461
20.0308 23.3036 -11.4104
0.90993 -8.72531 -3.25323
13.9839 -11.0746 -6.57786
20.3039 5.16407 -7.70268
17.7727 17.5612 -9.1296
-13.092 2.2936 -4.83235
20.669 24.6817 -11.6747
2.28311 -13.238 -4.83984
12.997 -10.5105 -6.01504
0.796097 15.4136 -5.52187
-8.21579 -2.80367 -3.10506
0.410053 -21.9168 -7.83559
-4.26002 13.9839 -5.20043
0.638476 -21.9772 -7.81309
15.7984 -11.932 -7.01748
-15.9461 18.4352 -8.59103
5.91958 -11.3218 -4.49233
-11.1676 16.8534 -7.06222
0.0930828 -18.5637 -6.52527
14.2196 -11.2694 -6.34453
20.2588 5.33535 -7.31202
0.657975 -23.1061 -7.98273
-5.07335 14.7301 -5.33877
3.63624 -8.44126 -3.16389
4.87137 -9.02363 -3.51409
-14.7045 18.2561 -8.0246
2.27309 -10.878 -3.80849
-9.00412 16.3347 -6.35889
3.02009 -13.6654 -4.7719
-15.1863 18.6398 -8.15151
20.0775 5.45879 -6.99306
21.8355 27.0114 -11.6071
35.7675 -20.191 -13.7266
-5.37191 14.2501 -5.05878
1.90829 20.6639 -6.8848
1.26694 -10.2461 -3.41364
-5.31793 14.6451 -5.06138
-12.7604 17.4695 -7.01869
18.4811 -13.1694 -7.36988
3.5579 -8.66817 -3.00419
6.21045 -10.0978 -3.79933
2.31217 -11.0027 -3.57793
-4.61375 -34.6481 -11.1087
-1.14683 -24.01 -7.65082
14.9564 10.3006 -5.73072
-13.3936 17.8229 -7.04765
-18.2536 19.6884 -8.44052
6.94804 -11.073 -4.04172
1.38668 -21.9392 -6.80027
-2.59924 -27.6744 -8.53135
7.11491 32.8513 -10.2556
0.77111 15.0029 -4.56254
-11.29 17.0351 -6.16047
-2.72979 -26.7954 -8.11036
-14.5477 18.1894 -6.95035
-5.35919 -35.1336 -10.5811
0.840476 -25.1675 -7.52896
-5.46585 15.0353 -4.75969
2.07318 20.6111 -6.10243
-21.588 20.1293 -8.70896
18.1444 5.77392 -5.60436
-4.35003 14.6138 -4.48401
-8.03585 15.5909 -5.14682
4.25114 -9.13336 -2.96106
4.62895 -11.5989 -3.65183
-12.6681 2.23166 -3.69697
-33.6315 -47.639 -16.7787
-15.4118 18.5407 -6.93148
6.94405 -11.0599 -3.75985
2.5616 -9.53824 -2.80623
12.9003 -10.442 -4.72331
-8.46653 -2.46401 -2.50029
20.877 26.924 -9.65166
-8.59455 -2.2652 -2.51153
-2.58427 -26.363 -7.43279
-13.0768 2.00387 -3.68417
4.38016 -11.3098 -3.36648
-9.44076 16.2363 -5.15706
-13.2419 17.6608 -6.06361
-5.46822 14.5958 -4.26103
-8.65881 -42.0442 -11.7436
-21.7846 20.3292 -8.0109
-9.86703 16.3622 -5.12126
-27.112 20.827 -9.09572
11.3862 11.4597 -4.26204
4.31913 -11.2754 -3.19888
46.6486 -13.5608 -12.8699
-8.36389 -39.4666 -10.6024
4.08467 -8.64712 -2.51819
11.1462 -9.91407 -3.90251
-14.657 18.3521 -6.1078
6.52635 -10.4079 -3.17979
3.17454 -9.63565 -2.62281
-30.6984 -44.9609 -14.0569
-4.42963 -29.0509 -7.60204
3.53581 -10.357 -2.82205
4.06326 -9.37582 -2.62651
15.554 -11.6955 -4.96564
-7.25995 15.4676 -4.32572
-32.1314 -42.8511 -13.5808
4.30425 -11.125 -3.01923
4.25138 -7.69761 -2.23804
6.52449 -10.6426 -3.11339
44.3707 -13.415 -11.5577
-28.6966 21.6505 -8.88782
-11.6921 17.178 -5.12331
-28.0713 -40.9496 -12.2062
-10.0894 -39.7094 -10.105
-24.837 20.8611 -7.97132
4.34321 -10.3159 -2.75017
-12.2327 17.5222 -5.18204
-7.95541 15.5012 -4.20026
10.2547 -9.24987 -3.30681
39.9308 -13.2641 -10.0691
15.0638 7.53355 -4.00934
-6.43016 -36.8198 -8.90248
3.96124 -9.07749 -2.34687
46.5231 -12.4515 -11.4308
-12.4348 -45.7819 -11.2369
3.84921 -11.0402 -2.75581
4.90242 -8.68264 -2.34576
-12.9578 17.6586 -5.09791
10.9836 -9.62547 -3.33804
-6.28694 -31.8782 -7.41293
-27.5487 21.2773 -7.89088
41.1529 -8.99981 -9.56004
-30.9584 22.4774 -8.57792
-35.8557 -23.4971 -9.60502
40.3573 -12.4757 -9.48483
5.44622 -9.45974 -2.43716
-12.457 2.84241 -2.80353
40.2299 -11.7893 -9.26279
42.1793 -12.035 -9.65055
-5.45881 14.3237 -3.35241
13.352 -10.7442 -3.7725
37.7391 -12.1281 -8.71483
-23.7193 20.6727 -6.82528
-30.6451 -75.5515 -17.689
4.30222 -9.68328 -2.2979
4.53215 -9.16614 -2.20874
-14.7815 18.4163 -5.04363
-31.4056 22.8124 -8.28885
-32.301 22.9228 -8.46721
-29.2991 -77.7332 -17.804
-10.8398 16.9384 -4.26474
-8.60177 -36.5116 -7.97561
3.18465 -9.66819 -2.17075
3.95872 -9.81075 -2.25583
45.3197 -10.5073 -9.93119
14.8968 7.46158 -3.5319
-15.3659 18.9156 -5.16024
5.15643 -9.04158 -2.18686
26.2258 37.9444 -9.63766
14.9354 7.81641 -3.49951
-30.482 -23.5414 -7.98924
-11.6061 17.1005 -4.20036
-15.8329 18.7198 -4.99177
-35.7301 23.9846 -8.74487
43.9835 -9.59366 -9.18063
-13.5726 -43.6722 -9.29347
4.12829 -9.71652 -2.14803
11.5753 -9.62226 -3.0627
-12.1602 17.4509 -4.24643
-20.5382 -58.9434 -12.4731
-13.2424 -41.1354 -8.55464
4.06222 -9.90295 -2.11938
-34.5084 -23.5965 -8.24069
-27.1015 21.2703 -6.78092
-33.5274 -23.9826 -8.03506
-6.989 15.4446 -3.29122
-27.4143 -64.4139 -13.5961
-33.9336 -22.5907 -7.85535
3.42977 -9.34576 -1.92245
45.4011 -10.5191 -8.94942
-12.916 17.6347 -4.17917
3.98236 -9.32901 -1.93584
-36.8621 -22.391 -8.16397
-21.5973 -35.0842 -7.8346
