ply
format ascii 1.0 
element vertex 1869
comment /media/mkaihara/Seagate Backup Plus Drive/model_iterations/model_16.ply
property float32 x 
property float32 y 
property float32 z 
end_header 
13.9062 -11.2176 -3.93733
4.13751 -9.47141 -2.27034
44.0391 -13.0236 -10.0559
-21.9721 19.152 -6.35272
3.49811 -10.3998 -2.35189
4.54436 -10.226 -2.41859
15.381 7.73197 -3.70167
-26.8988 20.1268 -7.21822
-19.3966 -30.7543 -7.81594
-7.37745 -31.2704 -6.88
-22.8207 19.2468 -6.35771
-28.7804 20.9037 -7.56653
3.37191 -10.3016 -2.31
5.00198 -9.09484 -2.19921
15.1854 7.92989 -3.62926
4.39947 -10.9052 -2.49909
44.769 -11.6672 -9.803
-9.91779 15.5334 -3.88391
4.46564 -9.41423 -2.18331
3.21897 -9.30915 -2.03942
5.30178 -9.29986 -2.2408
15.1808 7.6394 -3.54412
-34.9332 23.0028 -8.7027
-25.4181 -23.5686 -7.16679
3.0984 -9.68454 -2.11174
-26.4949 -27.9397 -7.93568
-18.2434 -28.488 -6.96931
-26.7897 -68.535 -15.1967
3.97542 -9.61977 -2.14534
3.84339 -8.98063 -2.00281
-14.6739 17.3508 -4.64756
-20.1693 -53.4704 -11.7411
4.10181 -9.02894 -2.02582
-32.6638 21.8746 -7.9894
-13.6378 2.98349 -2.85197
-31.2283 -22.0703 -7.79915
-21.5759 -59.6075 -12.9167
-10.0153 -32.2656 -6.87756
47.2095 -10.3106 -9.815
15.3535 7.8442 -3.45813
-16.6927 -22.114 -5.56997
12.7282 -10.4014 -3.3041
-15.8168 -45.257 -9.57759
4.34506 -11.1735 -2.38796
-11.3125 16.2196 -3.92445
-24.4 19.1988 -6.15123
-33.0973 -19.5931 -7.64706
-29.9447 -23.3861 -7.53119
-11.721 -36.4089 -7.58314
-8.01304 -31.0729 -6.3981
15.0598 -11.8731 -3.79778
4.16909 -10.16 -2.16226
3.34281 -10.2106 -2.10341
-32.7788 21.6585 -7.63172
-19.5045 -46.9699 -9.83816
-13.6679 -39.4729 -7.97434
3.60612 -9.20388 -1.8907
-18.482 -29.9347 -6.68266
-29.7714 -23.2347 -7.12187
-27.0351 -24.0066 -6.8072
-18.5338 -45.8055 -9.35588
4.02833 -9.42359 -1.94921
-32.8255 22.1203 -7.36694
-14.3465 -39.1354 -7.80801
-21.7446 -49.4149 -9.93698
3.55962 -9.5322 -1.87628
-30.2406 -22.5713 -6.87032
-29.0103 -24.8742 -6.96577
-30.4205 21.4168 -6.70344
-17.2669 -42.726 -8.22908
-29.0875 -23.4316 -6.57038
-19.9116 -51.563 -9.74518
-31.5876 21.0209 -6.64097
-14.1242 -39.8347 -7.41781
3.52968 -9.91682 -1.83735
14.4825 8.03813 -2.87574
-32.1746 22.0476 -6.7621
-26.9139 -23.5891 -6.22537
3.60797 -9.8776 -1.82109
4.93613 -8.90537 -1.76285
-24.9948 19.6233 -5.48893
-28.4407 20.6853 -6.06301
-28.6994 -26.4346 -6.73373
4.04009 -10.3929 -1.92136
14.3202 7.72018 -2.79859
-19.9765 -45.9044 -8.52002
-19.309 18.3715 -4.49475
-29.3227 -23.3065 -6.35235
-16.8786 -41.8515 -7.65798
5.84005 -12.2334 -2.28614
45.4856 -12.8468 -8.01182
-15.5918 -41.6214 -7.489
44.4254 -11.559 -7.72107
5.19644 -11.1485 -2.04511
6.95085 -11.5492 -2.27482
-9.69853 15.4182 -2.95205
-28.3356 -21.9345 -5.84003
45.918 -12.3317 -7.7364
-20.6609 18.7681 -4.52511
7.81105 -9.41282 -1.93639
-34.4033 -23.8181 -6.5948
-17.3581 -42.9477 -7.36237
-21.3907 18.8076 -4.49044
-22.489 19.1713 -4.5956
-30.3607 21.3865 -5.74359
3.97718 -10.5319 -1.72748
-29.8717 -23.0969 -5.77208
-11.9164 -35.9564 -5.82415
-28.7346 20.9116 -5.40035
-19.1386 -46.0655 -7.60198
-7.11918 14.4135 -2.42027
-31.0763 -21.8391 -5.72288
-30.3893 -22.3416 -5.7155
-25.8629 -24.2663 -5.33787
-30.9249 -22.2576 -5.71511
-29.194 -23.3692 -5.59053
-32.3972 -21.6388 -5.78342
-23.1197 19.4079 -4.448
-30.8059 -23.0529 -5.67057
-29.9014 -22.6435 -5.5392
-23.7282 19.5528 -4.49609
-29.35 -24.3513 -5.58414
-10.7635 -35.6772 -5.46792
-11.8042 16.1465 -2.87897
-7.14187 14.2861 -2.27432
-46.7517 25.9185 -7.64001
3.64562 -9.93015 -1.50306
41.2445 -13.5649 -6.1744
-31.1173 -22.9219 -5.46746
-28.5502 -22.6907 -5.13279
-22.9825 -48.5749 -7.63233
-28.0176 -23.6309 -5.16166
-20.4462 -47.1397 -7.17893
-17.5225 -42.224 -6.37488
-6.33764 14.04 -2.08778
-13.0904 16.7245 -2.87897
-10.0301 -35.118 -4.97833
-6.89843 13.9795 -2.09023
-19.7129 -51.3206 -7.44358
-20.8613 18.9717 -3.75372
-20.7128 -46.9503 -6.82264
-29.2162 -22.5533 -4.87201
49.1173 -11.3186 -6.62824
48.3525 -10.6298 -6.52159
-11.5201 -35.805 -4.94788
6.88546 -11.3474 -1.7439
-14.0231 17.176 -2.88385
-21.2594 18.7246 -3.67098
-30.8185 -16.5414 -4.51375
-30.3866 -22.6848 -4.88189
11.0087 9.03006 -1.8413
-30.9817 21.3027 -4.82596
-27.4294 20.8728 -4.34351
-28.8677 -22.6011 -4.62531
-11.2531 -32.0206 -4.29501
-27.3957 -55.8536 -7.79373
9.92615 -9.29001 -1.69582
13.2062 -10.7929 -2.1463
-31.0496 21.7818 -4.74118
-33.5982 -20.9316 -4.92992
-28.4994 -23.556 -4.59443
7.00447 -10.6525 -1.58973
-30.7233 -21.7161 -4.66214
-11.6203 -36.2569 -4.68732
13.6313 -11.3635 -2.17752
45.0076 -11.6979 -5.7416
-15.1211 17.4078 -2.81685
-14.0623 -34.0884 -4.5105
-8.16533 14.5962 -2.03469
47.1437 -10.8602 -5.85778
15.4415 8.06117 -2.09507
9.6579 -9.16392 -1.58875
-31.4351 -21.9325 -4.54501
-16.6529 18.0995 -2.87649
-19.9194 8.81502 -2.58097
-29.5661 -22.8895 -4.40985
-21.4346 -48.567 -6.24044
11.6168 -9.99321 -1.79345
45.4249 -12.1607 -5.5366
15.2411 -11.8341 -2.21698
15.3604 7.89581 -1.9664
-27.6215 21.0063 -3.95762
7.53075 -11.4355 -1.55244
-9.57414 15.2857 -2.01818
9.70686 -9.56972 -1.51672
13.1861 -10.8302 -1.90196
14.4553 -11.4095 -2.04763
9.70367 -9.35797 -1.49562
7.29161 -10.7977 -1.4261
48.2592 -10.5402 -5.37672
-10.1969 15.3173 -1.98272
-30.5235 21.5238 -4.05525
12.0666 -10.1382 -1.70117
6.49045 -13.3456 -1.55898
7.84127 -12.0021 -1.49059
10.1025 -9.13588 -1.43257
-13.0852 -37.8143 -4.19825
17.2225 -12.7541 -2.24673
-25.3875 -51.0057 -5.91191
15.298 7.70353 -1.75328
-28.9224 -23.0499 -3.79876
14.3013 -11.3155 -1.86826
-29.6227 -22.9139 -3.78903
15.2905 7.98925 -1.73606
-11.8626 15.8644 -1.94556
-27.6495 -16.9977 -3.25654
-17.126 -43.4235 -4.52552
-26.8157 -54.1715 -5.78846
-21.7887 19.0604 -2.73452
-28.7629 -23.5627 -3.53417
-28.7219 -23.8578 -3.55838
-17.8802 -46.7895 -4.72537
-13.1528 16.8305 -1.99854
-29.0651 -22.7392 -3.44371
-13.5129 -36.8082 -3.65474
-11.8217 -36.7458 -3.60315
10.0794 -9.34249 -1.27667
-27.459 -53.4898 -5.54057
8.77259 -8.87226 -1.13255
17.1526 -12.7804 -1.95624
-13.9853 17.1561 -1.98497
-33.3409 -20.7372 -3.55266
-30.4756 21.5174 -3.28551
-28.8375 -23.2651 -3.27398
14.5325 -11.5587 -1.6478
-30.1405 -18.367 -3.01112
11.3665 -9.97512 -1.28733
-24.7129 20.0463 -2.67252
-9.92619 -30.8959 -2.74418
9.64253 -9.24575 -1.12132
-31.1369 21.4081 -3.13941
-43.3176 -80.4889 -7.61187
8.90115 -8.90289 -1.03381
17.4277 -12.7102 -1.76143
-14.3797 -37.3666 -3.21896
-18.31 -41.8864 -3.57902
-13.454 -33.215 -2.84147
-11.635 -32.6467 -2.75483
9.43823 -9.17225 -1.03377
11.6134 -10.0675 -1.20463
15.4066 -12.0508 -1.54803
-27.6236 21.0656 -2.70326
-27.7429 -12.9497 -2.37818
12.2167 -10.35 -1.24073
-19.664 -43.7949 -3.67754
13.1901 -10.9484 -1.29829
-32.7492 -62.1325 -5.08258
10.2127 -9.37316 -1.00442
11.2204 -10.0156 -1.04803
-31.0829 -19.2961 -2.53026
12.3151 -10.3504 -1.11359
15.2463 -12.0044 -1.34826
-13.5798 -34.3149 -2.51193
-13.1598 -34.8145 -2.55192
10.21 -9.64708 -1.00103
19.3894 -14.0126 -1.58759
-21.6963 18.9967 -1.91408
-20.7076 -47.7708 -3.44288
-14.5368 -42.8701 -2.98137
13.2896 -10.9324 -1.1501
-12.6685 -35.1476 -2.42845
15.8365 -11.9575 -1.28909
-26.604 -53.8653 -3.77202
-12.5854 -39.011 -2.5476
-30.2355 21.3598 -2.26595
-27.0683 -53.5294 -3.64999
-14.7927 -36.0343 -2.37501
33.2296 -22.0314 -2.42571
45.1608 -11.7771 -2.83368
38.7893 -9.3522 -2.41799
-13.1335 -35.2619 -2.27355
-13.3421 -18.2981 -1.33113
-24.9915 20.2832 -1.82521
-27.48 -13.5291 -1.76949
-33.1157 -63.9913 -4.09851
-13.74 -35.7956 -2.13836
17.5863 -13.1226 -1.22882
-25.7295 -15.4831 -1.61593
45.7853 -10.199 -2.41293
-9.08607 -12.1405 -0.769746
-13.3658 -35.5713 -1.89217
6.02982 -13.1603 -0.718253
-13.2596 16.8097 -1.04434
-12.6349 -39.715 -2.04632
15.315 8.03483 -0.835554
-32.0477 21.7256 -1.86052
-14.1798 -36.3476 -1.85347
-12.1379 -39.4777 -1.94821
19.5496 -13.8709 -1.14843
-14.4116 -41.7972 -2.06144
39.1307 -9.61093 -1.88859
-27.371 -13.996 -1.37489
-20.4034 -46.7527 -2.26047
-14.4355 -35.5184 -1.70571
9.91625 -9.35762 -0.607823
13.0041 -10.6737 -0.754948
47.7047 -10.9158 -2.17686
-12.0052 -36.5194 -1.63532
-30.172 21.3296 -1.53946
-47.9703 26.053 -2.17806
-31.1117 21.4112 -1.38654
-15.9357 -41.6744 -1.67284
-32.2889 -20.3328 -1.36266
10.0044 -9.31068 -0.502477
6.85821 -11.2462 -0.456752
-11.3172 -33.7384 -1.1765
7.83726 -13.7568 -0.540133
19.4334 -13.7645 -0.804091
-22.2497 -48.7317 -1.76112
-11.6675 -33.102 -1.13572
22.7185 26.2028 -1.11873
-21.5221 19.1073 -0.907278
-19.6252 -49.1692 -1.69143
-39.0347 -74.4512 -2.60329
-17.5032 -44.8218 -1.48963
22.0691 -15.05 -0.811713
-26.2556 -13.5114 -0.894333
-11.0936 -35.5042 -1.10413
-22.4259 19.0558 -0.846197
-19.914 -45.8304 -1.4185
-14.8716 -40.25 -1.23546
23.5123 -10.5812 -0.778383
-32.2073 -19.6239 -1.04179
-9.46136 -12.4134 -0.445451
-19.2582 -45.4173 -1.38957
18.8253 -14.0246 -0.597339
35.9734 60.0365 -1.82386
-27.7577 21.1793 -0.898689
-28.8219 21.0815 -0.884198
-25.9298 -12.459 -0.70427
9.81603 -9.23742 -0.326345
-18.9652 -30.5476 -0.836338
-37.418 12.9797 -0.866632
22.2744 -14.9042 -0.568832
-48.4191 17.4635 -0.950834
19.2557 -13.8826 -0.44523
13.2304 -10.8694 -0.285325
-6.65142 14.3982 -0.278229
-31.2407 9.88001 -0.542316
-26.8986 -12.809 -0.47083
-34.5575 -19.6801 -0.602533
-15.6486 -38.3622 -0.637852
-7.22415 15.1936 -0.229313
-30.306 -22.6394 -0.522681
-13.8532 -39.4229 -0.569536
-31.6012 -21.5428 -0.487738
-28.2588 -57.0988 -0.784085
18.0298 -13.4521 -0.27286
19.0241 -13.6975 -0.297186
30.8638 -19.0318 -0.48353
-17.8102 -45.6163 -0.589904
-27.9183 21.2857 -0.375924
-35.0085 -19.5695 -0.441217
-23.2126 -49.5334 -0.577764
-16.2423 -37.2545 -0.431742
-47.6991 26.1412 -0.454133
-28.4727 -50.228 -0.52716
-16.8069 -44.0808 -0.44395
39.9422 -9.64986 -0.378415
-13.3523 16.9481 -0.15297
-27.7538 -61.8058 -0.457217
-15.5457 -37.7069 -0.274137
-23.4585 -45.213 -0.252229
-27.9759 -8.69927 -0.169088
9.82532 -9.24549 -0.0422668
13.5928 15.5567 -0.0451656
15.2124 8.00831 -0.0311824
-27.9446 -12.4663 -0.0544421
-26.7334 -19.557 0.00817584
-11.1587 -16.2471 0.0251294
-12.2109 -18.3796 0.043427
-16.2886 -37.391 0.172534
9.68632 -9.22228 0.0606355
-30.2115 21.3812 0.190422
-18.135 -45.7831 0.243938
-28.6393 -13.2919 0.190671
17.5053 -12.7727 0.120944
-12.415 -19.0356 0.149884
15.2354 -11.868 0.151712
-48.3621 17.3277 0.453317
7.40353 -12.7213 0.123245
16.6012 -12.3019 0.175158
-33.9807 -20.5627 0.4187
40.6812 -8.36164 0.43146
-32.9334 -20.6385 0.444772
-11.1394 -30.7684 0.385589
-11.5832 -31.1508 0.406427
-9.99255 -28.7758 0.374108
-8.62361 -26.683 0.342586
31.2512 63.2801 0.91182
9.83806 -9.25367 0.174215
-12.1226 -18.7853 0.306099
-9.63984 -29.2637 0.425724
8.77406 -8.71643 0.187059
6.62985 -13.5638 0.219341
7.41263 -11.4227 0.207436
9.5882 -9.29522 0.192465
8.24012 -9.34995 0.198884
9.97701 -9.23818 0.223545
40.0987 -8.59134 0.671869
-22.3087 19.1314 0.524304
-31.0505 -20.8907 0.646087
-32.0602 -23.5222 0.698879
13.3257 -10.9472 0.282193
13.6524 -11.0118 0.328291
-9.59449 -12.1651 0.293298
7.09219 -11.6236 0.264993
8.20414 -9.64215 0.248477
31.9636 65.7721 1.45861
7.23294 -11.3692 0.270394
9.40374 -8.89774 0.274565
11.8622 -10.196 0.342317
17.7609 -7.93308 0.390988
7.47043 -11.3346 0.306706
-9.15081 -11.8133 0.378784
-12.1371 -18.6321 0.533071
7.85174 -9.55946 0.281299
8.04227 -9.61782 0.290566
-23.8829 20.0736 0.807996
-27.6306 -8.86055 0.728816
9.86457 -9.17854 0.34612
18.2016 -13.2969 0.567872
19.0995 -13.7529 0.58494
-21.4953 18.82 0.742041
-25.7879 20.3811 0.855686
-27.6514 -8.299 0.756418
-31.2322 -16.653 0.962979
-12.658 -19.1146 0.611305
15.2758 -11.8694 0.515722
23.508 -3.42049 0.667503
-11.5924 -18.0762 0.623102
25.9279 -4.91189 0.767111
17.6454 27.3844 0.973388
-26.4315 -19.4717 0.973474
7.49874 -11.7465 0.417783
7.20814 -11.0694 0.401673
15.8581 25.8335 0.927846
-7.45416 -8.61351 0.348689
13.4421 -10.9992 0.529878
-7.14487 -9.28642 0.359336
-27.3227 -7.71188 0.945349
-11.3553 -16.5991 0.675173
8.08164 -9.59954 0.414626
16.6886 11.4019 0.722053
11.1506 -9.70947 0.536558
12.239 -10.3409 0.583274
26.7465 53.8593 2.25419
-59.0723 21.5689 2.33814
-7.29724 -7.96689 0.404125
9.89238 -9.18312 0.503336
23.5806 -3.31085 0.913129
32.3835 66.9446 2.87447
-7.26088 -9.63747 0.472575
10.7103 -9.76835 0.568059
13.1195 -10.8356 0.686896
22.2417 -2.726 0.912552
-27.5981 -16.7432 1.32171
-12.0184 -19.088 0.955996
8.94816 -8.90803 0.521218
-6.77722 -8.28675 0.460563
9.67097 -9.14856 0.555937
13.1989 15.1516 0.885667
-27.6297 -8.10877 1.26605
15.5479 20.2512 1.1454
16.28 28.031 1.44204
24.9313 49.0269 2.42904
6.55908 -14.6141 0.712835
11.1362 -9.77001 0.669369
18.9662 -1.68327 0.870108
21.9396 41.7744 2.21015
16.2463 28.6253 1.54101
-10.9787 2.72314 0.54373
-7.06917 -9.31803 0.564669
9.39536 -9.20883 0.62243
11.6825 -8.9631 0.688925
20.6879 -2.37083 1.0021
12.0164 12.2464 0.850508
18.5473 44.6054 2.37231
7.91275 -9.37466 0.591598
7.96931 -9.71292 0.617687
10.4491 -9.51681 0.699232
15.7205 26.6578 1.54761
22.8313 44.2755 2.52578
21.6377 -2.69557 1.10775
-7.24965 -8.32897 0.573336
9.61766 -9.1572 0.690819
17.9403 26.3084 1.67071
18.1454 32.8959 1.9586
13.4147 -11.0574 0.923
10.9224 12.7684 0.897225
15.019 20.3872 1.35847
11.3768 -9.86501 0.813553
15.8561 20.6591 1.4344
-24.5786 18.8413 1.68957
-6.82826 -8.01104 0.582768
10.6106 12.8282 0.930915
-7.09326 -9.15704 0.649396
10.3431 12.8847 0.956907
-25.9642 18.28 1.80035
6.42599 -13.5707 0.858206
11.5588 12.4954 0.976936
-6.7676 -6.67912 0.551664
11.6505 12.4235 1.00147
-6.66812 -8.23977 0.634911
6.55653 -13.1792 0.858711
15.4699 20.583 1.54658
15.1348 24.7454 1.72866
14.9555 34.5642 2.25866
-5.99432 6.38443 0.536013
-8.0104 -7.59023 0.667874
-6.97529 -8.002 0.652409
6.01482 -13.0803 0.869037
-7.35298 -6.76981 0.622028
7.2606 -11.5681 0.843439
7.21835 -10.9091 0.815434
11.6554 -10.0611 0.950179
12.4838 -10.4434 1.00787
16.6591 7.37795 1.15956
15.7156 20.3587 1.62555
-7.12258 -6.20737 0.612937
10.5347 -9.62163 0.919992
-7.26185 -6.1607 0.624828
11.8645 12.5195 1.17397
10.2796 23.1419 1.72326
-7.09971 -9.4243 0.789121
12.0452 13.0642 1.21771
-6.86826 -4.40149 0.560961
-6.61892 -8.03902 0.710673
-6.61812 -4.37973 0.547242
9.5013 -9.08391 0.914314
10.2206 -8.01881 0.914341
13.2908 16.7513 1.5448
-6.56506 -6.55788 0.644967
10.0396 -8.47801 0.96007
12.0494 18.0169 1.62832
12.0251 19.1717 1.68941
10.1684 19.3538 1.64772
9.62765 20.807 1.72354
8.01936 23.9021 1.89506
11.3986 19.6748 1.73124
10.2324 -7.7635 0.981293
-6.90597 -7.06427 0.757358
-16.735 -6.06986 1.39225
9.67696 -7.84517 0.975753
9.91633 19.8062 1.74744
-6.307 -4.2113 0.601069
-6.6953 -8.05824 0.831143
4.90511 -5.81665 0.60418
9.64525 21.2206 1.84818
8.31378 20.3279 1.76544
5.10241 -5.88063 0.62651
13.1966 11.908 1.43913
12.1712 12.2259 1.41149
6.91906 -9.65236 0.964269
12.639 12.0889 1.43651
7.22428 21.2085 1.83393
-6.28268 -4.33708 0.622033
-6.99643 -9.2599 0.953465
11.9396 12.5087 1.42965
10.7464 9.40125 1.21479
-4.87511 -11.1233 1.02755
5.45664 -5.85754 0.710984
6.22332 -6.14211 0.762444
9.40386 -7.32593 1.02443
-6.68707 -6.58652 0.797725
10.7977 12.7963 1.46067
8.97566 -7.47901 1.01476
11.2015 12.6272 1.47628
-7.17376 -7.62024 0.918039
8.35356 -7.43676 0.99216
10.5715 12.9216 1.49998
-6.9413 -7.59933 0.913103
-6.79969 -8.17418 0.954926
10.9698 12.7517 1.52651
10.9127 14.0768 1.61284
-6.97489 -8.16214 0.978688
11.5639 11.1699 1.47787
-6.24286 -4.18319 0.69085
-6.71994 -8.41662 0.986157
-6.25513 -4.34351 0.701839
11.3626 8.76893 1.34592
10.9261 9.57842 1.35386
6.85952 16.2952 1.66285
11.4106 11.3443 1.50086
10.8462 11.6685 1.5066
-11.0229 2.82464 1.07398
6.25372 -6.05845 0.829278
8.15112 -6.75733 1.0161
11.0264 9.44221 1.40836
9.87627 12.9952 1.57975
10.0635 12.9148 1.61237
7.95619 12.7244 1.49027
8.24035 13.7756 1.59742
11.4988 8.25734 1.44188
7.43145 13.2243 1.53061
9.35914 11.729 1.52617
7.3147 14.1614 1.63106
6.17224 14.6668 1.63377
9.47446 10.8014 1.48432
9.36077 12.7527 1.64311
11.6595 7.8404 1.46486
9.51667 10.292 1.45877
5.04835 -5.90736 0.833323
-6.76083 -4.59822 0.862441
5.87321 14.6331 1.67397
-6.97095 -4.45041 0.881938
9.20382 11.0282 1.54171
-6.65799 -6.6676 1.00833
5.999 -5.92113 0.909625
9.93096 8.74369 1.42548
9.20129 9.61054 1.43038
9.53181 10.6258 1.54706
5.05931 14.6639 1.67487
4.34889 -8.27016 1.01072
6.68805 11.1892 1.43428
-6.72357 -3.87997 0.854302
6.59819 12.3721 1.5557
-6.81604 -3.8187 0.865364
9.92263 7.36252 1.38098
6.9126 11.7977 1.52272
10.0168 7.18192 1.38392
5.65782 12.0617 1.50661
5.67786 12.6257 1.56388
4.92868 12.8274 1.55539
10.0404 6.82424 1.38283
-6.80703 -4.50745 0.934983
7.53084 -6.33426 1.12081
-7.25342 -0.77717 0.835775
-6.19387 -5.32099 0.940588
5.32408 -5.64738 0.89471
9.08155 8.07372 1.41508
4.51259 -7.33632 0.99655
10.6107 5.25297 1.38577
9.16544 7.97348 1.42743
5.27567 -5.69262 0.91606
8.80257 8.1027 1.41905
9.13639 9.29483 1.52431
-6.94882 -5.57173 1.0541
10.3241 4.83427 1.35748
-6.83945 -3.80767 0.943049
9.31918 6.26475 1.36126
5.42783 11.8982 1.58574
-6.81959 -3.03281 0.906577
-6.80323 -3.2164 0.909776
4.95745 -6.04568 0.953306
6.07092 -6.22843 1.05805
9.5495 5.72795 1.3759
8.64505 7.38066 1.40487
-6.86703 -4.25881 0.99536
-6.7978 -4.47962 1.00338
8.46697 8.8019 1.51479
5.24227 11.7901 1.6027
-6.46201 -5.54212 1.05971
3.80222 -7.76416 1.07581
8.6982 7.92042 1.4715
6.16758 -5.70016 1.05206
9.34521 6.17907 1.41912
-6.05664 -5.34437 1.01946
8.7222 6.74759 1.40575
8.26809 7.67665 1.43473
-7.02752 -1.76445 0.926266
-6.94068 -2.28205 0.932702
-6.36275 -5.25049 1.05271
8.99159 5.76463 1.36864
8.34859 8.23654 1.51112
-7.18715 -1.24004 0.93465
-6.81724 -4.07077 1.02648
7.57075 6.33761 1.27825
8.24842 7.18923 1.41833
8.15979 8.32001 1.50972
-6.83749 -2.79639 0.961444
-6.83808 -2.93452 0.961752
4.7214 10.4563 1.50829
9.14065 4.17624 1.32212
-7.17107 -1.58915 0.964762
6.92444 -4.31194 1.08334
5.00415 -6.03488 1.03841
-7.25495 -1.10522 0.981731
-6.94139 -2.17648 0.972712
-6.97751 -2.24482 0.97885
-5.92888 -4.34976 0.982739
5.27908 -6.67915 1.13354
6.99572 -4.22757 1.09965
8.24543 7.323 1.49354
-7.07653 -1.70023 0.977956
-7.00884 -1.93531 0.97751
8.94206 4.93679 1.3867
8.48524 5.98123 1.41097
-6.84354 -3.5785 1.0522
9.00736 4.22743 1.36415
3.50211 11.0086 1.58283
-7.23487 -1.18714 1.00305
-5.94351 -4.39224 1.01646
-5.92344 -4.48936 1.01757
7.2357 -3.98238 1.13442
8.23021 6.61312 1.45972
5.51497 9.32165 1.50002
-6.31001 -4.27256 1.04471
5.00242 -5.60344 1.04253
7.27313 -3.87649 1.14627
7.65418 -3.73238 1.17753
3.76955 10.459 1.54912
3.58834 10.7987 1.58773
-7.29002 -1.07048 1.02807
-6.99977 -1.98283 1.01341
5.03857 -5.35788 1.02725
7.33518 -3.78317 1.15873
7.45347 -3.71729 1.18056
7.97166 -3.39876 1.23122
-7.07932 -1.85493 1.04035
-6.93223 -2.91394 1.08949
-5.94194 -4.32538 1.05707
8.00238 -2.81644 1.24051
8.36546 4.69531 1.40499
5.13505 8.79718 1.49326
8.5045 4.57977 1.42706
7.9231 -2.3684 1.2183
7.27188 5.78887 1.39153
3.08658 9.85455 1.54547
-7.01923 -1.99823 1.09339
7.57424 -3.1472 1.23576
8.36083 4.6207 1.44753
5.91936 7.61291 1.46437
5.4199 7.81936 1.44992
5.25942 8.14886 1.47344
5.2145 8.26485 1.47931
7.42131 -3.20756 1.2341
7.77207 -2.78935 1.25673
-6.68898 -1.66604 1.03784
7.92493 -2.28365 1.26402
7.35951 5.51962 1.41225
-7.02873 -1.93183 1.13076
-6.84628 -2.75622 1.14684
6.93235 5.62305 1.39984
-7.27622 -1.08393 1.14847
-7.06893 -1.80489 1.14218
-6.97269 -2.04582 1.13818
-7.04598 -1.85274 1.14287
-6.82126 -2.90282 1.16355
4.92886 7.64281 1.44664
3.50207 -6.12869 1.12584
-7.19835 -1.28557 1.17086
3.57985 -5.79078 1.09554
3.61559 -5.69217 1.08432
7.19107 4.84733 1.41284
4.77837 7.56318 1.45638
-6.99699 -2.00227 1.1857
-7.01875 -1.92651 1.19393
7.08522 4.90975 1.42532
3.93337 8.17214 1.5024
6.11602 -3.35362 1.16119
6.74672 4.9564 1.39558
4.77651 7.34178 1.46144
3.88544 -5.36782 1.11265
7.22262 4.49766 1.43234
7.58045 2.89867 1.3711
6.43397 5.37865 1.42116
-7.20191 -1.24239 1.244
6.85792 4.14635 1.37599
-6.38653 -2.7443 1.18582
5.56479 -3.66598 1.14395
5.7484 -3.55408 1.1596
2.85097 8.12696 1.49045
-7.29353 -1.02837 1.27639
5.38723 -3.82117 1.15055
-6.25132 -2.23829 1.15104
-6.21196 -2.39381 1.16534
4.32722 -4.71456 1.11813
4.54097 -4.5237 1.12347
4.6398 -4.49537 1.13249
-6.73343 -1.71532 1.22357
4.43064 6.64764 1.42555
-7.08533 -0.91865 1.27649
-6.08769 -2.23698 1.1549
6.73711 3.74632 1.38157
6.19546 4.43019 1.38133
3.65465 -5.39466 1.18385
5.2465 5.79455 1.42992
2.59626 7.43192 1.48038
6.57172 3.09303 1.37299
-1.68135 -5.69886 1.12561
6.48749 -1.39902 1.25859
6.35259 2.81315 1.33731
6.29262 2.41001 1.34406
-4.39527 3.88865 1.37738
4.37859 3.57829 1.3527
4.25956 3.33032 1.33873
4.69387 -1.68793 1.252
4.84912 -1.38952 1.2614
-2.10537 4.7128 1.28578
3.74858 -2.96982 1.22878
3.69129 -2.56191 1.19893
3.42416 -2.97666 1.23143
4.03992 2.59247 1.3416
-2.57842 -3.51223 1.24307
-2.31201 -3.54898 1.2089
3.78232 2.07303 1.31147
3.75805 1.9944 1.31064
-2.81395 3.44883 1.37028
-2.2878 -2.41002 1.18234
1.95891 -2.78548 1.21444
-2.10946 2.74669 1.3127
-2.01566 2.73542 1.31909
2.25329 -1.87152 1.22646
2.38295 -1.49977 1.22363
-2.00757 1.86778 1.28788
-2.05973 -1.43941 1.22456
1.44844 -2.06819 1.24453
-1.9886 -1.08542 1.21089
-1.92173 -0.706318 1.21652
-1.92344 -0.702098 1.24203
-1.95248 -0.343735 1.2252
-1.8899 -0.563658 1.22641
-1.88953 -0.529937 1.23147
8.36837 -8.85371 -7.59539
12.4281 -10.5418 -9.01467
-8.36769 14.9271 -6.6328
21.7313 26.4722 -12.3167
-8.68377 -2.48691 -2.54545
-23.1621 -58.7488 -13.8133
-32.1918 -21.5042 -7.15212
-31.8708 -20.8426 -5.6189
-31.5913 -21.4688 -5.67236
-29.3707 -18.8365 -2.62316
9.5305 -9.07769 -0.402218
-7.06659 15.2325 -0.41457
-28.0886 -10.8693 0.694857
-6.78214 -8.10589 0.451872
17.9477 25.7725 1.70406
11.956 16.8147 1.70545
-6.59108 -6.56477 0.870202
4.4499 12.9137 1.57481
8.96933 9.34292 1.51435
8.09621 -8.89611 -10.5339
8.26136 -8.16849 -10.0599
8.97633 -8.6758 -10.6628
7.06127 -12.1049 -11.6734
6.97546 -11.5103 -11.047
8.28177 -8.39266 -9.67827
7.12186 -12.1884 -11.4743
7.17545 -11.1341 -10.6073
8.1319 -8.51032 -9.34739
6.83193 -11.45 -10.437
6.54382 -11.8647 -10.3569
7.88445 -8.99168 -9.11293
6.29787 -14.5093 -11.9645
8.44197 -8.84797 -9.25281
6.39591 -12.0785 -10.3175
6.23649 -12.2498 -10.2457
7.62189 -9.60548 -9.15102
8.03989 -9.20116 -9.06776
10.6929 -9.65081 -10.7082
6.19949 -14.2765 -11.5
6.17038 -13.8034 -11.1128
6.22155 -12.7473 -10.4283
9.37139 -8.99092 -9.52288
9.46146 -9.24251 -9.6427
5.95199 -12.6759 -10.1683
9.53869 -9.15759 -9.43291
6.98489 -11.3175 -9.43365
5.69676 -13.1401 -10.1322
9.8904 -9.26456 -9.59983
7.74073 -9.50143 -8.61262
10.205 -9.37508 -9.73124
11.1487 -9.69171 -10.3614
11.7049 -9.91993 -10.2997
8.53518 -8.7595 -8.09371
7.56647 -9.46442 -8.00225
8.3205 -8.87898 -8.03926
12.4523 -10.6706 -10.7267
7.76889 -9.52058 -8.03541
7.98193 -9.57194 -7.98406
8.47465 -8.69077 -7.75641
0.342629 15.8032 -10.0867
7.669 -9.49524 -7.76332
11.1588 -9.8231 -9.44815
7.37252 -10.9129 -8.33053
8.30631 -8.65225 -7.56063
4.66246 -15.5375 -10.1989
8.86786 -8.85142 -7.74899
9.05396 -8.84191 -7.81673
8.0685 -9.19673 -7.54298
4.08326 -18.1187 -11.4379
8.34957 -8.7845 -7.40587
4.10726 -17.3461 -10.8752
0.130237 14.8044 -9.00921
6.78677 -11.4781 -8.1137
7.88506 -9.43461 -7.45694
10.3628 -9.52886 -8.53805
6.95457 -11.4642 -8.04507
8.21629 -9.37892 -7.48095
11.5419 -9.92962 -9.09881
5.48938 -14.0635 -8.94934
7.88258 -9.43931 -7.28943
9.54328 -9.2167 -7.85806
7.04181 -11.3325 -7.89202
8.13696 -9.30023 -7.24743
9.96657 -9.38669 -7.97518
15.2259 7.60965 -9.89188
8.84642 -9.01132 -7.29327
7.07106 -11.1758 -7.59623
2.67587 -11.3378 -6.69652
8.01301 -9.24519 -7.00353
7.55973 -8.99813 -6.66889
9.8182 -9.34087 -7.69435
11.0405 -9.71083 -8.29091
0.115388 15.2538 -8.60506
3.2708 -20.4501 -11.6469
6.93136 -11.1849 -7.37268
10.3355 -9.50002 -7.858
12.6812 -10.6389 -9.2782
9.43556 -9.19544 -7.35872
4.69423 -14.5095 -8.49754
8.17035 -9.40521 -6.91555
15.1501 7.74692 -9.34785
9.91281 -9.30729 -7.46423
0.819165 17.4488 -9.54162
2.72697 -19.6475 -10.8171
11.3983 -9.87525 -8.18468
4.31977 -14.6878 -8.28226
15.0594 7.8769 -9.16025
15.5112 10.712 -10.1287
14.3712 7.92981 -8.7764
11.2172 -9.8501 -7.93472
13.6513 -11.115 -9.35997
3.02851 -19.1467 -10.1915
11.6415 -10.0702 -7.82852
2.15954 -20.1615 -10.2353
10.5142 -9.57117 -7.14604
14.695 -11.6207 -9.40204
14.2353 -11.5125 -9.16072
11.291 -9.90207 -7.47837
7.66832 -9.53351 -6.05544
3.61395 -8.58092 -4.58601
-8.58221 -1.88433 -4.31982
2.20183 -19.8376 -9.79168
4.59248 -9.41457 -5.12052
0.389732 13.6436 -6.68369
7.7681 -9.4625 -5.97072
-8.16136 15.5578 -8.50051
-9.06713 -2.39699 -4.51889
15.4882 -11.959 -9.399
19.9635 5.71246 -9.93471
-10.1462 -2.51207 -4.9439
1.90196 -20.32 -9.70551
17.8797 16.8076 -11.6325
1.99164 -16.7675 -7.96465
7.76482 -11.4739 -6.53291
20.6552 5.5756 -10.0796
14.4459 -11.435 -8.5637
2.97223 -17.5182 -8.25875
19.9486 5.90271 -9.61523
18.5164 -13.4922 -10.5778
10.0053 -2.52734 -4.76877
20.9233 5.30359 -9.96302
18.0195 16.9502 -11.4098
1.79503 -19.9005 -9.14653
9.88716 -9.24352 -6.19495
-9.07904 -1.64794 -4.208
9.5876 -3.51809 -4.65155
6.88208 -11.5954 -6.12861
10.0548 -2.65595 -4.71774
19.8396 6.05008 -9.34236
18.4787 18.3347 -11.7129
9.49888 -3.12916 -4.50204
15.9696 -12.2874 -9.03784
7.21773 -11.8525 -6.20248
7.31836 -11.1663 -5.94694
9.69665 -3.45376 -4.58726
-9.60683 15.7322 -8.19917
18.3258 -13.3728 -10.0762
20.1384 5.80169 -9.29329
16.5504 7.50777 -8.05288
18.6031 18.7963 -11.7067
17.0069 -12.6467 -9.33654
-10.7224 16.2951 -8.56516
-6.30831 14.3968 -6.88388
-5.1513 4.83012 -3.07412
20.7713 5.64009 -9.36148
9.69568 -3.45407 -4.44218
19.0432 19.3073 -11.6666
16.3749 -12.5997 -8.88629
15.2508 7.62636 -7.28237
3.90978 -9.46602 -4.34824
-10.6672 16.2134 -8.20817
7.11267 -11.1655 -5.57829
-13.269 3.25172 -5.75417
0.738749 -21.809 -9.19921
16.3283 -12.3609 -8.56066
-5.07032 5.58112 -3.15175
0.986686 -21.6567 -9.09124
1.23008 -20.5139 -8.61041
14.5309 7.79454 -6.90209
19.4306 20.2555 -11.7388
3.84903 -9.10377 -4.11899
15.1623 7.93548 -7.12871
18.746 20.0278 -11.3952
-9.37333 -1.0758 -3.89436
4.06481 -8.61736 -3.90158
14.3964 7.95046 -6.75646
7.0137 -11.2541 -5.41747
-13.3177 2.48765 -5.54081
-7.62698 14.762 -6.74431
20.2527 22.0136 -12.1305
15.4768 7.43741 -6.92336
-5.08618 13.8651 -5.91441
14.4038 -11.3866 -7.18801
4.03179 -9.29994 -3.97558
1.54027 19.5619 -7.62775
-8.35969 15.0865 -6.69479
19.5721 5.96925 -7.93239
-1.72243 12.9547 -5.05829
5.40864 -9.58963 -4.24277
-2.3322 13.1349 -5.11973
20.6832 23.9343 -12.1421
4.74445 -8.66417 -3.74899
20.0243 5.74489 -7.93112
0.847137 -25.133 -9.56398
15.4165 -11.8791 -7.32074
20.6128 5.58477 -7.99681
9.57928 -3.49015 -3.81201
0.519256 -21.51 -8.02554
3.3318 -11.0558 -4.30975
21.3568 24.8551 -12.1824
0.906195 -8.64237 -3.22393
14.4781 -11.4647 -6.80642
21.0453 5.35296 -7.98808
6.54833 -10.4041 -4.4962
18.7103 18.4924 -9.62329
-12.7585 2.23515 -4.70808
22.1206 26.4246 -12.512
2.33025 -13.4623 -4.9191
13.4306 -10.8601 -6.21215
0.787158 15.5464 -5.57377
-8.09392 -2.7621 -3.05917
0.40465 -20.8717 -7.46822
-4.0561 13.2824 -4.93317
0.62838 -21.1202 -7.5133
16.4344 -12.4114 -7.29579
-14.9057 17.2279 -8.02147
6.0633 -11.5877 -4.59516
-10.4886 15.8211 -6.62264
0.100506 -17.7821 -6.25602
14.7278 -11.6707 -6.56746
20.9991 5.53069 -7.58329
0.644382 -22.084 -7.63506
-4.79904 13.9077 -5.03375
3.71048 -8.60758 -3.22399
4.97661 -9.21371 -3.58587
-13.7459 17.0611 -7.4924
2.30738 -11.0117 -3.85365
-8.45828 15.3339 -5.96208
3.12572 -14.1082 -4.92163
-14.1951 17.4178 -7.61041
20.8125 5.65892 -7.25311
23.6218 29.2296 -12.5747
38.7631 -21.8803 -14.8683
-5.07168 13.4336 -4.76186
1.93992 21.2131 -7.07551
1.2721 -10.2373 -3.41085
19.983 -14.5248 -8.20037
34.7732 -21.8587 -13.5006
-5.02544 13.8165 -4.76839
-11.9464 16.3496 -6.56209
19.3651 -13.799 -7.71797
3.61688 -8.80337 -3.04958
6.37323 -10.3582 -3.89464
12.7032 -10.3532 -5.26194
2.33849 -11.0962 -3.60735
-4.13186 -31.1403 -9.9951
-1.05395 -22.3307 -7.12383
15.5043 10.679 -5.94712
-12.529 16.6671 -6.58416
-16.9632 18.2933 -7.83593
3.0945 -9.97127 -3.28983
13.6755 -10.7832 -5.47739
7.16664 -11.4174 -4.16411
1.35098 -21.1294 -6.55325
-2.36517 -25.3168 -7.81384
7.59309 35.1706 -10.9945
0.761947 15.1255 -4.60376
-10.5565 15.9226 -5.75155
-2.47001 -24.3533 -7.38117
-13.5767 16.9714 -6.47873
-4.82134 -31.7052 -9.55807
0.803105 -23.5547 -7.05356
-5.12871 14.087 -4.45242
2.11213 21.1858 -6.27997
-20.0237 18.6683 -8.07111
18.7607 5.97037 -5.79865
-4.10563 13.7611 -4.21606
-7.53361 14.6066 -4.81529
4.35973 -9.36168 -3.03253
4.77368 -11.9505 -3.75911
20.4836 -14.64 -7.41823
-12.3561 2.17672 -3.60518
-29.3014 -41.5101 -14.6282
-14.3719 17.2859 -6.45652
7.18257 -11.437 -3.8845
2.61377 -9.71578 -2.85652
13.3301 -10.7888 -4.87796
-8.33937 -2.42702 -2.46293
22.5351 29.0726 -10.4345
-8.46406 -2.23081 -2.47356
-2.31073 -23.6704 -6.68429
-12.7497 1.95375 -3.59136
51.2283 -16.4774 -14.9694
4.53229 -11.693 -3.47681
-8.8234 15.1679 -4.8114
-12.3578 16.4778 -5.65161
-5.12018 13.6491 -3.97793
-7.50345 -36.4951 -10.2054
9.98858 -9.10363 -3.67613
-20.1699 18.8206 -7.41105
-9.21996 15.2831 -4.77745
-25.0023 19.2052 -8.38246
11.8041 11.8825 -4.42537
4.4757 -11.6748 -3.30848
51.0557 -14.8419 -14.0823
-7.16636 -33.8554 -9.10779
4.20188 -8.8927 -2.58704
11.495 -10.2236 -4.02226
-13.6401 17.0759 -5.67743
6.71523 -10.7053 -3.26825
-26.6007 -36.3457 -11.6493
3.26316 -9.89418 -2.69057
-26.8346 -39.3044 -12.2957
-3.88734 -25.539 -6.69445
3.65142 -10.6854 -2.90834
4.183 -9.64717 -2.69982
16.1963 -12.1782 -5.16777
-6.75504 14.3829 -4.01569
-28.284 -37.7219 -11.9615
4.45883 -11.5157 -3.12177
4.35926 -7.89238 -2.29255
6.74326 -10.997 -3.21409
48.4076 -14.6358 -12.6061
-26.3639 19.8897 -8.16022
-10.8972 16.0063 -4.76831
-24.9057 -36.3356 -10.8367
-8.68768 -34.2205 -8.71924
-22.9188 19.2489 -7.35051
4.4811 -10.6367 -2.83281
-8.14822 -35.2146 -8.8718
-11.3992 16.3243 -4.82244
-7.42547 14.4608 -3.91257
10.5485 -9.51421 -3.39968
43.1916 -14.347 -10.8884
15.5433 7.77395 -4.1412
-5.54311 -31.7939 -7.69835
4.06917 -9.31983 -2.40732
50.8762 -13.6167 -12.4977
-25.8064 -38.5486 -10.9994
-10.4904 -38.65 -9.49811
4.34109 -9.28723 -2.4426
-23.8665 -34.6282 -9.86497
4.03536 -11.5676 -2.88279
5.03942 -8.92383 -2.40873
-12.0636 16.4369 -4.74015
3.35473 -9.90107 -2.40086
-6.72748 -31.7581 -7.52148
11.3195 -9.91928 -3.43823
-5.54613 -28.1598 -6.55703
-25.3643 19.5892 -7.26072
-10.0909 -36.3378 -8.53415
44.4569 -9.72279 -10.3262
-28.3436 20.5781 -7.8489
-33.0405 -21.6523 -8.85243
-4.9415 -23.5562 -5.3733
43.6621 -13.4973 -10.259
5.60968 -9.74157 -2.5075
-12.1475 2.77182 -2.73346
43.5171 -12.753 -10.0174
45.7545 -13.0551 -10.4663
30.6245 43.1376 -11.6041
-5.06514 13.2783 -3.10148
13.8473 -11.1427 -3.91025
40.6233 -13.0549 -9.37856
-21.895 19.0819 -6.29593
-23.8011 -58.6899 -13.7545
4.45143 -10.0156 -2.37399
13.1567 -10.8478 -3.73478
4.67849 -9.46016 -2.2771
-13.7271 17.1008 -4.67878
-28.6979 20.8451 -7.56994
-29.4739 20.9163 -7.72188
-22.3714 -59.3647 -13.6113
-10.0731 15.737 -3.95725
-7.43367 -31.5791 -6.90733
3.3064 -10.0307 -2.24902
4.11169 -10.1861 -2.33898
49.4011 -11.454 -10.8239
15.3699 7.69906 -3.64805
-14.2549 17.5458 -4.78205
5.3097 -9.3089 -2.24942
29.5539 42.7707 -10.8802
-36.7907 24.1686 -9.22407
-25.778 -25.2273 -7.49104
15.4228 8.07196 -3.61779
-28.2377 -21.8082 -7.40261
-25.5231 -65.4516 -14.5577
43.3512 -11.6666 -9.28312
-10.7837 15.8864 -3.89747
-14.6958 17.3738 -4.62867
-32.4186 21.7618 -7.93039
47.795 -10.4255 -9.97489
-11.4228 -36.764 -7.83321
4.27981 -10.0697 -2.22332
4.41888 -10.0613 -2.23701
11.9512 -9.93475 -3.16051
-11.2964 16.2089 -3.93973
-16.5656 -47.5537 -10.0739
-7.57224 -29.3143 -6.06477
-6.96299 -28.4605 -5.88026
-11.3629 -35.3096 -7.35121
4.2145 -10.27 -2.19515
-31.8418 -21.7732 -7.60509
-24.9353 19.5697 -6.23527
-30.947 -22.1369 -7.41791
-6.46653 14.2824 -3.03813
-22.0796 -51.887 -10.9617
-31.3879 -20.8959 -7.2671
3.56265 -9.70381 -1.99328
49.4878 -11.4662 -9.75352
-11.9913 16.3705 -3.87537
4.12857 -9.66907 -2.00381
-34.0049 -20.6557 -7.53204
-19.3627 -31.4554 -7.02834
-13.4179 -38.7225 -7.76194
40.4743 -13.3516 -8.05527
-33.0617 22.2053 -7.45007
-31.4622 -21.7285 -7.18366
-30.48 -22.3004 -7.09024
-18.1106 -44.8732 -9.11273
-14.5723 -39.5891 -7.83232
3.93863 -9.48826 -1.89539
45.7469 -12.3299 -8.797
5.93751 -10.0151 -2.13175
-20.736 -47.0227 -9.41609
-17.5189 -43.4904 -8.48701
-13.6688 17.0377 -3.86971
-29.0098 -23.3971 -6.62557
-18.9125 -25.2022 -5.63667
-21.5622 -56.3475 -10.7157
-36.061 22.7549 -7.52024
-24.9286 19.5736 -5.5138
-31.4438 21.5168 -6.6125
4.06164 -10.4369 -1.9393
4.90852 -8.85851 -1.75833
14.3908 7.7286 -2.82066
14.482 8.31075 -2.8632
-28.565 20.7718 -6.05208
45.4075 -12.847 -8.03278
45.1234 -11.6868 -7.93399
47.624 -11.0536 -8.37269
-29.1675 -23.1646 -6.31921
-17.1317 -28.0357 -5.59464
-19.7 18.7614 -4.56551
-17.3934 -43.2373 -7.88087
15.2826 7.66003 -2.87029
-29.3621 20.7863 -6.00668
6.84036 -11.3895 -2.23182
16.8054 -12.5144 -3.45243
-19.8732 -47.3867 -8.49703
41.6621 -13.1372 -7.11864
46.9271 -12.6421 -7.89838
-9.71841 15.4269 -2.93888
-17.5943 -43.6527 -7.51214
-32.5001 -22.4349 -6.22328
-21.2983 18.7122 -4.43703
-23.8716 -14.9655 -4.4497
-22.5578 19.2566 -4.59446
-36.7412 22.2455 -6.65325
-10.5346 15.7657 -2.92411
3.61673 -9.92293 -1.63092
4.03964 -10.6792 -1.76519
-7.10546 14.4093 -2.45
-28.7519 20.9264 -5.43368
-29.6395 -22.8927 -5.69527
-26.0605 -24.3768 -5.40664
-18.7027 -43.4743 -7.21338
45.3546 -11.7911 -7.12236
48.3531 -10.5347 -7.53894
-6.10429 13.5928 -2.22557
10.009 -5.24643 -1.6774
-31.2301 -22.5248 -5.73446
-21.6027 -54.6312 -8.71891
10.4803 -9.42295 -2.09936
48.5438 -11.2303 -7.39896
-34.0724 -22.6816 -6.02408
-29.3324 -24.1946 -5.56252
-10.9191 -36.1875 -5.56705
17.6134 -12.7432 -3.18297
-23.6566 19.4772 -4.45114
-37.144 22.9084 -6.36473
-20.9341 -46.9088 -7.40657
-7.11459 14.2474 -2.27365
-11.9293 16.2643 -2.87319
6.29489 -12.025 -1.93712
-12.5648 16.7935 -2.94363
-31.9673 21.5948 -5.42167
7.01722 -11.4617 -1.87642
40.1857 -13.2623 -5.95085
-29.0606 -23.2862 -5.19746
-30.4189 21.8607 -5.18727
-27.3311 -23.1321 -4.98476
-17.6402 -42.5192 -6.36217
48.7123 -10.8978 -6.88271
-14.9284 2.79431 -2.09046
-6.3859 14.1197 -2.11403
-18.7282 -48.8821 -7.11619
7.97048 -9.6454 -1.67813
9.44037 -9.29357 -1.82639
-13.1314 16.7664 -2.86865
13.6711 -10.904 -2.36506
-20.7555 18.8797 -3.77104
45.2786 -11.7072 -6.20834
48.3847 -10.5985 -6.5558
-21.1384 18.6019 -3.68035
-30.4848 -22.8112 -4.97318
-13.9601 17.0945 -2.85164
-31.4178 20.9698 -4.90233
-35.943 -15.1765 -5.03715
7.25981 -10.7965 -1.66781
9.05117 -9.30487 -1.69874
11.0656 9.06049 -1.83975
-31.5592 -21.7484 -4.90467
-29.0547 21.2107 -4.54887
-33.2171 -20.7276 -4.90733
-27.7483 -56.7132 -7.88827
45.1112 -11.6667 -5.83069
7.03431 -10.731 -1.60183
-7.13481 14.2693 -1.97243
-23.2967 19.5619 -3.72348
-30.7876 21.6982 -4.64462
6.58135 -12.6207 -1.73183
48.323 -10.3099 -6.05194
15.4472 8.09323 -2.09968
-15.6555 -37.9194 -4.94958
7.33522 -10.9015 -1.58066
-19.7175 8.73872 -2.55241
-12.3109 -37.2445 -4.61584
-29.719 -22.9127 -4.38773
-29.2221 -23.3702 -4.37849
45.2303 -12.1161 -5.50298
11.5718 -9.96546 -1.76853
-27.6524 20.9675 -3.99127
6.89127 -11.2279 -1.50669
7.69767 -9.47696 -1.39576
-20.6988 -49.7509 -6.07033
11.9408 -10.0241 -1.77006
9.61009 -4.68832 -1.21121
15.4207 7.9246 -1.95689
-9.68233 15.4137 -2.05222
-29.6925 21.6966 -4.11854
-14.5453 2.07714 -1.60918
41.6927 -13.7251 -4.92163
9.61432 -9.27149 -1.47705
-10.3657 15.5462 -2.02943
7.12655 -13.4157 -1.64343
48.5 -10.5411 -5.38057
11.0712 9.09837 -1.5476
17.4787 -12.9837 -2.33578
45.4514 -11.7885 -5.03112
9.88426 -9.22634 -1.43196
8.59137 -8.67866 -1.27882
-28.8451 -23.0827 -3.84655
-25.2927 -50.7333 -5.91539
15.4156 7.73132 -1.76475
-29.669 -22.8766 -3.84352
-12.0374 16.4094 -2.06499
-11.9809 16.0516 -1.98962
10.4948 -9.34386 -1.37607
-17.5655 -44.6119 -4.70248
6.62768 -12.6922 -1.38403
9.74586 -9.20123 -1.26731
-49.3111 27.467 -5.45054
17.331 -12.6798 -2.06329
45.3447 -12.185 -4.50052
-25.6143 -51.7774 -5.49243
-17.3947 -45.651 -4.64148
-21.7492 19.024 -2.70056
49.3388 -10.9763 -4.72114
9.98545 -9.23589 -1.2587
42.6522 -14.0701 -4.18467
-14.0517 17.2253 -2.01218
-28.2163 -12.8646 -2.82631
-26.9628 -52.563 -5.44591
16.4912 -12.3436 -1.87308
8.865 -8.95848 -1.14086
-33.9233 -19.2398 -3.41566
13.3351 -11.0076 -1.50512
48.8808 -11.33 -4.29848
9.66261 -9.27843 -1.1257
11.2828 -9.93596 -1.26325
-31.4597 21.6053 -3.17546
17.5451 -12.7946 -1.79784
-14.6188 -38.0418 -3.26506
15.2411 -11.9176 -1.54218
-34.5138 -67.4466 -6.01724
-10.4724 -29.3195 -2.45825
-27.5862 20.9757 -2.67979
-30.5132 21.5682 -2.8844
-19.3326 -44.1621 -3.722
7.82345 -9.57341 -0.98633
-46.0451 25.0603 -3.9694
-19.9646 18.7901 -1.99417
-30.6988 21.7147 -2.72507
17.0612 -12.7483 -1.5574
45.3884 -12.1464 -3.42319
-31.8818 -60.3246 -4.92304
14.4863 -11.4618 -1.32152
-26.4198 -16.3929 -2.14135
-13.5316 -35.8967 -2.64798
11.092 -9.90604 -1.0186
-21.764 19.0568 -1.95375
13.3144 -10.9866 -1.15515
18.7563 -13.6039 -1.54408
-19.7651 -45.5396 -3.28072
16.7024 -12.6337 -1.38254
-12.7419 -35.3291 -2.4295
47.4276 -12.3352 -3.06339
-26.3673 -53.4253 -3.63421
38.1202 -9.24827 -2.40781
46.4001 -10.6205 -2.9227
6.41662 -13.8704 -0.912101
33.2906 -22.0286 -2.38731
-9.17187 15.3114 -1.04881
-13.5926 -35.4588 -2.16182
17.313 -12.939 -1.21312
-9.3746 -12.1527 -0.841
15.415 7.90861 -0.939167
14.4074 -11.4051 -0.983694
-11.966 16.2163 -1.05274
-14.404 -35.7021 -2.04378
15.3075 8.04931 -0.850043
-14.1943 -36.2835 -1.91067
-13.2404 16.7826 -1.02254
9.83227 -9.27455 -0.619891
-20.1893 -46.3124 -2.28415
12.8652 -10.5765 -0.771979
-13.7035 -38.2004 -1.80056
-14.9778 -36.9028 -1.70362
7.21979 -13.3321 -0.671864
-11.9388 -36.3954 -1.63043
-47.1946 25.6667 -2.177
19.1817 -13.781 -0.958233
17.5227 -13.0249 -0.850064
-32.9465 -63.9461 -2.70983
-15.517 -40.6912 -1.60193
-31.0119 21.3085 -1.37701
45.9284 -11.8343 -1.70837
-28.2106 -56.1158 -2.09766
-21.738 -47.6394 -1.76019
21.6447 25.034 -1.10374
-20.0069 18.7489 -0.894221
8.59856 -15.1765 -0.585129
9.68463 -9.24563 -0.434093
11.6583 -10.2636 -0.504896
19.451 -13.7536 -0.782722
37.1841 -14.0248 -1.31899
23.832 28.8492 -1.20536
-26.0877 -13.0853 -0.913989
-21.3508 19.0135 -0.872211
-29.3032 20.7545 -1.12159
-20.8537 -47.9437 -1.61623
-12.0632 -34.1289 -1.11317
-18.0047 -45.9305 -1.49089
-14.2326 -38.5738 -1.17563
-31.8889 -19.3349 -0.991799
11.8052 -10.015 -0.414806
17.018 -12.6579 -0.559054
-37.4547 23.1713 -1.16255
-27.9733 21.2856 -0.87073
-28.8672 20.5128 -0.906881
-28.4826 20.8748 -0.835955
9.83565 -9.25926 -0.313081
-38.4274 13.2818 -0.899298
-18.9938 -30.5412 -0.842396
-27.1989 -45.5463 -1.19125
22.3633 -14.9569 -0.59127
32.6993 -19.8283 -0.86274
14.5708 4.02683 -0.309982
-45.4182 16.3746 -0.943805
32.2473 56.3555 -1.20279
24.6568 -11.4793 -0.479301
51.2063 -11.7915 -0.978241
-28.7579 -20.6666 -0.644136
-27.3786 -26.8911 -0.606318
-16.332 -40.0762 -0.717462
13.1547 -10.8177 -0.280358
19.3897 -14.0112 -0.365593
-27.8486 -12.3779 -0.399144
-30.6119 -22.9091 -0.530044
-27.362 -55.1595 -0.82626
-23.1987 -49.3749 -0.743153
-31.6862 -21.6399 -0.499103
-27.9896 21.2947 -0.415462
17.7406 -13.2485 -0.262984
31.3637 -19.4473 -0.434105
-28.4532 20.8891 -0.394422
-35.4162 -19.7892 -0.454928
-16.6248 -38.1287 -0.441693
-10.5684 -31.8125 -0.334904
-28.3347 -49.9263 -0.524156
-13.3887 16.9838 -0.167306
-25.4858 -12.8492 -0.229474
-14.0383 17.1133 -0.152716
-21.0609 18.8097 -0.146836
-19.6232 18.4064 -0.123904
-10.1939 -13.1052 -0.0575424
15.1714 7.97 -0.0226343
11.4545 -10.0725 -0.00832807
-32.4182 -17.7563 0.0580877
-10.0393 -29.8377 0.105677
17.6823 -12.847 0.0945901
-16.4076 -37.6692 0.18676
19.6543 -13.8481 0.12745
7.52521 -12.9361 0.108897
27.3147 -11.2067 0.181055
-50.2519 17.9439 0.50758
16.9227 -12.5417 0.20078
39.9352 -8.15352 0.383566
-27.788 -7.83546 0.338356
-33.8818 -20.4503 0.438612
-10.1006 -28.9402 0.332186
-48.7198 26.7017 0.67735
-11.2581 -31.198 0.398628
-9.16507 -28.1728 0.358872
6.70062 -13.6967 0.194149
7.50259 -11.5585 0.180775
-26.136 20.5164 0.50673
11.6717 -10.1935 0.232542
-22.4812 19.2259 0.486248
11.2381 -10.0345 0.236026
13.4273 -11.054 0.273598
38.7485 -8.29292 0.658226
-32.2605 -21.6139 0.708689
-28.9071 20.6693 0.695687
6.50435 -13.5902 0.291677
7.30413 -11.4949 0.261867
8.26526 -9.6989 0.248358
34.0181 69.9528 1.68447
7.96127 -9.72769 0.283675
10.4217 -9.43948 0.338705
-27.5323 -8.82845 0.697237
-21.7549 18.9892 0.779044
-25.6097 20.1937 0.873032
-27.6602 -8.30532 0.761764
9.44296 -9.14071 0.35447
9.89294 -9.19489 0.3676
-23.784 20.0459 0.842833
26.4677 -5.3546 0.750832
13.4367 -11.023 0.517165
16.0481 26.1442 0.943483
-31.9646 22.6653 1.17602
6.54658 -13.5056 0.471323
7.77426 -12.1191 0.451127
-27.2367 -7.68152 0.929183
-11.9748 -18.3349 0.72353
-26.9325 -8.41763 0.97636
16.718 11.4427 0.73031
-28.1908 -17.4688 1.16117
17.2843 30.0256 1.23335
-28.8202 -15.7204 1.2183
24.4593 -4.41685 0.896939
-26.3016 -18.7063 1.19809
-7.15672 -7.8033 0.399938
9.29767 -9.0667 0.482097
12.9592 14.1762 0.738657
31.7999 65.604 2.75574
30.5326 65.0083 2.6993
-11.2777 -8.92676 0.5677
8.95508 -8.89941 0.498766
-23.8977 19.6865 1.25434
22.6116 -3.06454 0.923367
-27.2889 -16.5754 1.30988
9.67449 -9.1734 0.54596
13.0195 14.9947 0.852488
6.91675 -13.099 0.627931
15.7777 20.5008 1.13508
22.7371 31.4065 1.69512
-9.16458 -13.3257 0.712211
-9.5777 -14.9794 0.790911
7.88215 -11.3603 0.608359
8.85484 -8.94678 0.568128
25.1535 -3.85343 1.14783
-28.5184 -8.31066 1.35668
7.01777 -11.5372 0.620349
-8.10948 -7.98069 0.535906
24.9355 50.3121 2.68299
-27.0635 -16.7262 1.50585
-9.43381 -13.233 0.774864
9.92892 -9.21238 0.637208
18.6604 51.8592 2.66502
-28.7743 -12.7451 1.50351
-6.63088 -8.08408 0.514958
16.6026 38.6107 2.1422
-28.3494 -11.1017 1.52909
-7.46454 -6.86393 0.512852
-6.58094 -7.46028 0.503617
17.824 32.2884 1.91265
10.9449 12.7981 0.908544
15.0989 20.5472 1.36712
9.60224 -9.17126 0.710658
15.7116 20.443 1.42171
16.476 25.4473 1.6672
-25.7399 18.1239 1.72283
-6.83802 -8.03618 0.585649
-24.6922 18.9467 1.72755
6.44333 -13.6043 0.840654
-6.9511 -8.95825 0.647303
10.3369 12.9115 0.971301
16.1881 27.2752 1.85103
6.82087 -13.6989 0.879173
14.8857 24.2859 1.6807
-8.0971 -7.95911 0.684598
11.9349 12.0174 1.00854
15.5668 20.7042 1.55452
-7.21804 -9.77124 0.756405
7.2881 -11.6141 0.83443
11.6052 -10.0102 0.928264
6.10964 -11.1999 0.790364
-7.08141 -6.54547 0.602834
15.4133 21.8653 1.69094
16.6173 7.37622 1.17907
-6.93301 -6.05742 0.604287
6.83662 -14.2223 1.04984
10.1716 22.9762 1.69403
10.8082 13.0275 1.15591
14.3139 19.2474 1.67153
13.2384 21.9495 1.77228
11.7501 12.4123 1.19837
6.81506 -10.1636 0.865402
11.8974 12.1723 1.23051
10.0133 -7.06833 0.871287
12.7991 12.3906 1.30705
10.1776 -8.59492 0.974977
-6.01295 6.51685 0.660101
10.7152 9.43508 1.07132
12.5904 18.825 1.70278
12.1499 19.3574 1.72091
-6.82034 -7.55994 0.790061
11.5292 19.8996 1.76355
9.7696 -9.19812 1.03601
10.9193 14.6578 1.43185
-6.34454 -4.25128 0.602215
9.78549 19.6054 1.75028
10.2967 -7.04597 0.998131
12.8805 11.9507 1.41916
10.3891 20.1719 1.8263
-7.09853 -9.41573 0.961437
6.91497 -9.65537 0.965209
12.665 12.1158 1.43495
12.5723 12.3645 1.46314
11.8227 12.3574 1.41473
-4.89051 -11.1628 1.02684
10.7101 13.3998 1.45861
-6.8598 -5.99438 0.784896
-6.7122 -6.59308 0.795072
-5.05236 -11.082 1.03735
-7.16926 -7.60759 0.900772
9.4842 -7.41199 1.03905
-6.98801 -7.90779 0.924175
-6.89278 -7.55446 0.899943
9.74342 13.0057 1.43988
-6.81764 -8.21031 0.95416
11.1055 9.31822 1.3202
10.887 14.022 1.60302
10.8084 9.49262 1.31584
8.08447 14.6754 1.54064
-6.37659 -7.98371 0.936895
-6.7577 -8.8288 1.0271
11.5515 11.1411 1.47982
11.5567 9.42908 1.39474
11.2113 11.1438 1.48086
6.85947 15.852 1.623
-11.2175 2.8738 1.08476
-6.29191 -4.12539 0.704744
-6.70721 -6.20296 0.847486
9.81667 13.8445 1.63653
-5.89145 6.40151 0.854569
8.11012 -6.73344 1.02639
8.2727 13.7942 1.59732
-6.9442 -7.48353 1.02911
9.6296 12.0408 1.55443
7.29773 12.9578 1.50897
7.37686 13.5906 1.57622
9.78597 9.33362 1.39876
6.18259 14.7393 1.65689
9.48674 12.9028 1.66916
-6.0395 -4.40734 0.783628
6.27384 14.4167 1.65635
6.53783 14.3213 1.65521
-6.88661 -4.37449 0.87259
8.99652 9.25377 1.37523
9.40846 10.4814 1.53117
7.58233 11.3853 1.48625
6.06162 11.9398 1.45579
-6.19309 -7.2857 1.0458
10.4792 6.58593 1.3686
9.2045 8.33091 1.36781
7.58641 12.1268 1.57923
7.10926 12.0833 1.54982
5.59739 12.4302 1.51695
5.10491 12.6903 1.53078
4.99003 14.5131 1.68916
10.079 7.20656 1.38272
8.99577 9.56248 1.46644
5.61163 12.0077 1.49276
-6.7347 -6.61865 1.05145
7.10179 11.0851 1.48277
4.57489 13.958 1.66103
9.90039 -3.2442 1.16079
-6.02632 -5.34497 0.932775
7.41194 -6.22281 1.09761
10.6167 5.82521 1.38809
-7.30232 -0.975235 0.843556
-6.17792 -5.28815 0.936213
5.31978 -5.63244 0.891655
5.2945 12.1447 1.5394
-6.79948 -4.50386 0.945103
4.54835 -7.41594 1.00476
10.6001 5.24382 1.38697
9.08808 8.06617 1.42583
-5.93686 -4.32079 0.855698
-6.40319 -5.20633 0.975088
4.19927 -8.07142 1.0804
5.03966 -5.93605 0.933197
10.3457 4.83758 1.36831
8.72214 8.46956 1.47202
5.50195 11.987 1.61042
9.21825 6.38602 1.37235
8.20466 8.5388 1.48294
-6.40226 -5.66934 1.06484
3.798 -7.75871 1.0803
8.848 6.82223 1.40434
-6.38468 -5.27574 1.04843
9.26047 6.12536 1.41687
8.35321 7.28878 1.41389
8.29025 7.67052 1.4416
5.85526 -5.41779 1.02321
-6.88818 -4.38975 1.04847
8.28919 8.18431 1.51047
-7.27934 -1.03131 0.949288
-6.85097 -2.79693 0.966081
9.11355 4.16411 1.31149
8.56742 6.75907 1.43201
5.07435 -6.11931 1.04385
4.99452 -6.29052 1.06249
6.95473 -4.3353 1.09001
-7.06015 -1.70061 0.973038
-6.93795 -2.19729 0.972556
-5.95983 -4.37425 0.988347
8.2949 6.78931 1.45267
8.74367 4.5086 1.34062
8.77637 5.25386 1.39651
8.19542 7.28671 1.49221
-6.73331 -3.69231 1.04259
8.99776 4.22356 1.3599
8.41253 5.93761 1.40951
-6.32628 -4.28056 1.04521
-5.89216 -4.4755 1.01055
5.51805 9.29902 1.4937
3.79503 10.5003 1.55156
-7.28944 -1.08134 1.0199
-6.82552 -3.8823 1.08966
5.01604 -5.61851 1.03988
5.29719 -5.4692 1.05575
7.5541 -3.57986 1.1682
3.53685 10.6088 1.56818
8.5338 4.67059 1.37556
7.4649 -3.72289 1.18251
7.6783 -3.37495 1.19493
7.85689 -3.34608 1.2109
9.06257 2.85359 1.36687
4.90046 -5.71286 1.08081
7.43592 -2.88489 1.1604
-6.88282 -3.26425 1.11015
8.01293 -2.81283 1.23736
8.77261 -1.8427 1.31501
5.1517 8.82074 1.50814
3.07794 9.84067 1.53535
7.81738 -1.90867 1.18519
7.35477 5.85734 1.40047
3.59505 9.94681 1.56458
3.3251 10.2242 1.5948
-7.29171 -1.03224 1.09131
-7.00147 -2.00217 1.08482
7.07681 6.40631 1.44089
-6.2056 -2.2508 0.990237
-7.16438 -1.36089 1.10027
8.06513 4.89409 1.43672
5.83823 7.52308 1.44485
5.42033 7.81564 1.44768
5.18897 8.22344 1.47033
6.83133 -3.25983 1.1439
7.3285 -3.1601 1.22136
7.72421 -2.78723 1.25054
-7.23902 -0.725164 1.11034
-7.02383 -1.93423 1.12398
6.86103 -3.12554 1.16515
3.8043 -5.86989 1.08043
-6.98024 -2.05454 1.14032
-7.26805 -1.08127 1.15318
7.474 4.84785 1.40657
-7.12358 -1.42845 1.15538
-7.19505 -1.28739 1.1722
-7.02387 -1.99806 1.18709
7.17642 4.8351 1.41215
-7.02764 -1.92528 1.19652
7.1165 4.93931 1.43853
6.71425 4.92485 1.38924
5.30467 6.36133 1.37984
4.78133 7.33845 1.46311
3.93247 8.16274 1.50684
-7.17324 -1.3591 1.2182
2.83638 -5.86661 1.09703
7.24538 4.49278 1.4358
6.61675 5.32137 1.4322
3.92379 -5.43419 1.12892
3.98224 -5.07864 1.09145
-7.19591 -1.23925 1.23808
-6.53275 -2.59913 1.19256
7.50688 2.88254 1.36335
7.12397 3.94325 1.38715
-6.35179 -2.72616 1.17571
6.86599 4.15399 1.37723
5.73778 -3.55376 1.16084
-7.31711 -1.02849 1.27718
-6.29731 -2.25904 1.1498
5.58922 -3.68331 1.15297
5.37037 -3.81034 1.15335
3.68774 7.34393 1.44632
-6.73255 -1.71806 1.21976
4.52628 -4.51329 1.12394
-7.01977 -0.905289 1.26018
4.77481 -4.50428 1.16067
4.41822 6.62765 1.42171
6.66616 3.51617 1.36065
6.7089 3.72885 1.37848
-6.38188 -1.48668 1.17801
3.65458 -5.39315 1.18389
5.16289 5.70721 1.4092
-6.09971 -2.16359 1.18573
3.45346 -5.21876 1.16263
3.46844 6.93346 1.45126
-1.67233 -5.69676 1.12869
6.51442 2.76151 1.34608
-2.11436 -5.65133 1.16073
6.37681 2.82608 1.34243
-2.75504 -5.31422 1.17353
-3.45736 5.2483 1.35849
4.52253 3.93873 1.36881
4.17785 -2.89706 1.18386
4.65833 -2.20016 1.24417
4.24105 3.32446 1.33492
3.7292 -2.94722 1.23029
4.05077 2.59552 1.34413
-1.43269 -4.08838 1.21325
-2.30743 -3.55859 1.20523
3.88888 2.38221 1.32135
-2.83124 3.48744 1.34396
-2.46936 -2.90306 1.18353
-2.36777 -2.92473 1.18869
1.84572 -2.81529 1.1831
1.8687 -2.7934 1.21314
1.99446 -2.52902 1.19926
-2.02914 2.78465 1.30751
