ply
format ascii 1.0 
element vertex 1871
comment /media/mkaihara/Seagate Backup Plus Drive/model_iterations/model_63.ply
property float32 x 
property float32 y 
property float32 z 
end_header 
4.17706 -10.7468 -2.2998
-12.111 17.367 -4.20648
-26.3356 20.7221 -6.64292
-35.6035 -21.0768 -8.22542
-32.3379 -25.2551 -8.13175
-9.28288 -35.9851 -7.3995
14.5094 -11.4393 -3.66094
4.02662 -9.81684 -2.09176
3.22268 -9.851 -2.03203
-35.8596 23.6945 -8.35294
-23.4405 -56.441 -11.812
-16.1213 -46.5493 -9.39439
3.4859 -8.89997 -1.83061
-20.3406 -32.9431 -7.35054
-32.1336 -25.0781 -7.68579
-29.1569 -25.8905 -7.34
-22.1878 -54.8281 -11.1893
3.88241 -9.08332 -1.88143
-16.8385 -45.9261 -9.15407
3.43946 -9.21463 -1.81607
-32.6058 -24.3366 -7.40673
-31.413 -26.9341 -7.54138
-33.1986 23.3728 -7.31911
-20.4241 -50.5317 -9.7244
-31.3876 -25.2844 -7.08894
-24.6212 -63.7493 -12.038
-34.4722 22.9405 -7.25065
-16.7292 -47.176 -8.77623
3.40115 -9.56059 -1.77374
14.0683 7.80779 -2.79001
-35.2475 24.1532 -7.41129
-29.0006 -25.4179 -6.70692
3.47147 -9.50771 -1.75538
4.79549 -8.65234 -1.71439
-27.0198 21.2134 -5.93669
-30.921 22.4894 -6.5949
-31.1803 -28.7194 -7.31451
3.88526 -9.99838 -1.85095
13.9197 7.50388 -2.71696
-23.8556 -54.8131 -10.166
-20.7622 19.7545 -4.83615
-31.6411 -25.1492 -6.85377
-19.9324 -49.4184 -9.03516
5.60083 -11.7357 -2.19583
42.115 -11.8946 -7.41933
-18.3755 -49.0418 -8.81692
41.2457 -10.7315 -7.16937
4.99507 -10.719 -1.96878
6.68173 -11.1024 -2.18929
-10.4083 16.5482 -3.1722
-30.451 -23.572 -6.27537
42.4973 -11.4127 -7.1611
-22.2453 20.2077 -4.87501
-20.626 -51.0286 -8.74075
-23.0403 20.2581 -4.83941
-24.2641 20.6846 -4.96097
-33.1218 23.3315 -6.26861
3.81015 -10.0928 -1.65793
-32.2331 -24.9229 -6.22792
-13.8952 -41.9197 -6.78368
-31.2746 22.7601 -5.88031
-22.9887 -55.3275 -9.12385
-7.68735 15.5667 -2.6182
-33.484 -23.5311 -6.16598
-32.7523 -24.0789 -6.15958
-27.896 -26.1739 -5.7567
-33.3443 -23.999 -6.16192
-31.5009 -25.2159 -6.03184
-34.9446 -23.3404 -6.23801
-24.9723 20.9631 -4.80682
-33.2675 -24.8951 -6.12338
-32.2325 -24.4088 -5.97069
-25.6434 21.1311 -4.86135
-12.6094 -41.7855 -6.39775
-12.6557 17.312 -3.08966
-7.70111 15.4076 -2.45672
3.50401 -9.5479 -1.44723
38.373 -12.6202 -5.74566
-33.6039 -24.7537 -5.90419
-30.7356 -24.4275 -5.52539
-30.2142 -25.4835 -5.56595
-20.7095 -49.8998 -7.52868
-6.86592 15.2138 -2.2664
-14.0486 17.9491 -3.0923
-11.8063 -41.3276 -5.85262
-7.44616 15.0916 -2.26018
-24.5405 -63.8835 -9.25894
-22.4913 20.454 -4.04906
-24.89 -56.4156 -8.19333
-31.4642 -24.2888 -5.2468
45.279 -10.4337 -6.11072
44.6494 -9.81534 -6.02246
-13.5334 -42.0579 -5.80663
6.62415 -10.9171 -1.67958
-15.0669 18.4548 -3.10089
-22.9 20.1694 -3.95612
-32.7723 -24.4659 -5.26521
10.7076 8.78219 -1.78749
-33.8184 23.253 -5.26969
-29.8433 22.7093 -4.72757
-31.0796 -24.3329 -4.97972
-12.8408 -36.5335 -4.89662
9.65422 -9.03553 -1.65011
12.7655 -10.4327 -2.07567
-33.9453 23.813 -5.18517
-36.2392 -22.5771 -5.31773
-30.7437 -25.4111 -4.95621
6.76562 -10.2895 -1.53699
-33.0775 -23.3803 -5.01955
-13.6978 -42.7348 -5.51997
13.1568 -10.968 -2.10279
41.7231 -10.8439 -5.3231
-16.2431 18.6994 -3.02784
-16.0172 -38.8235 -5.1341
-8.78182 15.6999 -2.19133
43.5942 -10.0422 -5.41704
14.9775 7.81863 -2.0291
9.39936 -8.9187 -1.5469
-33.8846 -23.6417 -4.89945
-17.9292 19.4864 -3.09874
-20.8264 9.21623 -2.69879
-31.8748 -24.677 -4.75437
-25.8858 -58.6479 -7.53229
11.2659 -9.69134 -1.74004
42.0725 -11.263 -5.12851
14.6712 -11.3915 -2.13512
14.9045 7.66116 -1.90512
-30.0639 22.8634 -4.30902
7.25204 -11.0125 -1.49648
-10.2948 16.4368 -2.17243
9.43057 -9.29726 -1.47427
12.7446 -10.4675 -1.83912
13.9378 -11.0009 -1.97527
9.43439 -9.09823 -1.45478
7.04348 -10.4306 -1.37883
44.5682 -9.73381 -4.96561
-10.9468 16.4439 -2.13053
-33.3375 23.5078 -4.4304
11.6871 -9.81906 -1.64837
6.16391 -12.6755 -1.48282
7.53994 -11.5415 -1.43479
9.82723 -8.88688 -1.39407
-15.4592 -44.6723 -4.95641
16.5138 -12.2292 -2.15535
-30.7917 -61.862 -7.16828
14.8473 7.47629 -1.69883
-31.1702 -24.8414 -4.09442
13.7923 -10.9127 -1.8026
-31.9355 -24.703 -4.08535
14.8344 7.75068 -1.68145
-12.7187 17.009 -2.08737
-20.5198 -52.0263 -5.41983
-32.9967 -66.6568 -7.12122
-23.5073 20.5634 -2.95104
-31.0299 -25.42 -3.81328
-31.0086 -25.7573 -3.84224
-21.8422 -57.1545 -5.7698
-14.1355 18.088 -2.14913
-31.2921 -24.4814 -3.70817
-15.786 -42.9975 -4.26732
-13.9954 -43.5 -4.26284
9.7972 -9.08084 -1.24142
-33.5384 -65.3308 -6.76631
8.5447 -8.64176 -1.10356
16.4469 -12.2545 -1.87667
-15.0389 18.4483 -2.13558
-35.929 -22.3471 -3.82924
-33.2855 23.5009 -3.58908
-31.0889 -25.0815 -3.53027
14.0013 -11.136 -1.58829
-32.2122 -19.6296 -3.2188
11.0219 -9.6726 -1.24879
-26.7775 21.7206 -2.89631
-11.4045 -35.4952 -3.15104
9.37644 -8.99048 -1.09079
-34.0092 23.3825 -3.42948
8.66728 -8.66887 -1.007
16.709 -12.186 -1.68958
-16.7999 -43.6544 -3.75969
-21.562 -49.3239 -4.21425
-15.357 -37.9121 -3.24264
-13.3719 -37.5185 -3.16489
9.18009 -8.92125 -1.00585
11.256 -9.75757 -1.168
14.816 -11.5887 -1.48938
-30.0743 22.934 -2.94342
-29.3041 -13.6786 -2.51255
11.8253 -10.0182 -1.20144
-23.3258 -51.9492 -4.36217
12.7389 -10.5737 -1.25441
-41.4296 -78.5996 -6.43108
9.92438 -9.10845 -0.976379
10.8781 -9.70999 -1.01643
-33.305 -20.6756 -2.71212
11.919 -10.0173 -1.07817
14.6635 -11.5454 -1.2973
-15.6067 -39.4355 -2.88675
-15.2161 -40.2537 -2.95045
18.5028 -13.3718 -1.51575
-23.4045 20.4919 -2.06477
-25.0388 -57.7599 -4.16361
12.8345 -10.5578 -1.11115
-14.7326 -40.8729 -2.82398
15.2238 -11.4946 -1.23973
-32.7037 -66.2144 -4.63854
-15.0943 -46.786 -3.05533
-33.0007 23.3127 -2.47297
-33.1527 -65.5609 -4.47236
-17.0914 -41.6331 -2.74459
30.7634 -20.396 -2.24721
41.835 -10.9096 -2.62489
36.3466 -8.76312 -2.26539
-15.2339 -40.9001 -2.63743
-27.1047 21.9978 -1.97923
-29.0331 -14.2938 -1.8702
-15.9414 -41.5299 -2.48168
16.8364 -12.5628 -1.17696
-27.2007 -16.3684 -1.70913
42.4197 -9.44898 -2.23515
-9.40544 -12.5672 -0.796935
-15.528 -41.3249 -2.19935
5.69271 -12.4243 -0.679095
-14.2567 18.0731 -1.12264
-15.2366 -47.8907 -2.4687
14.8508 7.79114 -0.80783
-16.4479 -42.1598 -2.15126
-14.6915 -47.7814 -2.35923
18.6494 -13.2319 -1.09605
-17.3652 -50.3602 -2.48542
36.6346 -8.99768 -1.76771
-28.9336 -14.7952 -1.45422
-24.611 -56.3934 -2.72922
-16.6571 -40.9841 -1.96979
9.63561 -9.09259 -0.590707
12.5673 -10.3149 -0.729773
44.0469 -10.0785 -2.00953
-14.1622 -43.0787 -1.93058
-32.9255 23.2755 -1.67914
-53.9752 29.3137 -2.44988
-33.9772 23.3827 -1.51327
-19.0287 -49.762 -2.00006
-34.708 -21.8562 -1.46631
9.72249 -9.0481 -0.488322
6.59002 -10.8061 -0.439213
-13.1635 -39.2418 -1.37046
7.43738 -13.0545 -0.513182
18.5442 -13.1344 -0.767605
-26.916 -58.9505 -2.13432
-13.4527 -38.1654 -1.3115
21.0053 24.2264 -1.02942
-23.226 20.6195 -0.978055
-21.0514 -53.9036 -1.79496
20.9473 -14.2847 -0.770804
-27.682 -14.2454 -0.943797
-13.1251 -42.0054 -1.30877
-24.1955 20.5589 -0.911827
-23.9351 -55.0841 -1.70883
-17.7182 -47.9539 -1.47508
22.4762 -10.1147 -0.743923
-34.5649 -21.0605 -1.11965
-9.79931 -12.8567 -0.461761
-23.13 -54.5468 -1.67275
17.9647 -13.3833 -0.570266
30.1062 50.2412 -1.51715
-30.2305 23.0654 -0.977443
-31.3961 22.9638 -0.961836
-27.2936 -13.1144 -0.742138
9.5429 -8.98025 -0.317156
-20.9538 -33.7504 -0.926515
-40.3981 14.0131 -0.934762
21.1465 -14.1493 -0.540237
18.3721 -13.2453 -0.424927
12.7779 -10.4974 -0.275489
-7.27455 15.7465 -0.303675
-33.2514 10.5156 -0.576331
-28.3583 -13.5041 -0.497319
-37.1962 -21.1828 -0.65037
-18.2693 -44.7858 -0.748571
-7.92714 16.671 -0.250751
-32.6508 -24.3911 -0.565204
-34.0095 -23.1846 -0.52691
-35.2337 -71.1916 -0.984731
17.2381 -12.8612 -0.260902
18.1606 -13.0755 -0.283735
28.8064 -17.7628 -0.45161
-21.6282 -55.3943 -0.721713
-30.4149 23.1885 -0.407758
-37.7132 -21.0817 -0.477202
-28.0319 -59.8142 -0.703637
-18.7682 -43.0474 -0.502927
-53.65 29.4018 -0.508804
-34.0169 -60.0074 -0.63591
-20.2433 -53.0907 -0.540008
37.3301 -9.01852 -0.352945
-14.3668 18.2351 -0.162987
-35.8053 -79.7351 -0.598611
-18.0661 -43.8189 -0.322983
9.55045 -8.98667 -0.0408002
14.7492 7.76443 -0.0282296
-29.4836 -13.1527 -0.0584607
-11.7019 -17.0375 0.0250909
-12.9065 -19.4263 0.0443056
-18.8309 -43.2259 0.194403
9.41684 -8.96558 0.0593002
-32.9566 23.3234 0.210001
-22.0196 -55.5897 0.289211
-30.2872 -14.0568 0.200448
16.7681 -12.2346 0.116081
-13.1584 -20.1752 0.157058
14.6552 -11.416 0.146222
-53.4517 19.1508 0.502719
7.05961 -12.1299 0.117826
15.9331 -11.8066 0.168381
-36.5997 -22.1476 0.448679
38.0126 -7.81289 0.404149
-35.4348 -22.2062 0.476258
-12.6561 -34.9559 0.433611
-13.1356 -35.3231 0.456387
-11.2786 -32.4773 0.418094
-9.69592 -29.9997 0.38134
25.4421 51.5158 0.748932
9.56241 -8.99424 0.169752
-12.8365 -19.8912 0.322213
-10.9665 -33.2898 0.479851
8.54618 -8.48992 0.18266
6.26208 -12.811 0.207671
7.12563 -10.9802 0.199825
9.31886 -9.03396 0.187486
8.00724 -9.08555 0.193706
9.69747 -8.97919 0.217732
37.4942 -8.03308 0.629234
-24.0632 20.6355 0.568082
-33.3511 -22.4387 0.691567
-34.6626 -25.4318 0.752799
12.8656 -10.5691 0.272845
13.1747 -10.6264 0.317229
-9.92654 -12.5859 0.302564
6.80305 -11.1494 0.2547
7.96285 -9.35841 0.241643
25.9746 53.4428 1.19147
6.95171 -10.9269 0.260383
9.15277 -8.66017 0.267735
11.486 -9.87247 0.331936
17.1773 -7.67243 0.378779
7.18518 -10.9016 0.295528
-9.46217 -12.2154 0.390759
-12.844 -19.717 0.562015
7.62276 -9.28056 0.273599
7.80585 -9.33494 0.282536
-25.8591 21.7341 0.877725
-29.037 -9.31164 0.765204
9.59038 -8.92329 0.337029
17.4013 -12.712 0.54335
18.2286 -13.1256 0.5587
-23.1608 20.2777 0.802297
-27.9729 22.1073 0.931061
-29.0496 -8.71878 0.794027
-33.3068 -17.7592 1.02505
-13.4098 -20.2495 0.645379
14.6909 -11.4147 0.496458
22.6242 -3.29178 0.643483
-12.2428 -19.09 0.655957
24.8383 -4.70537 0.735906
16.1736 25.0996 0.895283
-28.1662 -20.7497 1.03507
7.19685 -11.2733 0.40162
6.93917 -10.6562 0.387339
14.5757 23.7441 0.855734
-7.62682 -8.81295 0.356373
12.9739 -10.6159 0.511961
-7.32398 -9.51904 0.367832
-28.6754 -8.09381 0.991581
-11.9312 -17.4409 0.707514
7.84473 -9.31797 0.403084
16.0513 10.9665 0.696428
10.8168 -9.41871 0.521105
11.8432 -10.0064 0.565019
22.3446 44.9949 1.88731
-7.45297 -8.1369 0.412429
9.61749 -8.92783 0.489972
22.692 -3.18598 0.879823
26.0541 53.8581 2.31725
-7.45322 -9.89273 0.484445
10.3906 -9.47668 0.551736
12.6708 -10.4649 0.664046
21.4569 -2.62977 0.881463
-29.2872 -17.7679 1.4006
8.70984 -8.67069 0.507999
-6.92722 -8.47017 0.470339
9.40409 -8.896 0.541256
12.583 14.4446 0.846292
-29.0168 -8.51593 1.32895
14.5861 18.9985 1.07677
14.8321 25.5377 1.3163
21.2032 41.6944 2.06925
6.13754 -13.6746 0.66843
10.8007 -9.47556 0.649894
18.3984 -1.63281 0.84516
19.0906 36.3491 1.92614
14.7694 26.0225 1.40335
-11.2114 2.7808 0.55642
-7.24931 -9.55548 0.5784
9.13539 -8.95394 0.605918
11.3525 -8.70986 0.670163
20.0081 -2.29285 0.970274
11.5593 11.7804 0.819853
15.7324 37.835 2.01483
7.73249 -9.42421 0.600111
10.1454 -9.24017 0.679642
14.3938 24.4077 1.41925
19.7145 38.2302 2.18382
20.8916 -2.60252 1.07066
-7.41098 -8.51427 0.585628
9.3519 -8.90406 0.672481
16.5053 24.2038 1.53936
16.2568 29.4716 1.75712
12.9456 -10.6706 0.89149
10.4863 12.2585 0.863012
14.0795 19.1118 1.27548
11.03 -9.56417 0.789517
14.8595 19.3606 1.34625
-26.4957 20.3105 1.82486
-6.97305 -8.18087 0.594696
10.1831 12.3112 0.894967
-7.26883 -9.3836 0.664794
9.92127 12.3592 0.919392
-27.9582 19.6835 1.94204
6.07279 -12.8253 0.812564
11.1098 12.0099 0.940556
-6.88656 -6.79651 0.561193
11.1994 11.9424 0.964244
-6.81387 -8.41984 0.648281
6.21812 -12.4994 0.815842
14.4962 19.2874 1.45108
13.9493 22.807 1.59511
13.1617 30.4176 1.98939
-6.15955 6.56043 0.552797
-8.17623 -7.74731 0.681347
-7.12314 -8.17156 0.665781
5.69202 -12.3789 0.824012
-7.48739 -6.89355 0.633199
6.97481 -11.1128 0.811393
6.95934 -10.5177 0.787256
11.2921 -9.74745 0.921402
12.0752 -10.1014 0.975724
16.1345 7.14564 1.12452
14.7428 19.0983 1.52671
-7.24271 -6.31208 0.623177
10.2254 -9.33914 0.893846
-7.38437 -6.26463 0.635279
11.4007 12.03 1.12949
9.41138 21.1869 1.57876
-7.28098 -9.66478 0.808452
11.5572 12.5348 1.1698
-6.9598 -4.46018 0.568672
-6.75886 -8.20892 0.72519
-6.70366 -4.43635 0.554556
9.24198 -8.83594 0.890252
9.96745 -7.82016 0.892548
12.6038 15.8852 1.46637
-6.67473 -6.6672 0.655565
9.78022 -8.25896 0.936157
11.3564 16.9805 1.53591
11.281 17.9851 1.5861
9.48795 18.0585 1.53844
8.90173 19.2378 1.59441
7.21754 21.5112 1.7058
10.6555 18.3919 1.61948
9.98553 -7.57614 0.958496
-7.03456 -7.1958 0.771141
-17.2428 -6.25412 1.43429
9.44623 -7.65811 0.953385
9.22542 18.4259 1.6265
-6.3842 -4.26286 0.608693
-6.83703 -8.22873 0.848164
4.83089 -5.72871 0.595884
8.90214 19.5851 1.70645
7.66158 18.7326 1.62737
5.02388 -5.7902 0.617718
12.7023 11.462 1.38653
11.7063 11.7588 1.35881
6.71061 -9.36168 0.936403
12.1613 11.6319 1.38347
6.57791 19.31 1.66983
-6.36037 -4.39071 0.629966
-7.17139 -9.49134 0.976413
11.4748 12.0216 1.37519
10.4213 9.11683 1.17917
-5.04835 -11.5179 1.0623
6.1191 -6.03928 0.750556
9.19411 -7.16253 1.0025
-6.80102 -6.69863 0.811079
10.3637 12.2819 1.40302
8.77572 -7.31244 0.993083
10.7605 12.13 1.41924
-7.3174 -7.7727 0.935929
8.17196 -7.27513 0.971537
10.1404 12.3945 1.43979
-7.07886 -7.74979 0.930702
-6.94594 -8.34989 0.974806
10.5311 12.2416 1.46647
10.4273 13.4506 1.54206
-7.12515 -8.33789 0.999115
11.1574 10.7772 1.42699
-6.31838 -4.23381 0.69947
-6.86937 -8.60368 1.00735
-6.33232 -4.39712 0.71073
11.0349 8.51595 1.30817
10.5905 9.28415 1.31333
6.42273 15.257 1.55702
10.449 11.2411 1.4524
-11.2572 2.88465 1.09826
6.15075 -5.95874 0.816528
7.98963 -6.62347 0.996916
10.6907 9.15478 1.36651
9.46592 12.4552 1.51491
9.65068 12.3849 1.54703
7.61458 12.1778 1.42683
7.85367 13.1289 1.52295
11.1779 8.02687 1.40265
7.08738 12.6117 1.46013
9.00829 11.2892 1.46971
6.9412 13.438 1.54799
5.81433 13.8157 1.53888
9.14929 10.4306 1.43416
8.97502 12.2271 1.57604
11.3427 7.6274 1.42606
9.20605 9.95599 1.41197
4.96996 -5.81571 0.82137
-6.85152 -4.65991 0.874168
5.52488 13.7645 1.57436
-7.06506 -4.51051 0.894032
8.87975 10.6398 1.48811
-6.77295 -6.78264 1.0254
5.90413 -5.82759 0.89619
9.65059 8.49677 1.3861
8.92016 9.31679 1.38745
9.21056 10.2676 1.49564
4.73399 13.7198 1.56645
4.23078 -8.04629 0.984865
6.42691 10.7521 1.37857
-6.80687 -3.92807 0.865196
6.30392 11.8199 1.48642
-6.9009 -3.86627 0.876459
9.67637 7.17975 1.34757
6.62783 11.3115 1.46023
9.77158 7.00608 1.35091
5.39635 11.5038 1.43684
5.39938 12.0058 1.48695
4.66519 12.1405 1.47167
9.80234 6.6624 1.35091
-6.89791 -4.56766 0.947635
7.39694 -6.22186 1.10187
-7.33873 -0.786329 0.846516
-6.28018 -5.39513 0.95367
5.24663 -5.56538 0.882661
8.84338 7.86193 1.37871
4.4155 -7.17899 0.976468
10.3848 5.14112 1.35716
8.9273 7.76626 1.39108
5.19809 -5.60905 0.903578
8.57166 7.8901 1.38252
8.86583 9.01946 1.47985
-7.05496 -5.65683 1.07011
10.1148 4.73624 1.33084
-6.92472 -3.85517 0.955126
9.11475 6.12728 1.33219
5.1768 11.3473 1.51204
-6.89915 -3.06822 0.91764
-6.8835 -3.25438 0.920959
4.87917 -5.95042 0.939328
5.96954 -6.1246 1.04143
9.34851 5.60736 1.34774
8.43573 7.20189 1.37154
-6.95675 -4.31449 1.00858
-6.88814 -4.53919 1.01689
8.22772 8.55309 1.47255
4.99899 11.2423 1.52786
-6.55671 -5.62333 1.07514
3.70689 -7.57063 1.05058
8.47469 7.71682 1.43432
6.07399 -5.61382 1.03708
9.14173 6.04447 1.38898
-6.14018 -5.41806 1.03347
8.52458 6.59465 1.37459
8.06203 7.48525 1.39958
-7.10731 -1.78452 0.937531
-7.01969 -2.30806 0.943963
-6.45161 -5.32382 1.06738
8.80622 5.64574 1.34117
8.12665 8.01751 1.47149
-7.27039 -1.25443 0.946325
-6.90414 -4.1227 1.03983
7.41152 6.20423 1.25199
8.05384 7.01957 1.38548
7.94096 8.09679 1.46974
-6.9162 -2.82862 0.973051
-6.91749 -2.96863 0.973429
4.52659 10.0241 1.44554
8.97768 4.10175 1.29933
-7.25411 -1.60758 0.976718
6.83436 -4.25593 1.07013
4.92698 -5.94216 1.02351
-7.33983 -1.11818 0.994104
-7.02005 -2.20118 0.984406
-7.05723 -2.27051 0.99069
-5.99925 -4.40141 0.994595
5.18544 -6.5611 1.11466
6.905 -4.17283 1.08627
8.0478 7.14742 1.45829
-7.15736 -1.71968 0.989895
-7.08847 -1.95733 0.989338
8.77273 4.84327 1.36117
8.30959 5.85737 1.38241
-6.92704 -3.62219 1.0654
8.84732 4.15229 1.34066
3.32205 10.4407 1.49997
-7.3192 -1.201 1.01562
-6.01451 -4.44472 1.02878
-5.99501 -4.54362 1.03002
7.14226 -3.93104 1.12064
8.04857 6.4671 1.42808
5.33196 9.012 1.4501
-6.38725 -4.32487 1.05771
4.93216 -5.525 1.02895
7.17983 -3.82684 1.13244
7.55317 -3.68321 1.16286
3.59681 9.97817 1.47696
3.41068 10.2624 1.50772
-7.37575 -1.08309 1.04107
-7.07927 -2.00539 1.02564
4.9716 -5.28692 1.01462
7.24143 -3.7349 1.14479
7.35755 -3.66954 1.16624
7.86563 -3.35362 1.2157
-7.16042 -1.87621 1.05301
-7.0136 -2.94818 1.1028
-6.01233 -4.37665 1.06978
7.9002 -2.78055 1.22551
8.21571 4.61121 1.38048
4.97288 8.51894 1.44584
8.35291 4.49809 1.40227
7.82588 -2.33942 1.20418
7.12997 5.67584 1.36485
2.94382 9.39629 1.47225
-7.09916 -2.02102 1.10656
7.48033 -3.10825 1.22128
8.21248 4.53866 1.42246
5.76901 7.41934 1.42725
5.27472 7.60965 1.41102
5.10996 7.91697 1.4314
5.0631 8.02455 1.43616
7.3309 -3.16858 1.21992
7.67588 -2.75489 1.24202
-6.76055 -1.6839 1.04975
7.82785 -2.25574 1.24936
7.22062 5.41538 1.38608
-7.1087 -1.95385 1.14437
-6.92484 -2.78789 1.16056
6.8012 5.51659 1.37376
-7.36148 -1.09666 1.16287
-7.14959 -1.82552 1.156
-7.05159 -2.06901 1.15179
-7.12619 -1.87387 1.15665
-6.89996 -2.93635 1.17751
4.79662 7.43742 1.40759
3.44601 -6.03148 1.1093
-7.28162 -1.30047 1.1853
3.52783 -5.70731 1.08098
3.56476 -5.61279 1.07039
7.06761 4.76404 1.38905
4.65073 7.36077 1.41717
-7.07633 -2.02501 1.19989
-7.09842 -1.94841 1.20824
6.96309 4.82505 1.40119
3.8077 7.91029 1.45356
6.05321 -3.31929 1.1501
6.63131 4.87153 1.37211
4.65344 7.15227 1.42349
3.83618 -5.30026 1.09976
7.10404 4.42375 1.40929
7.47477 2.85821 1.35258
6.31786 5.28149 1.39582
-7.28521 -1.25679 1.25932
6.75268 4.08265 1.35533
-6.45473 -2.77364 1.19906
5.50978 -3.62989 1.1335
5.69111 -3.51879 1.14889
2.74709 7.82879 1.43446
-7.37913 -1.04047 1.29236
5.33402 -3.78359 1.14006
-6.31464 -2.26101 1.1634
-6.27501 -2.41815 1.17784
4.28104 -4.66458 1.10723
4.494 -4.47719 1.11284
4.59169 -4.44903 1.12173
-6.80604 -1.73386 1.2376
4.32757 6.4926 1.39202
-7.1658 -0.929103 1.29201
-6.14758 -2.25903 1.16698
6.64005 3.69228 1.36211
6.09978 4.36168 1.36032
3.60866 -5.32741 1.17025
5.14543 5.68274 1.40235
2.51018 7.18314 1.4294
6.48636 3.05279 1.3556
-1.70674 -5.78373 1.14157
6.42763 -1.38624 1.24769
6.27489 2.77867 1.32139
6.22027 2.38223 1.32906
-4.46216 3.94864 1.4014
4.32545 3.53467 1.33621
4.2111 3.29225 1.32342
4.66527 -1.67778 1.24498
4.81886 -1.38099 1.25412
-2.15144 4.82114 1.31952
3.72726 -2.95317 1.22256
3.67339 -2.54974 1.1938
3.4069 -2.96197 1.22598
4.00256 2.56833 1.32911
-2.59427 -3.53398 1.25104
-2.32567 -3.57006 1.21634
3.75308 2.05683 1.30125
3.72978 1.97923 1.30069
-2.84901 3.49383 1.39126
-2.29579 -2.41872 1.18735
1.95626 -2.7823 1.21343
-2.12732 2.7727 1.32803
-2.03208 2.76073 1.3342
2.25152 -1.8703 1.22581
2.38086 -1.49866 1.22278
-2.01794 1.87924 1.29822
-2.06376 -1.44257 1.22843
1.4504 -2.07122 1.24632
-1.99176 -1.08744 1.21452
-1.92435 -0.707473 1.22015
-1.9261 -0.703268 1.24574
-1.95539 -0.34428 1.22922
-1.89237 -0.564541 1.2301
-1.89199 -0.530759 1.23519
8.21455 -8.69369 -7.46049
12.101 -10.2664 -8.78238
-8.8206 15.7465 -7.004
20.4103 24.854 -11.5526
-8.81449 -2.52434 -2.58359
-34.7104 -23.1867 -7.71094
-34.3022 -22.4328 -6.04743
-34.0325 -23.128 -6.11051
-31.3746 -20.1217 -2.80295
9.27117 -8.83056 -0.391208
-7.76153 16.73 -0.455
-29.5977 -11.4534 0.731208
-6.92742 -8.27944 0.461174
16.5552 23.7725 1.57407
11.3223 15.9234 1.61617
-6.70114 -6.67415 0.884471
4.19666 12.1772 1.48432
8.70155 9.06391 1.4698
7.97336 -8.76507 -10.3808
8.83299 -8.5406 -10.4985
6.95753 -11.9382 -11.5151
6.87312 -11.3512 -10.8968
8.15343 -8.26573 -9.53386
7.02274 -12.0304 -11.3276
7.0669 -10.9743 -10.4575
8.00316 -8.37876 -9.20502
6.72843 -11.2862 -10.2903
6.44606 -11.6987 -10.2145
7.75854 -8.85197 -8.97354
6.20629 -14.3183 -11.8097
8.29961 -8.70202 -9.10248
6.30075 -11.9109 -10.1769
6.1483 -12.0898 -10.1142
7.49228 -9.44666 -9.00248
7.91066 -9.05745 -8.9282
10.4656 -9.44819 -10.4865
6.12136 -14.1169 -11.3733
6.10278 -13.6717 -11.008
6.13215 -12.5787 -10.2928
9.19568 -8.82504 -9.34977
9.28352 -9.07172 -9.46704
5.86584 -12.5074 -10.0357
9.35939 -8.98841 -9.26103
6.86208 -11.1268 -9.27781
5.61659 -12.9725 -10.0054
9.68971 -9.07904 -9.41049
7.60999 -9.34538 -8.47359
9.99469 -9.18437 -9.53613
10.9146 -9.49107 -10.1493
11.4366 -9.69512 -10.0691
8.38569 -8.60904 -7.9568
7.43196 -9.30023 -7.8661
8.16852 -8.71957 -7.89748
7.62906 -9.35323 -7.89679
7.83796 -9.40335 -7.84591
8.32163 -8.53646 -7.62096
0.359971 15.8794 -10.1339
7.5287 -9.32541 -7.62716
10.907 -9.60389 -9.24012
7.22645 -10.7028 -8.17352
8.1564 -8.49866 -7.42873
4.61396 -15.4095 -10.1165
8.71472 -8.70185 -7.61968
7.92256 -9.03381 -7.41169
4.04928 -18.0231 -11.3788
8.19894 -8.62881 -7.2768
4.08691 -17.3112 -10.8536
0.14582 14.8846 -9.05675
6.6552 -11.2638 -7.96549
7.74371 -9.26941 -7.32868
10.1225 -9.30955 -8.34488
6.82139 -11.2527 -7.89977
8.06147 -9.20558 -7.34517
11.2636 -9.69225 -8.88437
5.40173 -13.8597 -8.82233
7.73604 -9.26748 -7.15923
9.35044 -9.03299 -7.70382
6.90298 -11.1166 -7.74482
7.98436 -9.12914 -7.11651
9.75124 -9.1861 -7.80745
14.8333 7.41203 -9.63007
8.66752 -8.83129 -7.15021
6.93347 -10.9656 -7.45631
2.64028 -11.2137 -6.62569
7.86076 -9.07268 -6.87532
9.60336 -9.13849 -7.53044
10.7894 -9.49234 -8.10689
3.2798 -20.5999 -11.7307
6.8017 -10.9834 -7.24256
10.1034 -9.28872 -7.68595
12.3315 -10.3472 -9.02744
9.23944 -9.0066 -7.21007
4.61605 -14.2941 -8.37434
8.00436 -9.21695 -6.77991
14.7555 7.54378 -9.09782
9.69543 -9.10517 -7.30478
0.83699 17.4704 -9.55091
2.74162 -19.856 -10.9298
11.1255 -9.64103 -7.99325
4.23312 -14.4214 -8.13595
14.669 7.67118 -8.9162
15.0548 10.3942 -9.82215
14.0052 7.72637 -8.54624
10.9455 -9.61343 -7.74689
13.2526 -10.7922 -9.09173
3.04386 -19.3322 -10.2882
11.3495 -9.8196 -7.63648
2.16866 -20.382 -10.3455
10.2563 -9.33772 -6.97478
14.2547 -11.2749 -9.12537
13.7913 -11.1549 -8.88004
11.0014 -9.64939 -7.29063
7.50733 -9.33629 -5.93294
3.56298 -8.46792 -4.52759
-8.71182 -1.91281 -4.38528
2.22349 -20.1627 -9.94922
4.53163 -9.2986 -5.05894
0.403817 13.6587 -6.68884
7.60628 -9.26823 -5.85078
-8.53022 16.2791 -8.90125
-9.21343 -2.43568 -4.59188
14.9753 -11.5645 -9.09275
19.3423 5.5342 -9.62095
-10.3298 -2.55751 -5.03343
1.90954 -20.5565 -9.81685
17.1649 16.1303 -11.1554
7.57942 -11.2055 -6.3834
19.9922 5.39624 -9.75163
14.0128 -11.0942 -8.3115
2.92842 -17.3283 -8.17176
19.32 5.71632 -9.30765
17.8127 -12.9813 -10.1813
9.85489 -2.48921 -4.69637
20.2464 5.13166 -9.63644
17.2897 16.2585 -10.9359
1.81013 -20.2261 -9.29371
9.66662 -9.03919 -6.06023
-9.22337 -1.67415 -4.27515
9.44307 -3.46498 -4.58123
6.70935 -11.3105 -5.98177
9.90209 -2.61549 -4.64544
19.213 5.8586 -9.04267
17.6723 17.529 -11.1893
9.35933 -3.08307 -4.4355
15.4066 -11.8552 -8.72404
7.03276 -11.5549 -6.05047
7.14703 -10.9103 -5.81373
9.54915 -3.40114 -4.51723
-10.055 16.4806 -8.59508
17.6219 -12.8608 -9.69451
19.4989 5.61709 -8.99378
16.0783 7.29284 -7.81778
17.7789 17.9576 -11.1752
16.3998 -12.1968 -9.00808
-11.317 17.2092 -9.05329
-6.5947 15.0709 -7.2129
-5.24632 4.92077 -3.13403
20.0953 5.4562 -9.05253
9.54808 -3.40141 -4.37429
18.1706 18.4168 -11.1193
15.7974 -12.1569 -8.57766
14.8403 7.42005 -7.08093
3.83716 -9.2987 -4.27394
-11.2397 17.0945 -8.66116
6.93958 -10.899 -5.44836
-13.6189 3.33763 -5.90773
0.743334 -22.3965 -9.44331
15.7835 -11.9507 -8.27949
-5.17641 5.70007 -3.22149
0.998815 -22.2596 -9.3404
1.2319 -20.786 -8.72327
14.1504 7.58919 -6.71581
18.4991 19.2783 -11.163
3.78141 -8.95169 -4.05247
14.7523 7.7197 -6.93043
17.8705 19.0858 -10.85
-9.52682 -1.09342 -3.95847
4.00621 -8.50017 -3.85005
14.0173 7.7399 -6.57302
6.83903 -10.9791 -5.28835
-13.6574 2.55126 -5.68365
-8.01711 15.5314 -7.10285
19.1969 20.8595 -11.4842
15.054 7.23343 -6.72913
-5.306 14.4905 -6.18712
13.9341 -11.0162 -6.9574
1.53085 19.2294 -7.4918
-8.80894 15.9095 -7.067
18.9603 5.78221 -7.68023
-1.75874 13.3248 -5.20586
5.29318 -9.38956 -4.15684
-2.39287 13.5468 -5.28372
19.5223 22.5835 -11.446
4.65894 -8.51257 -3.68536
19.3857 5.56137 -7.67418
0.877174 -26.5584 -10.0984
14.8834 -11.4692 -7.07143
19.9434 5.40306 -7.73321
9.43384 -3.43709 -3.75383
0.533585 -22.7099 -8.46531
3.24664 -10.7884 -4.20914
20.1189 23.4065 -11.4615
0.909806 -8.72342 -3.25258
14.0088 -11.0942 -6.58938
20.3505 5.17593 -7.72057
17.8355 17.6235 -9.16255
-13.0698 2.28971 -4.8241
20.7651 24.7969 -11.73
2.28586 -13.2522 -4.84488
13.0185 -10.5278 -6.0248
0.795935 15.4327 -5.52911
-8.20957 -2.80156 -3.10269
0.410054 -21.8759 -7.8212
-4.24534 13.933 -5.18104
0.638453 -21.9491 -7.80325
15.8313 -11.9568 -7.03187
-15.8708 18.3478 -8.5498
5.92509 -11.332 -4.4963
-11.1177 16.7773 -7.02983
0.093508 -18.534 -6.51505
14.2451 -11.2895 -6.35572
20.3055 5.34766 -7.32908
0.657844 -23.0716 -7.971
-5.05335 14.6698 -5.3164
3.63826 -8.44591 -3.16559
4.87466 -9.02964 -3.51639
-14.6348 18.1692 -7.98588
2.27461 -10.8845 -3.81069
-8.96368 16.2605 -6.32944
3.02555 -13.689 -4.77989
-15.1141 18.5508 -8.1121
20.1238 5.47139 -7.00939
21.951 27.1547 -11.6695
35.9328 -20.2842 -13.7895
-5.34963 14.1893 -5.03664
1.91226 20.7208 -6.90439
1.26734 -10.2481 -3.41428
-5.29637 14.5837 -5.03967
-12.7005 17.387 -6.98509
18.5279 -13.2028 -7.38831
3.55917 -8.67111 -3.00521
6.2164 -10.1074 -3.80285
2.31326 -11.0071 -3.5793
-4.58924 -34.472 -11.0529
-1.14251 -23.9352 -7.62737
14.9933 10.326 -5.7452
-13.33 17.7379 -7.01356
-18.1601 19.5873 -8.39676
6.95678 -11.0868 -4.04664
1.38625 -21.9197 -6.79431
-2.58791 -27.5626 -8.49734
7.15535 33.0443 -10.3169
0.771031 15.0233 -4.5691
-11.2355 16.9523 -6.13005
-2.71647 -26.6715 -8.07341
-14.4763 18.0999 -6.91569
-5.33311 -34.9697 -10.5323
0.839483 -25.1095 -7.51184
-5.44076 14.9646 -4.73673
2.07813 20.6727 -6.12129
-21.4752 20.024 -8.66302
18.1837 5.78645 -5.6167
-4.33223 14.5514 -4.46437
-7.99802 15.5167 -5.1218
4.25435 -9.14019 -2.96322
4.6344 -11.6122 -3.65591
-12.6474 2.228 -3.69089
-33.3449 -47.2335 -16.6366
-15.3354 18.4486 -6.89662
6.95359 -11.075 -3.76486
2.56311 -9.54355 -2.80775
12.9209 -10.4586 -4.73075
-8.45984 -2.46208 -2.49832
20.9866 27.0658 -9.70319
-8.58756 -2.26337 -2.5095
-2.56969 -26.2205 -7.39321
-13.0551 2.00053 -3.67802
4.38579 -11.3241 -3.37061
-9.39423 16.1557 -5.13098
-13.1764 17.5731 -6.03307
-5.44191 14.5241 -4.23955
-8.59336 -41.7313 -11.6569
-21.6679 20.2202 -7.96758
-9.81825 16.2808 -5.09532
-26.9611 20.711 -9.04478
11.4157 11.4895 -4.27351
4.32485 -11.2901 -3.20292
46.8953 -13.6325 -12.9376
-8.2903 -39.1225 -10.5108
4.08792 -8.65403 -2.52015
11.1621 -9.92821 -3.90798
-14.5819 18.2578 -6.076
6.53313 -10.4185 -3.18299
3.1771 -9.64323 -2.62481
-30.4403 -44.5831 -13.9395
-4.39801 -28.8466 -7.54928
3.53961 -10.3679 -2.82494
4.06675 -9.38381 -2.62869
15.5866 -11.72 -4.97586
-7.22138 15.3847 -4.30198
-31.8749 -42.5092 -13.4731
4.30971 -11.1389 -3.02289
4.25398 -7.70239 -2.23941
6.5326 -10.6558 -3.11715
44.5979 -13.4838 -11.6165
-28.5295 21.5244 -8.83579
-11.6324 17.0901 -5.09665
-27.869 -40.6549 -12.119
-10.0029 -39.3713 -10.0197
-24.6989 20.7451 -7.92669
4.3476 -10.3262 -2.75282
-12.1702 17.4324 -5.15507
-7.91488 15.4215 -4.17821
10.2675 -9.26139 -3.31086
40.1131 -13.3246 -10.1148
15.0958 7.54954 -4.01806
-6.37864 -36.529 -8.83286
3.96398 -9.08369 -2.34843
46.7669 -12.5167 -11.4904
-12.3106 -45.327 -11.1261
4.19929 -8.98502 -2.36605
3.85592 -11.0594 -2.76043
4.90633 -8.68958 -2.34759
-12.8909 17.5671 -5.07113
10.9987 -9.63866 -3.34254
-6.24532 -31.67 -7.36507
-27.3914 21.1558 -7.84561
41.3421 -9.04123 -9.60373
-30.7705 22.341 -8.52563
-35.6761 -23.3794 -9.55723
40.542 -12.5328 -9.52794
5.45136 -9.46865 -2.4394
-12.436 2.83761 -2.7988
40.4157 -11.8437 -9.30527
42.3793 -12.092 -9.69599
-5.42829 14.2425 -3.33289
13.376 -10.7635 -3.77916
37.9003 -12.1799 -8.75178
-23.5872 20.5575 -6.78702
-30.1338 -74.2922 -17.3954
4.30665 -9.69323 -2.30019
4.53634 -9.17461 -2.21072
-14.7029 18.3183 -5.01646
-31.2114 22.6714 -8.23739
-32.099 22.7794 -8.41406
-28.769 -76.3281 -17.4835
-10.7816 16.8471 -4.24138
-8.53102 -36.2134 -7.9111
3.18815 -9.67873 -2.17304
3.96336 -9.82221 -2.25838
45.5509 -10.5609 -9.98156
14.9283 7.47738 -3.53957
-15.2832 18.8137 -5.1321
5.16095 -9.0495 -2.18873
26.4324 38.2438 -9.71453
14.9679 7.83341 -3.50732
-30.3399 -23.4317 -7.95229
-33.7966 -86.656 -19.2556
-11.5438 17.0085 -4.1774
-15.7484 18.6198 -4.96482
-35.4939 23.8261 -8.68691
44.2002 -9.64096 -9.22559
-13.428 -43.2076 -9.19538
4.13272 -9.72691 -2.15026
11.5927 -9.63667 -3.0672
-12.0949 17.357 -4.22324
-20.2556 -58.1336 -12.3027
-13.1222 -40.7629 -8.47781
4.06666 -9.91372 -2.12162
-34.339 -23.4807 -8.20051
-26.9453 21.1477 -6.74165
-33.364 -23.8658 -7.9962
-6.94836 15.3542 -3.27149
-27.0313 -63.5147 -13.4073
-33.7724 -22.4834 -7.81831
3.4333 -9.35538 -1.92437
45.6303 -10.5722 -8.99433
-12.8463 17.5394 -4.15627
3.98635 -9.33835 -1.93772
-36.6809 -22.2811 -8.12414
-21.455 -34.8531 -7.78343
-15.7936 -45.5705 -9.12529
37.7345 -12.4477 -7.51161
-36.2617 24.3544 -8.17497
-33.9105 -23.4193 -7.74181
-32.8566 -24.0392 -7.6421
-21.6327 -53.5928 -10.8741
-17.1086 -46.4715 -9.18536
3.81828 -9.20221 -1.84025
42.3667 -11.4186 -8.14825
5.75378 -9.70631 -2.06798
-24.9077 -56.4789 -11.3007
-20.7357 -51.4674 -10.0356
-14.6687 18.2849 -4.15673
-31.3001 -25.2443 -7.14763
-20.4282 -27.2212 -6.086
-39.7137 25.0598 -8.28553
-26.9549 21.1647 -5.96509
-34.3604 23.5125 -7.22911
3.90642 -10.042 -1.86843
4.76942 -8.60816 -1.71026
13.9857 7.51073 -2.7379
14.0589 8.06762 -2.77603
-31.0626 22.5883 -6.58439
42.0475 -11.8961 -7.43961
41.8463 -10.8378 -7.35875
-31.4572 -24.983 -6.81445
-21.2132 20.2029 -4.91937
-20.6857 -51.4163 -9.36392
14.8406 7.43811 -2.78397
-31.9407 22.6121 -6.53718
-23.9268 -57.0454 -10.2213
43.3612 -11.6811 -7.29927
-10.4253 16.5509 -3.1567
-20.9784 -52.0443 -8.94913
-35.1169 -24.2414 -6.72401
-22.9313 20.1471 -4.77989
-24.3438 20.7814 -4.96085
-40.423 24.4747 -7.32271
-11.2995 16.9119 -3.14006
3.46962 -9.52216 -1.56742
3.86603 -10.2234 -1.69241
-7.67591 15.5689 -2.65155
-31.2948 22.7772 -5.91687
-31.9602 -24.6851 -6.14073
-28.1195 -26.3027 -5.83302
42.034 -10.9275 -6.60171
44.6624 -9.73034 -6.96401
-6.58957 14.6775 -2.40754
9.82659 -5.15085 -1.64666
-33.7024 -24.308 -6.18815
-26.9415 -68.1209 -10.8642
10.1864 -9.15871 -2.04145
44.8022 -10.3644 -6.82928
-36.8896 -24.5569 -6.52205
-31.7138 -26.1589 -6.01368
-12.8363 -42.5314 -6.53644
16.8936 -12.2225 -3.05443
-25.5625 21.0463 -4.81207
-25.0772 -56.1883 -8.86627
-7.67267 15.3677 -2.45632
-12.7954 17.4459 -3.08477
6.02954 -11.5194 -1.85799
-13.5011 18.0455 -3.16591
-34.963 23.6182 -5.93199
6.75406 -11.0324 -1.80806
37.454 -12.3605 -5.54739
-31.3456 -25.1172 -5.60585
-33.2507 23.8956 -5.67244
-20.8735 -50.3086 -7.52269
44.9524 -10.0563 -6.3519
-6.92105 15.3065 -2.29585
-23.0311 -60.108 -8.74403
7.74687 -9.37511 -1.63214
-14.0959 17.9982 -3.08192
13.203 -10.5304 -2.28517
-22.3702 20.3484 -4.06648
41.9563 -10.8478 -5.7534
44.6785 -9.7864 -6.05397
-22.7522 20.0221 -3.9632
-32.8909 -24.6117 -5.36569
-14.9927 18.3592 -3.06492
-34.2744 22.8763 -5.34991
-38.5586 -16.281 -5.40413
7.01141 -10.4274 -1.61227
10.7604 8.8098 -1.78557
-34.0125 -23.4392 -5.28608
-31.6645 23.1158 -4.9593
-35.7992 -22.339 -5.28907
41.821 -10.8156 -5.40595
6.7909 -10.3598 -1.5479
-7.70934 15.4203 -2.13484
-25.1835 21.146 -4.02672
-33.6407 23.7089 -5.0768
6.28904 -12.0616 -1.65721
44.631 -9.52192 -5.58974
14.9827 7.84957 -2.03353
-18.1742 -44.0171 -5.74219
7.08128 -10.5243 -1.52738
-20.6078 9.13308 -2.66794
-14.5063 -43.8809 -5.43411
-32.0455 -24.7066 -4.73142
-31.5286 -25.2149 -4.72425
41.9031 -11.2246 -5.09869
11.2221 -9.66426 -1.71585
-30.0916 22.8168 -4.34482
6.63726 -10.8145 -1.4527
7.48479 -9.21516 -1.35802
11.5738 -9.71595 -1.7164
9.44493 -4.60767 -1.19002
14.9612 7.68814 -1.89565
-10.4174 16.5843 -2.21041
-32.4178 23.6879 -4.49799
38.7474 -12.7552 -4.57477
9.35058 -9.01711 -1.43717
-11.1369 16.703 -2.18248
6.78606 -12.776 -1.56712
44.7718 -9.73049 -4.96707
10.7583 8.84071 -1.50063
16.749 -12.4417 -2.23941
42.0978 -10.9184 -4.66025
9.61248 -8.97256 -1.39316
8.37434 -8.45941 -1.24702
-31.0878 -24.8775 -4.14601
-30.6315 -61.4407 -7.16189
14.9581 7.50168 -1.7096
-31.9854 -24.6629 -4.14407
-12.9382 17.6374 -2.22117
-12.8547 17.2222 -2.13622
10.2002 -9.08145 -1.33794
-21.1623 -53.7444 -5.6627
6.31005 -12.084 -1.31951
16.6188 -12.1586 -1.97944
41.987 -11.2825 -4.16758
-31.1833 -63.0334 -6.68522
-21.1464 -55.4947 -5.63993
-23.4595 20.5197 -2.91374
45.4679 -10.1148 -4.35076
9.70978 -8.98082 -1.22441
39.5734 -13.0542 -3.88323
-15.1137 18.5269 -2.16536
-29.8266 -13.5989 -2.98806
-32.8153 -63.9708 -6.62706
15.8361 -11.8531 -1.79952
8.63081 -8.72173 -1.11116
12.8777 -10.6299 -1.45414
45.0559 -10.4431 -3.96214
9.39548 -9.02183 -1.09499
10.9426 -9.63634 -1.22564
-34.3962 23.6215 -3.47234
16.8185 -12.2647 -1.72418
-17.1346 -44.5875 -3.82594
14.6643 -11.4665 -1.48451
-11.8354 -33.1337 -2.7771
-30.0225 22.8277 -2.91677
-33.3238 23.5544 -3.15039
-23.0214 -52.5871 -4.43185
-51.5807 28.0724 -4.44703
-21.5214 20.2549 -2.14991
-33.5525 23.7328 -2.97854
16.3559 -12.2211 -1.4937
42.0135 -11.2429 -3.16872
-39.9928 -75.6701 -6.17677
13.9583 -11.0438 -1.27389
-15.7307 -41.7295 -3.07806
10.7573 -9.60699 -0.988204
-23.4836 20.562 -2.10814
12.8561 -10.6083 -1.11583
17.9246 -13.0006 -1.47632
16.0191 -12.1166 -1.32659
-14.8322 -41.1236 -2.82796
43.7647 -11.3822 -2.82675
-32.3466 -65.5394 -4.46016
35.7488 -8.67268 -2.25769
42.941 -9.82847 -2.70453
6.04156 -13.0595 -0.860144
30.8139 -20.3894 -2.2112
-9.9021 16.5301 -1.13288
-15.7301 -41.0332 -2.50236
16.5861 -12.3956 -1.16271
-9.7042 -12.58 -0.870671
14.949 7.66937 -0.908347
13.8854 -10.9917 -0.948393
-12.8606 17.4281 -1.1314
-16.6419 -41.2483 -2.36231
14.8434 7.80508 -0.821861
-16.4712 -42.1024 -2.21838
-14.2342 18.0418 -1.09904
9.55884 -9.01653 -0.602737
-24.3108 -55.7661 -2.75293
12.4384 -10.2254 -0.74656
-16.1996 -45.1579 -2.13014
-17.3955 -42.859 -1.98041
6.84703 -12.6431 -0.637979
-14.0791 -42.9177 -1.92414
-53.0078 28.8275 -2.44434
18.3069 -13.1522 -0.914932
16.7768 -12.4701 -0.814198
-42.2186 -81.9426 -3.47785
-18.4567 -48.3997 -1.90794
-33.8547 23.2613 -1.50227
42.4913 -10.9484 -1.58015
-35.0064 -69.634 -2.60782
-26.2133 -57.4466 -2.12626
20.0849 23.2292 -1.01938
-21.5644 20.2078 -0.962841
8.10423 -14.3034 -0.552241
9.41512 -8.98818 -0.421977
11.2891 -9.93844 -0.488953
18.5614 -13.1243 -0.747212
34.742 -13.1035 -1.23236
21.8663 26.469 -1.10059
-27.4912 -13.7894 -0.964001
-23.0334 20.5113 -0.939871
-31.8955 22.59 -1.21969
-25.32 -58.2116 -1.96633
-13.9476 -39.4575 -1.28924
-21.8006 -55.6105 -1.8088
-16.8127 -45.5661 -1.3917
-34.2012 -20.737 -1.0653
11.4382 -9.70351 -0.401876
16.3149 -12.1348 -0.536096
-41.342 25.5755 -1.2819
-30.4788 23.1915 -0.947378
-30.9998 22.719 -0.908471
9.56119 -9.00075 -0.304228
-41.5729 14.3686 -0.972027
-31.7617 -53.1854 -1.39548
21.2275 -14.197 -0.561459
30.4119 -18.4409 -0.802909
14.2135 3.92802 -0.300723
27.1996 47.5304 -1.00618
23.4996 -10.9403 -0.456599
46.9976 -10.822 -0.897203
-30.791 -22.1275 -0.691424
-29.76 -29.2303 -0.661527
-19.1979 -47.1068 -0.847393
12.707 -10.4494 -0.270734
18.4903 -13.361 -0.348729
-29.3916 -13.0639 -0.422203
-33.012 -24.7054 -0.573723
-33.8635 -68.2662 -1.02928
-28.0917 -59.7881 -0.905593
-34.1163 -23.2996 -0.539394
-30.4982 23.2026 -0.450952
16.9722 -12.6745 -0.251601
29.2378 -18.1289 -0.40499
-30.9573 22.727 -0.427381
-19.2842 -44.2274 -0.516531
-12.1343 -36.5229 -0.387844
-33.7949 -59.546 -0.631205
-14.4059 18.2736 -0.178425
-26.8133 -13.5185 -0.242395
-15.0998 18.4065 -0.162637
-22.6875 20.262 -0.156334
-21.1187 19.8086 -0.131521
-10.583 -13.6054 -0.0605191
14.7113 7.72817 -0.0199529
11.098 -9.75881 -0.0078044
-34.6706 -18.9898 0.0603559
-11.4445 -34.0134 0.116555
16.9322 -12.3018 0.0907908
-19.0003 -43.6212 0.21113
18.7503 -13.211 0.121774
7.16856 -12.3226 0.104018
25.958 -10.65 0.172554
-55.7613 19.9106 0.564969
16.2262 -12.0253 0.192796
37.3631 -7.62814 0.359848
-29.1935 -8.23193 0.354921
-36.4847 -22.0215 0.470026
-11.4277 -32.7418 0.371695
-12.8269 -35.5439 0.44958
-10.3736 -31.8861 0.402054
6.32268 -12.9237 0.183658
7.20732 -11.1034 0.174048
-28.3625 22.2637 0.552459
11.3028 -9.87119 0.225601
-24.2656 20.7514 0.527346
10.8906 -9.72405 0.229142
12.9581 -10.6675 0.264424
36.3166 -7.77226 0.617914
-34.7487 -23.281 0.760815
-31.4382 22.4784 0.759259
6.13533 -12.8187 0.275763
7.01592 -11.0411 0.252024
8.02056 -9.41159 0.241476
27.1972 55.9236 1.353
7.72353 -9.43705 0.275707
10.1214 -9.16736 0.329454
-28.9291 -9.27643 0.731909
-23.4531 20.4709 0.842663
-27.7588 21.8877 0.94917
-29.0584 -8.72526 0.799629
9.18321 -8.88915 0.345258
9.6173 -8.93856 0.3579
-25.7517 21.7038 0.915469
25.3267 -5.12364 0.719476
12.9678 -10.6382 0.49965
14.7425 24.0165 0.869658
6.18247 -12.7541 0.446026
7.45005 -11.6134 0.43299
-28.5812 -8.06081 0.974482
-12.6598 -19.3836 0.762684
-28.2628 -8.83352 1.02392
16.0764 11.0035 0.704229
-29.9757 -18.5748 1.23263
15.6758 27.2302 1.12156
-30.5939 -16.6881 1.29146
23.492 -4.24206 0.862518
-27.9705 -19.8931 1.27184
-7.30569 -7.96572 0.40797
9.04472 -8.81994 0.469604
12.3939 13.5577 0.70843
25.7188 53.0559 2.23337
24.5857 52.3454 2.1781
-11.5806 -9.16659 0.582446
8.71691 -8.66263 0.486148
-25.8373 21.2837 1.35941
21.7973 -2.95412 0.891211
-28.9404 -17.5785 1.38719
9.4067 -8.91938 0.531503
12.4165 14.3002 0.814962
6.56882 -12.4399 0.597394
14.7927 19.2208 1.06648
20.6521 28.5261 1.54263
-9.51959 -13.8416 0.738382
-10.0108 -15.6565 0.824883
7.59019 -10.9395 0.586629
8.61786 -8.70723 0.553623
24.1372 -3.69761 1.10258
-29.9944 -8.74083 1.42618
6.73527 -11.0726 0.596313
-8.28702 -8.15541 0.547268
21.1031 42.5779 2.27384
-28.7011 -17.7384 1.59491
-9.79371 -13.7375 0.802994
9.6521 -8.95546 0.620147
15.2708 42.4365 2.18345
-30.3998 -13.465 1.58703
-6.7724 -8.25656 0.525537
14.402 33.4922 1.86053
-29.8826 -11.7021 1.61063
-7.60331 -6.99151 0.522211
-6.70881 -7.60516 0.513108
15.998 28.9803 1.71908
10.5066 12.2855 0.873768
14.1473 19.2521 1.28295
9.33665 -8.91751 0.691765
14.7339 19.1708 1.33523
15.1765 23.4399 1.5378
-27.6984 19.5025 1.85727
-6.98355 -8.20718 0.597679
-26.625 20.4293 1.86632
6.08461 -12.8472 0.795364
-7.11829 -9.17361 0.662232
9.91487 12.3843 0.933147
14.7945 24.9269 1.69366
6.45217 -12.9587 0.833123
13.7398 22.4161 1.55317
-8.27383 -8.13287 0.69911
11.4902 11.5694 0.972506
14.5827 19.3952 1.4581
-7.41208 -10.0339 0.775874
7.00007 -11.1552 0.802594
11.2457 -9.70004 0.90033
5.85927 -10.741 0.759252
-7.20513 -6.65979 0.613212
14.3821 20.402 1.57958
16.0954 7.14451 1.14349
-7.04632 -6.15644 0.614094
6.45276 -13.4248 0.992679
9.31651 21.0444 1.55269
10.3688 12.4976 1.11029
13.4652 18.106 1.57396
12.3048 20.4013 1.64873
11.2958 11.9323 1.15342
6.5895 -9.82721 0.837909
11.4443 11.7087 1.185
9.79193 -6.91215 0.852855
12.3034 11.9107 1.25781
9.91003 -8.3689 0.95024
-6.18193 6.70005 0.680866
10.3918 9.15021 1.04023
11.8396 17.7021 1.60252
11.3916 18.149 1.61471
-6.95667 -7.71108 0.805409
10.7701 18.589 1.64851
9.4983 -8.94265 1.0082
-6.42293 -4.30383 0.609915
9.10971 18.2511 1.63018
10.0649 -6.8873 0.976531
12.398 11.503 1.36729
9.66356 18.7627 1.69955
-7.27972 -9.65595 0.98505
6.70776 -9.36623 0.93747
12.1854 11.657 1.38188
12.0891 11.8892 1.40815
11.3675 11.8816 1.36146
-5.06383 -11.5575 1.06146
10.258 12.8341 1.39811
-6.97034 -6.09099 0.79743
-6.82695 -6.70568 0.808426
-5.22492 -11.4595 1.07107
-7.31329 -7.76037 0.918386
9.27005 -7.24464 1.01651
-7.13349 -8.07235 0.942845
-7.02891 -7.70356 0.917231
9.33896 12.4656 1.38105
-6.965 -8.38767 0.974119
10.7705 9.03718 1.28147
10.4047 13.4006 1.53296
10.4799 9.20407 1.27692
7.66911 13.9212 1.46203
-6.5097 -8.15029 0.955817
-6.91684 -9.0366 1.05043
11.1466 10.7505 1.42901
11.2027 9.1402 1.35309
10.8178 10.7527 1.42991
6.43887 14.8794 1.5236
-11.4604 2.93597 1.1097
-6.36799 -4.1753 0.713538
-6.81527 -6.30275 0.860965
9.37865 13.2266 1.56427
-6.0523 6.57649 0.880415
7.95099 -6.60138 1.00719
7.88434 13.1464 1.52283
-7.08054 -7.63041 1.04879
9.26037 11.579 1.4956
6.96695 12.3701 1.44095
7.02108 12.9349 1.5005
9.49395 9.05505 1.35789
5.82204 13.8791 1.56007
9.09197 12.3658 1.60032
-6.11295 -4.46096 0.793364
5.9213 13.6061 1.56313
6.18128 13.5397 1.56489
-6.97804 -4.4326 0.884381
8.73127 8.98082 1.33547
9.09511 10.1322 1.4809
7.29274 10.9503 1.42993
5.79462 11.4134 1.39174
-6.30832 -7.42115 1.06472
10.232 6.43055 1.33722
8.95667 8.10654 1.33178
7.27415 11.6274 1.51457
6.81058 11.5753 1.48496
5.32699 11.8291 1.44349
4.84044 12.0319 1.45104
4.671 13.5842 1.5804
9.83129 7.02941 1.34961
8.72103 9.27037 1.42236
5.35289 11.4535 1.4238
-6.85071 -6.73259 1.06922
6.83391 10.6667 1.42717
4.28963 13.0857 1.55645
9.7404 -3.19184 1.14291
-6.11009 -5.41932 0.945706
7.28212 -6.11399 1.07937
10.3807 5.69567 1.35814
-7.38862 -0.986781 0.854397
-6.26343 -5.36135 0.949157
5.24289 -5.55119 0.879729
5.03948 11.5591 1.46492
-6.89007 -4.56389 0.957864
4.44899 -7.25447 0.984186
10.3748 5.13234 1.35838
8.84987 7.85469 1.38919
-6.00714 -4.37195 0.866043
-6.49238 -5.27883 0.98867
4.08765 -7.85755 1.05337
4.9621 -5.8449 0.919877
10.1358 4.73939 1.34142
8.48461 8.23881 1.43258
5.24643 11.4298 1.53526
9.01439 6.24474 1.34277
7.97911 8.30397 1.44272
-6.49679 -5.75299 1.08043
3.70306 -7.56594 1.05504
8.64558 6.66609 1.37292
-6.47455 -5.35001 1.06315
9.06042 5.99299 1.38701
8.15377 7.11469 1.38076
8.08372 7.47935 1.40629
5.77154 -5.34043 1.00956
-6.97949 -4.44797 1.06255
8.07017 7.96798 1.47109
-7.36491 -1.04346 0.961339
-6.92998 -2.82922 0.977763
8.95156 4.09006 1.28896
8.37367 6.60616 1.40027
4.99407 -6.02282 1.02846
4.91217 -6.18712 1.04613
6.86368 -4.27862 1.07663
-7.14059 -1.72002 0.984892
-7.01659 -2.22222 0.984246
-6.03096 -4.42647 1.00033
8.10773 6.63606 1.42048
8.58673 4.42764 1.31728
8.60614 5.15192 1.37012
8.00003 7.11291 1.45717
-6.81513 -3.73721 1.0556
8.83806 4.14856 1.33651
8.23961 5.81552 1.38118
-6.40413 -4.33326 1.05828
-5.96294 -4.52927 1.02284
5.33559 8.99121 1.44417
3.62048 10.0159 1.47904
-7.37513 -1.09408 1.03279
-6.91099 -3.93096 1.10361
4.94516 -5.53939 1.02625
5.22432 -5.39422 1.04225
7.45689 -3.53386 1.15403
3.36531 10.0925 1.49072
8.37988 4.58632 1.35143
7.36865 -3.67497 1.16813
7.58016 -3.3319 1.18051
7.75458 -3.30259 1.19599
8.91858 2.80821 1.3459
4.83012 -5.63115 1.06641
7.34748 -2.85065 1.14742
-6.96508 -3.30331 1.12386
7.91051 -2.77694 1.22238
8.65447 -1.81794 1.29813
4.98859 8.54108 1.46011
2.93578 9.38367 1.46272
7.72497 -1.88618 1.17198
7.20968 5.74171 1.37333
3.43661 9.50709 1.49434
3.16792 9.73883 1.51778
-7.37745 -1.0444 1.10507
-7.08099 -2.02494 1.09786
6.92742 6.27098 1.41086
-6.26809 -2.2735 1.00089
-7.24693 -1.3766 1.11381
7.91985 4.80588 1.41142
5.69137 7.33364 1.40858
5.27527 7.6062 1.40887
5.03898 7.98541 1.42764
6.7547 -3.22339 1.1319
7.2404 -3.12218 1.20752
7.62926 -2.75303 1.236
-7.3238 -0.733679 1.12435
-7.10369 -1.95626 1.13751
6.78424 -3.09065 1.15294
3.74919 -5.78561 1.06608
-7.05935 -2.07786 1.15397
-7.35309 -1.09395 1.16761
7.34402 4.76348 1.38262
-7.20508 -1.44483 1.16947
-7.27824 -1.3023 1.18665
-7.10383 -2.02085 1.20135
7.05351 4.75221 1.38843
-7.10752 -1.9472 1.21088
6.99311 4.85361 1.41402
6.60004 4.84099 1.36601
5.19272 6.22681 1.35075
4.65825 7.14919 1.42514
3.80697 7.90149 1.45792
-7.25587 -1.37479 1.23313
2.79235 -5.77677 1.08161
7.12622 4.41883 1.41265
6.4978 5.22562 1.40678
3.87328 -5.36477 1.11562
3.93647 -5.02076 1.08003
-7.27906 -1.2536 1.25331
-6.60349 -2.62732 1.20609
7.40321 2.84268 1.34511
7.01574 3.88328 1.36657
-6.41918 -2.75512 1.18877
6.76046 4.09007 1.35652
5.68068 -3.51854 1.15014
-7.40318 -1.04062 1.29319
-6.36168 -2.28218 1.16225
5.5337 -3.64687 1.14237
5.31763 -3.7731 1.1429
3.58336 7.13528 1.40455
-6.80516 -1.73663 1.23374
4.47966 -4.46709 1.11335
-7.09869 -0.915487 1.27538
4.72464 -4.45724 1.14946
4.31573 6.47351 1.38836
6.57366 3.46731 1.34223
6.61269 3.6753 1.35916
-6.44641 -1.50174 1.19082
3.60877 -5.32622 1.17035
5.06487 5.59867 1.38242
-6.15963 -2.18488 1.19812
3.4133 -5.15883 1.15039
3.37558 6.74692 1.41144
-1.69748 -5.78119 1.14462
6.43399 2.72735 1.32992
-2.14304 -5.72715 1.17567
6.29846 2.79128 1.32638
-2.78754 -5.37666 1.18694
-3.53484 5.36806 1.39315
4.46257 3.88633 1.3506
4.15155 -2.87905 1.17717
4.62856 -2.18625 1.2369
4.19293 3.28656 1.31969
3.70832 -2.93097 1.22416
4.01324 2.5713 1.3316
-1.44304 -4.11749 1.22179
-2.32114 -3.57984 1.21268
3.85551 2.36159 1.30992
-2.86673 3.53324 1.36467
-2.48087 -2.91681 1.18967
-2.37831 -2.93793 1.19459
1.84352 -2.81253 1.18232
1.8665 -2.79072 1.21234
1.99253 -2.52703 1.19862
-2.04606 2.81097 1.32277
2.8037 -0.555664 1.25908
2.78289 -0.336813 1.24075
-2.08948 -1.61935 1.21324
-2.07726 -1.45145 1.23834
-1.86232 -1.79605 1.28363
-1.99486 -1.13155 1.20482
-1.98638 -1.0705 1.23167
-1.94622 -0.880477 1.23193
-1.93061 -0.708505 1.22226
-1.92949 -0.701605 1.24948
-1.9059 -0.46976 1.22236
-1.87132 -0.345759 1.21959
-1.85615 -0.401231 1.2263
2.37785 -19.6949 -10.0104
-7.61038 -8.98506 0.465648
8.0159 -8.79724 -10.4646
8.26203 -8.62761 -10.5011
8.21363 -8.28845 -9.88369
6.95644 -11.9548 -11.4077
8.51408 -8.97132 -9.73891
7.84856 -8.93527 -9.13338
5.84945 -12.7972 -10.7284
9.42428 -8.83145 -9.74184
6.14701 -14.0937 -11.5753
8.28523 -8.67691 -9.02022
8.01593 -9.1669 -9.10639
7.29035 -9.24373 -8.77127
5.90925 -14.1508 -11.189
7.71644 -9.30374 -8.72214
7.85371 -9.11465 -8.66698
7.1269 -10.578 -9.08132
6.81825 -11.0701 -9.21714
10.0491 -9.18906 -9.56377
6.5377 -11.1725 -8.86215
8.03103 -8.6257 -7.84818
7.35844 -9.2782 -7.86965
8.51357 -8.67885 -8.08117
7.71798 -9.47005 -8.02614
6.48535 -12.7712 -9.35341
7.93095 -9.17816 -7.91156
5.00175 -16.038 -10.8056
-0.472965 13.9391 -8.91802
7.72545 -9.24187 -7.72434
7.33278 -10.8602 -8.34369
8.37517 -8.56344 -7.63133
10.8697 -9.61573 -9.20531
8.98646 -8.81601 -7.89539
11.7577 -10.0264 -9.68433
8.07021 -8.5332 -7.2259
4.04125 -16.8446 -10.6169
4.24911 -15.3791 -9.79698
7.84212 -9.35612 -7.31626
3.95269 -15.6311 -9.61455
11.4722 -9.82143 -9.04521
6.8617 -11.0732 -7.73536
7.76954 -8.81668 -6.9616
5.48633 -13.9953 -8.88182
6.48642 -12.7028 -8.34743
8.3594 -8.59181 -6.98595
9.68359 -9.07722 -7.73945
2.79021 -11.7942 -6.94735
5.47709 -13.8944 -8.45664
9.59061 -9.10145 -7.47442
6.61548 -11.0666 -7.25992
3.3498 -20.7145 -11.76
8.87568 -8.93603 -7.06057
12.1811 -10.2198 -8.90809
6.82128 -11.0024 -7.21207
4.6821 -14.6097 -8.47901
6.21994 -12.6185 -7.73936
0.896764 18.5716 -10.1206
14.6016 7.71551 -8.97193
4.20304 -14.2413 -8.01986
14.7076 -11.6385 -10.1106
14.9548 7.43127 -8.89402
13.9941 7.71023 -8.4884
4.76469 -14.847 -8.28542
12.0719 -10.1408 -8.29706
1.81434 -20.5028 -10.5894
11.4058 -9.84331 -7.7188
2.08193 -20.2277 -10.3187
13.9457 -11.0695 -9.00623
0.00541445 14.2797 -7.1671
-7.31839 15.2141 -8.46247
10.5858 -9.59297 -7.1785
7.51096 -9.42096 -6.00311
-8.53302 16.1784 -8.84157
11.6307 -9.76796 -7.35166
10.4864 -9.57759 -6.8198
14.7644 -11.3194 -8.97383
16.6628 15.784 -10.9022
7.47948 -11.0551 -6.35967
14.99 7.40646 -7.84399
13.91 -11.0148 -8.29303
-11.9908 17.1717 -9.59772
15.8143 -11.9829 -9.06495
9.77127 -2.44992 -4.62714
-9.11955 -1.65794 -4.2152
18.6713 18.0168 -11.7055
3.91249 -9.09743 -4.49493
-10.2437 16.7354 -8.81341
-5.35223 4.45102 -3.13093
6.85398 -11.2842 -5.94399
9.42188 -9.08093 -5.77161
15.9922 7.29529 -7.75374
-6.64998 15.1056 -7.21037
1.5005 -18.754 -8.1374
-11.2102 17.0579 -8.79033
9.57748 -3.36882 -4.3484
7.01334 -11.0393 -5.52914
15.7988 -11.943 -8.29073
14.627 7.73199 -6.93869
18.7014 19.4565 -11.2767
1.0206 -22.6471 -9.43789
-4.54062 13.8925 -6.02339
-9.94476 -1.11232 -4.14733
14.0667 7.76715 -6.5599
20.3845 22.1732 -12.2746
-13.0908 2.45326 -5.42586
15.0907 7.16995 -6.75612
-5.233 14.3437 -6.14239
3.63688 -8.80502 -3.79205
13.9219 -10.9926 -6.93266
19.247 21.5404 -11.2033
18.7752 5.7896 -7.61786
1.5389 19.2291 -7.47816
-8.75539 15.7777 -6.9582
11.3896 -10.0424 -5.84095
19.1808 22.2369 -11.3096
0.683384 15.3707 -5.89127
-1.66274 12.7715 -4.9555
2.71343 -12.2449 -4.81213
-8.7784 -1.25378 -3.37065
0.703361 -23.7011 -8.94707
15.1576 -11.616 -7.2025
9.48647 -3.46148 -3.80912
-14.6179 18.0222 -8.65051
-7.89844 -3.50867 -3.16995
1.09644 -10.4653 -3.86996
