ply
format ascii 1.0 
element vertex 1862
comment /media/mkaihara/Seagate Backup Plus Drive/model_iterations/model_28.ply
property float32 x 
property float32 y 
property float32 z 
end_header 
13.4683 -10.7074 -2.32805
-33.3739 -21.1288 -5.28672
-32.3456 -22.5 -5.29959
-31.3396 -23.6295 -5.22366
6.89351 -10.3446 -1.6512
-33.8109 -21.2176 -5.20487
-32.4138 -20.6849 -4.96367
-32.67 -22.5643 -5.14963
10.4928 -9.27043 -1.81
-32.7025 -22.2908 -5.06077
-20.9036 -47.6919 -6.58445
-33.7224 -21.3164 -5.00728
-32.4696 -22.5693 -4.94712
-30.1311 -24.1263 -4.84741
10.9306 -9.52495 -1.8235
11.7319 -9.87049 -1.90797
-31.9892 -21.6595 -4.75102
-32.5188 -22.3666 -4.86157
-31.5326 -23.7925 -4.86485
10.7252 -9.43587 -1.768
-35.7757 22.4127 -5.06463
-19.5658 9.9711 -2.61547
-18.7352 9.33098 -2.50682
-26.7869 -14.4807 -3.55077
-26.1237 -16.0737 -3.53272
46.2918 -10.3678 -5.43841
7.24791 -10.3636 -1.43119
10.0223 -8.96765 -1.49644
42.965 -11.2458 -4.93399
-26.8362 -16.4117 -3.42325
47.4414 -10.8384 -5.27968
-28.5256 -14.6594 -3.4555
10.4951 -9.21003 -1.4964
10.221 -9.07175 -1.4501
13.1855 -10.7101 -1.80525
14.989 -11.5362 -1.99477
9.53267 -4.76148 -1.11615
9.52318 -3.52207 -1.07004
9.52082 -3.41343 -1.06111
-27.3867 -16.3467 -3.33504
10.2362 -9.15593 -1.395
15.478 -11.6558 -1.95637
-27.6063 -12.6926 -3.04814
43.8338 -11.3871 -4.43255
9.80226 -8.91228 -1.28336
14.0568 -11.1549 -1.72482
14.8545 -11.4363 -1.79546
9.51461 -3.41419 -0.970962
15.5084 -11.8666 -1.84785
-23.5802 20.0653 -2.84676
-21.8296 -49.6553 -5.00469
9.49325 -8.37878 -1.18396
8.46738 -8.6118 -1.07216
-24.3351 20.33 -2.82352
11.6656 -9.92519 -1.35851
16.0104 -12.1086 -1.76432
17.014 -12.5178 -1.8391
9.93169 -9.14865 -1.16136
-31.8473 -61.4699 -5.95197
13.5957 -10.9395 -1.48702
-34.0716 -21.338 -3.40443
11.6566 -9.99598 -1.29208
47.3338 -10.2927 -4.01814
40.5035 -13.2621 -3.41555
-29.3596 -14.0736 -2.60435
18.4874 -13.2776 -1.7314
-26.3969 -13.5749 -2.15956
17.2439 -12.6461 -1.50465
-15.9615 -42.6847 -3.10801
-14.1795 -36.6405 -2.6381
42.7658 -11.1898 -2.99679
44.4566 -10.0871 -2.99936
11.8875 -10.1053 -1.01021
13.3582 -10.8458 -1.1072
13.7296 -10.8838 -1.10648
-15.8814 -39.5856 -2.63534
-33.031 22.7347 -2.36344
17.0165 -12.5898 -1.24314
15.9577 -12.0519 -1.15241
17.6661 -12.917 -1.26056
-35.6955 22.4031 -2.29837
-9.41669 -12.3441 -0.827096
-14.9653 -37.9837 -2.20846
-13.3241 -37.7595 -2.14707
-27.7189 -16.2364 -1.67946
-16.2465 -39.8231 -2.25721
-13.9186 -38.5473 -2.14883
-27.2402 -13.3002 -1.56918
-28.2034 -14.3289 -1.64905
39.2657 -8.38143 -2.06923
-37.2959 -71.0994 -3.9508
18.2993 -13.1753 -1.09502
-27.0207 -13.5595 -1.44007
-15.5206 -38.4848 -1.91332
-25.7936 -16.0144 -1.30824
-35.8066 22.4916 -1.52534
45.7037 -9.86404 -1.59956
-30.0763 -13.8059 -1.01246
-25.1103 -53.922 -1.83054
-12.1485 -35.2874 -1.1502
-31.2332 -23.5478 -1.17216
-25.4471 20.7672 -0.888691
37.1481 -8.82641 -1.03452
-34.2306 -21.2686 -0.985852
-33.8958 -21.4383 -0.974563
-31.2764 -62.187 -1.59322
-17.7644 -40.587 -0.936649
-34.1717 -21.4347 -0.763174
17.2352 -12.6161 -0.410589
-33.6912 -21.3051 -0.54591
17.364 -12.7139 -0.247438
13.4587 15.3114 -0.213593
-32.8716 -21.9246 -0.383172
11.2798 -9.74459 -0.133951
-34.9835 -20.3183 -0.337079
-28.168 -8.47637 -0.122666
-28.779 -9.23138 -0.0828605
11.6567 -10.0823 -0.00309315
-12.6547 -19.48 0.034551
43.7166 -9.69721 0.137145
9.193 -8.98752 0.105172
15.3441 -11.7221 0.155051
11.4812 -9.92327 0.141445
13.4949 -10.8461 0.181891
18.5321 -13.2976 0.221719
-27.0829 -13.1213 0.331882
-32.3959 -21.5243 0.447409
-33.8357 -18.1659 0.436944
-34.6452 -21.3355 0.506842
-13.2987 -20.1883 0.278743
-12.5182 -19.6439 0.309588
-12.9992 -19.4724 0.336124
15.277 -11.717 0.284167
-29.4821 -12.7568 0.56609
-35.4447 -19.0906 0.778574
-13.7355 -21.5524 0.509512
-29.6363 -12.9999 0.684041
-34.8299 -19.3922 0.812713
18.575 -13.3331 0.478121
10.6295 -9.34734 0.302419
10.5346 -9.35323 0.349925
-8.14145 -9.65905 0.356833
10.6575 -9.38635 0.421706
13.7336 -10.9694 0.544072
10.4995 -9.57174 0.467204
13.4357 -10.8285 0.569642
-9.13256 -12.8901 0.58789
10.6441 -9.58941 0.534304
13.4282 -10.7602 0.678789
-29.5216 -16.4703 1.36732
-31.2926 -18.0971 1.47065
9.65327 -9.22087 0.564108
-28.3596 -16.9327 1.44721
24.5244 48.6204 2.41398
9.71882 -9.05018 0.589347
10.6078 -9.49725 0.67568
12.4675 -10.411 0.759645
-6.05116 6.51393 0.438599
-6.8298 -8.10949 0.531192
-7.07673 -9.1824 0.571069
-27.7082 -10.9302 1.56112
-6.78594 -8.40629 0.557984
12.1474 11.9896 0.90667
17.2421 25.7462 1.64503
16.6298 25.1817 1.58551
8.978 -8.72402 0.672215
8.75649 -8.66402 0.678087
15.4691 26.5398 1.70695
-28.0504 -8.41236 1.63297
-7.47781 -7.96894 0.614441
10.5199 -9.49328 0.81456
-6.71885 -8.15355 0.633081
-6.6774 -8.38861 0.644829
-7.51267 -7.90498 0.676606
-6.85403 -8.17547 0.667966
9.66313 -8.98522 0.826408
10.6002 -9.48332 0.892545
10.7195 12.5321 1.07284
-7.27507 -9.4249 0.785442
12.9554 19.6693 1.5896
13.5579 21.6422 1.71867
9.71049 24.1524 1.81206
-7.04876 -8.24508 0.75282
-7.05744 -7.57122 0.735666
9.62448 -8.95438 0.933102
11.593 12.1879 1.24582
12.1526 17.2758 1.58895
12.8277 11.7353 1.33636
13.107 11.6745 1.36745
12.5022 11.789 1.33796
12.2784 11.923 1.35516
-7.15892 -9.30232 0.930573
11.8409 12.1859 1.36813
-7.32465 -6.10297 0.753562
-7.01073 -8.04338 0.858967
-6.71346 -8.24755 0.856637
-7.23162 -6.21348 0.75952
9.33884 -7.65283 1.00065
-7.30948 -8.04785 0.905344
-7.32428 -9.80433 1.02288
-7.23722 -7.82015 0.896147
9.27014 -7.02319 0.984787
11.8842 12.1609 1.44579
-6.3333 -4.31714 0.655998
-7.02616 -8.29935 0.93717
-6.78494 -8.35037 0.955915
9.06572 -6.91432 1.01709
8.27779 -7.18796 0.98575
5.96229 -5.93684 0.776881
11.0283 11.313 1.51358
-6.99204 -5.70042 0.861121
10.9485 9.46029 1.40642
-7.12421 -5.68451 0.888738
7.7912 -6.61605 1.00583
11.2566 9.99848 1.48857
11.096 9.23642 1.45026
9.78858 11.7768 1.53376
-6.46967 -6.46486 0.91675
-6.83928 -4.49364 0.828415
-6.93052 -7.26745 1.01745
10.9527 9.23563 1.48231
10.3012 9.61697 1.44488
9.46867 10.3012 1.46211
-6.82432 -4.43455 0.85716
-7.09958 -5.64251 0.969557
-7.07104 -5.68207 0.968401
-6.88355 -4.60617 0.903829
-7.02353 -5.47391 0.967767
8.85719 10.4729 1.52409
-6.86448 -3.41398 0.858738
-6.93507 -4.3267 0.911239
-6.81149 -3.47387 0.858366
-6.85399 -3.55762 0.865348
-6.85901 -4.21202 0.905066
-6.87943 -4.38167 0.92024
-6.87916 -4.4668 0.922918
8.88872 8.95785 1.42935
-6.91776 -3.83429 0.906726
-6.88228 -4.0505 0.904528
-6.8816 -4.13369 0.912185
5.87667 -5.80311 0.954455
-6.89543 -3.39963 0.89531
-6.90472 -4.35001 0.946557
-6.87449 -4.42124 0.948187
-6.87038 -2.81622 0.87008
-6.85159 -3.59942 0.905601
-6.9345 -4.11389 0.948319
-6.88145 -4.18247 0.943086
8.64458 8.1765 1.41202
-6.88585 -2.96838 0.904007
-6.86329 -3.95045 0.950549
-6.84714 -3.63825 0.940898
-6.88952 -4.10598 0.981707
-6.87508 -4.28856 0.992913
-6.43766 -5.3326 1.02164
6.03501 -5.98379 1.03842
-6.87502 -3.73376 0.969427
-6.87306 -3.89751 0.980917
-6.9757 -4.71583 1.05003
-6.90108 -4.36601 1.03013
-6.83597 -3.46196 0.970223
-7.04481 -2.15959 0.940965
-6.85319 -3.06792 0.962634
-6.87163 -3.14507 0.971753
-6.11632 -5.46073 1.06813
-6.89246 -3.21505 0.993926
-6.35229 -4.34358 1.01335
-6.76545 -3.76628 1.02561
-6.85069 -4.16401 1.06326
-7.01632 -2.12462 0.978596
-6.96735 -2.32448 0.987562
-6.87509 -3.25094 1.01531
-6.87409 -3.5224 1.03347
-6.88182 -3.37731 1.04655
-6.99794 -2.15067 1.01664
-6.89806 -3.16438 1.05018
-6.86828 -3.24772 1.04978
-6.81618 -3.63234 1.06554
-6.872 -2.93152 1.04366
-6.83755 -3.39434 1.06487
-6.85224 -3.73633 1.09737
-6.90138 -3.22052 1.07642
-5.97914 -4.4724 1.06198
-6.85627 -3.56733 1.10947
7.78589 6.42193 1.45904
5.29643 8.49342 1.44845
-6.86002 -3.47604 1.11287
7.33359 -3.53869 1.18197
-6.85233 -3.2636 1.10681
-6.84875 -3.37476 1.11287
-6.83284 -3.18525 1.10849
-7.12922 -1.74451 1.08102
-6.88375 -2.92797 1.11034
-6.8891 -3.0149 1.11479
7.20721 5.6741 1.42049
-6.35017 -2.27537 1.04575
7.13446 5.22601 1.41163
-6.97997 -2.39901 1.18665
-6.43528 -2.80836 1.14461
3.86553 8.10167 1.48076
-6.2844 -2.25224 1.1075
-6.45145 -2.27994 1.16484
-6.12438 -2.27109 1.13699
2.6166 7.56649 1.52003
7.8824 -8.57602 -10.2373
8.00963 -8.85935 -10.4515
7.73992 -8.80314 -10.1985
8.24563 -8.37754 -10.0681
6.98078 -11.5265 -11.0401
8.19693 -8.32411 -9.58457
6.98632 -11.9467 -11.2351
8.07412 -8.46228 -9.29458
8.02076 -9.22239 -9.51475
8.29284 -8.75462 -9.37547
7.90658 -9.03967 -9.15864
8.35526 -8.76595 -9.18803
6.34999 -14.0302 -11.4934
7.53854 -9.48154 -9.05201
7.97499 -9.13621 -8.97751
6.24814 -14.3988 -11.5593
6.29588 -12.928 -10.5657
9.3019 -8.90127 -9.4266
9.28499 -9.05669 -9.43892
5.99225 -12.7865 -10.2452
5.92864 -13.1586 -10.333
9.43455 -9.05856 -9.3573
9.28791 -9.09905 -9.2347
6.96269 -11.2707 -9.39657
5.63821 -13.0095 -10.0324
6.54873 -11.0625 -8.84092
8.51944 -8.90679 -8.41715
11.8788 -10.0789 -10.4566
8.30449 -8.69025 -7.95454
7.48765 -9.33957 -7.89368
8.31492 -8.85424 -8.01175
9.23552 -8.85548 -8.42347
7.66323 -9.39495 -7.91811
12.2354 -10.2179 -10.3734
4.68304 -15.8394 -10.6786
9.25367 -8.89081 -8.25142
5.03959 -15.4331 -10.4646
7.81771 -9.37327 -7.81162
8.31539 -8.53764 -7.61979
0.342921 15.6571 -9.98933
4.75958 -15.1865 -10.1313
10.9977 -9.67107 -9.31216
7.97783 -9.14697 -7.69165
8.2268 -8.56193 -7.49256
4.74467 -15.8344 -10.3834
-0.399472 13.5564 -8.48081
8.90737 -8.87196 -7.76312
4.23284 -18.6853 -11.8313
7.98006 -9.1253 -7.4835
8.33478 -8.63946 -7.41206
4.27917 -15.4564 -9.82173
8.28604 -8.71019 -7.34998
4.26363 -18.1969 -11.3978
0.146318 15.0352 -9.15952
3.77424 -17.9062 -11.0743
4.19377 -15.8139 -9.89161
7.10496 -10.9065 -7.81097
8.12016 -9.28666 -7.40915
4.21123 -16.6142 -10.214
8.36125 -8.73944 -7.20497
9.4965 -9.08283 -7.83044
10.7901 -9.30256 -8.51724
7.0769 -11.1576 -7.85675
7.79623 -9.34352 -7.22195
9.143 -8.89344 -7.55744
8.06623 -9.24157 -7.1775
8.65448 -8.84926 -7.22429
9.79357 -9.24421 -7.84885
6.83488 -13.4507 -8.70809
9.33081 -9.05904 -7.50998
5.85111 -13.4928 -8.48587
6.94268 -10.9559 -7.47452
9.65062 -9.19443 -7.58948
12.0846 -10.3639 -8.98692
10.8982 -9.57753 -8.16111
6.93857 -11.1917 -7.39047
9.22605 -9.16983 -7.29366
9.34275 -9.10736 -7.29457
12.764 -10.6539 -9.28545
4.68441 -14.4544 -8.49212
10.3052 -9.48252 -7.82741
8.60108 -8.78052 -6.8411
2.7433 -17.2777 -9.6509
8.16491 -9.41291 -6.92458
14.9714 7.65779 -9.19782
2.70078 -19.7634 -10.8503
2.43479 -8.82014 -4.96206
2.97395 -19.8395 -10.8398
14.9418 7.7831 -9.05116
2.35794 -20.094 -10.745
11.0786 -9.71547 -7.83782
9.87729 -9.12156 -7.11951
15.1353 7.59568 -8.96583
2.36995 -8.83762 -4.83537
1.64952 -19.6581 -10.1907
2.37805 -20.7182 -10.6974
14.1383 -11.2962 -9.27217
-9.22506 -2.58544 -4.87669
11.4675 -9.93002 -7.70344
2.16702 -20.1652 -10.2217
10.235 -9.3438 -7.00139
0.845216 17.5373 -8.73407
11.1205 -9.75587 -7.37402
-8.80383 -1.9366 -4.42142
2.20303 -20.0838 -9.92125
3.87639 -9.24461 -4.92298
11.384 -9.7679 -7.34287
1.99144 -19.7933 -9.72407
-8.20102 15.7283 -8.59685
2.50981 -11.2194 -5.50055
1.99074 -21.0009 -10.0455
0.62935 17.208 -8.15899
15.107 7.72288 -8.01415
17.7248 16.6037 -11.4929
18.1087 17.3538 -11.6597
14.5536 -11.5079 -8.60229
9.87384 -2.6284 -4.73734
17.6627 16.6266 -11.2149
9.82044 -2.48568 -4.68754
-10.0022 16.4162 -8.75832
-9.4945 -2.05719 -4.40566
9.92379 -2.62585 -4.66053
10.2597 -2.41606 -4.77544
9.8294 -2.99855 -4.65223
-5.34414 4.40461 -3.12072
8.1527 -8.3905 -5.27453
18.2676 17.8023 -11.4593
18.1306 17.9733 -11.4828
19.5109 5.93549 -9.15189
7.20729 -10.9989 -5.85737
20.6727 5.42798 -9.49988
9.62726 -3.44522 -4.54705
-9.69131 15.9221 -8.27376
-5.29118 4.84779 -3.17739
19.6154 5.66695 -9.02851
-11.0144 16.7867 -8.83117
18.416 18.2696 -11.3806
-6.39999 14.6612 -7.01892
9.65553 -3.62472 -4.49528
20.4043 5.52975 -9.16884
18.5781 18.8519 -11.4177
18.3674 19.0077 -11.399
15.0746 7.71522 -7.22164
3.88552 -9.40972 -4.31455
-10.9674 16.6781 -8.43064
-13.2989 3.2572 -5.77088
1.26704 -21.4017 -8.98376
3.26786 -10.2372 -4.49527
14.3796 7.74638 -6.83286
19.191 20.0371 -11.6131
3.89118 -9.23459 -4.17259
15.0194 7.83175 -7.03008
18.8588 20.1071 -11.4544
14.213 7.85147 -6.68134
4.0154 -8.50098 -3.85399
6.84022 -10.9571 -5.2897
-13.2389 2.49015 -5.51299
15.1811 7.60917 -6.9252
-7.82898 15.1397 -6.92559
1.19038 -10.5866 -4.32733
0.758101 -21.5785 -8.74523
-12.8095 2.32008 -5.23715
-9.2483 -1.42791 -3.73607
-5.01534 5.56422 -2.96836
2.84087 -11.7727 -4.77667
14.4086 -11.3674 -7.17367
4.13763 -9.53791 -4.07408
1.52849 19.3334 -7.54048
3.97988 -13.2732 -5.35574
19.2971 5.89949 -7.77961
0.87037 -25.6241 -9.79261
4.77751 -8.72487 -3.77523
11.8619 -10.2692 -5.96105
19.6656 5.66299 -7.75998
20.808 24.6728 -12.0608
20.2733 5.50624 -7.84089
21.0952 24.5922 -12.0808
3.29543 -10.9484 -4.26461
-12.7035 17.1056 -7.85795
12.036 -10.214 -5.8033
20.6767 5.27866 -7.82568
21.7525 26.0092 -12.3248
-8.12756 -2.80245 -3.1146
19.5853 5.81065 -7.35768
2.29195 -13.2765 -4.84698
0.808021 15.8768 -5.70108
-4.1925 13.6497 -5.08816
-8.18086 -2.78562 -3.08348
6.80578 -10.6264 -4.47923
-15.5254 17.9374 -8.38308
16.2228 -12.2499 -7.20059
-10.7961 16.2725 -6.82325
19.6321 5.98571 -7.12968
3.74235 -8.7265 -3.27428
-8.57064 15.581 -6.0473
3.02353 -13.6304 -4.76044
19.3109 -13.8137 -8.12117
35.2606 -21.8451 -14.0949
-14.5036 17.7655 -7.73777
20.3931 5.54115 -7.08729
38.2849 -21.6187 -14.6799
42.1413 -20.7391 -15.6506
16.6946 7.48873 -6.09818
3.48082 -10.3536 -3.64102
1.35034 -10.9215 -3.63764
-6.10492 14.5562 -5.14463
-12.3375 16.9194 -6.8123
16.0325 -12.321 -6.57702
6.09659 -9.9316 -3.74489
3.365 -10.2057 -3.44523
-1.0966 -23.0842 -7.38464
2.33144 -11.0506 -3.59752
3.26098 -10.146 -3.37624
2.84131 -9.08407 -3.00113
13.8215 -10.9289 -5.53724
-17.392 18.7986 -8.0161
-8.6508 -2.63492 -2.83234
29.4453 -16.1518 -10.5343
1.35422 -21.1564 -6.54753
20.4393 26.4668 -10.086
3.25224 -9.9515 -3.15558
3.4642 -9.01055 -2.90524
-13.9317 17.4228 -6.67076
-20.6884 19.2926 -8.37591
-7.7233 15.0145 -4.96458
4.82908 -12.1269 -3.82253
4.18382 -8.993 -2.91523
2.09682 20.8233 -6.14975
-4.22757 14.2023 -4.33777
4.08736 -9.02309 -2.89564
-14.8155 17.8234 -6.68091
-30.4523 -43.5192 -15.1982
7.22295 -11.2461 -3.81204
2.5564 -9.51351 -2.79249
-8.35538 -2.18864 -2.435
4.49149 -11.1461 -3.38682
-2.3604 -23.8439 -6.71824
-8.99805 15.5133 -4.9362
4.40932 -11.3747 -3.36232
8.65634 -8.44325 -3.32215
-12.6851 16.8999 -5.78133
47.262 -15.6693 -13.571
-8.66986 -2.42506 -2.43768
-23.6037 19.8104 -8.33316
3.2766 -10.0683 -2.86052
3.43181 -10.0787 -2.87477
-4.03335 -29.0235 -7.87223
-25.8973 19.8614 -8.69782
44.1202 -14.5562 -12.2769
47.644 -13.7918 -13.1214
-8.03913 -36.2016 -9.77554
-7.76359 -36.6264 -9.87486
-13.9907 17.5314 -5.81825
9.94351 -9.0426 -3.51224
11.4499 -10.1666 -3.97696
-10.3101 16.0854 -4.94006
-13.0798 2.02089 -3.46099
-4.06271 -26.6495 -7.00818
3.29008 -9.94363 -2.70684
3.55377 -10.3957 -2.84221
-25.3325 20.0824 -8.28983
4.32283 -11.1687 -3.02905
4.44637 -9.77414 -2.70772
9.56881 -9.25353 -3.35501
6.99303 -11.4891 -3.37463
-26.265 20.2658 -8.28697
45.4799 -13.2384 -11.8177
-11.1596 16.4404 -4.92882
11.952 -10.292 -3.89779
3.40001 -10.339 -2.67716
-23.6909 19.9004 -7.56718
10.071 -9.09494 -3.2642
-7.60078 14.8249 -3.99642
4.11775 -12.1633 -3.09259
15.2928 7.68128 -4.09708
3.4252 -11.2539 -2.81909
3.19351 -9.95691 -2.49141
4.88016 -12.7192 -3.27825
-6.31923 -36.1675 -8.74322
-10.4317 -40.0845 -9.82564
3.99895 -9.16023 -2.36356
-27.8527 20.8149 -8.21289
15.1015 7.72948 -3.97498
-9.13009 15.7694 -4.27681
3.98685 -11.4928 -2.86207
-12.4253 16.9392 -4.90723
-25.5095 20.2414 -7.56099
3.50564 -10.3812 -2.51195
11.1637 -9.58405 -3.39475
15.8993 -11.9858 -4.56018
-35.7805 25.3162 -10.0215
-11.6513 -40.5692 -9.62575
11.0295 -9.64368 -3.35103
-10.9667 -39.4224 -9.28863
-5.82166 -29.5345 -6.85458
42.0289 -12.9934 -9.96729
-26.1047 20.1665 -7.44151
14.9198 -11.5781 -4.24564
-29.6203 21.5159 -8.21381
4.46128 -5.82044 -1.64618
5.33916 -9.2549 -2.39012
-25.2197 -65.0671 -15.4371
-9.33447 15.6248 -4.0065
-12.1706 -41.8073 -9.58487
4.14683 -9.87127 -2.35551
13.6404 -11.0033 -3.8631
4.04708 -9.26634 -2.22296
42.422 -12.5454 -9.68684
-22.7005 19.7873 -6.56568
3.42313 -10.1831 -2.30456
4.44366 -10.0018 -2.36733
15.177 7.62925 -3.65083
-27.8783 20.86 -7.48353
-20.3621 -32.2843 -8.20255
-7.88421 -33.4042 -7.34466
-23.5861 19.8927 -6.57326
-29.8687 21.6946 -7.85519
3.28624 -10.0448 -2.25449
4.91127 -8.93119 -2.16093
14.9863 7.82565 -3.57991
4.28663 -10.6282 -2.43772
43.1266 -11.239 -9.4433
-10.1961 15.9706 -3.99531
4.37554 -9.22614 -2.14119
3.16608 -9.16255 -2.00842
5.20216 -9.12608 -2.20027
14.9864 7.54129 -3.49704
-36.4355 23.9927 -9.07975
-26.356 -24.4381 -7.43053
3.04207 -9.51563 -2.07622
-27.6343 -29.1408 -8.27588
-19.0744 -29.7846 -7.28469
-30.6107 -78.3044 -17.3549
3.88928 -9.41405 -2.10108
3.76617 -8.80254 -1.96455
-15.1105 17.8678 -4.78804
-22.3753 -59.3134 -13.0179
4.01996 -8.85069 -1.98726
-34.0234 22.7851 -8.32453
-13.7993 3.01884 -2.88603
-32.3966 -22.8959 -8.09073
-24.3391 -67.2361 -14.5624
-10.6739 -34.3796 -7.32415
45.4243 -9.92056 -9.44351
15.149 7.73958 -3.41037
-17.2686 -22.8764 -5.76081
12.5 -10.215 -3.24567
-17.307 -49.5152 -10.4734
4.23386 -10.8911 -2.32954
-11.6387 16.6884 -4.03983
-25.2345 19.8556 -6.36371
-34.2859 -20.2967 -7.92177
-31.0906 -24.281 -7.81907
-8.62047 -33.4224 -6.87686
14.754 -11.6321 -3.72157
4.07207 -9.92626 -2.11421
3.25965 -9.9616 -2.05394
-34.1171 22.5431 -7.94577
-21.2856 -51.2558 -10.7313
-14.8053 -42.7533 -8.63249
3.52173 -8.99068 -1.84854
-19.385 -31.3962 -7.00716
-30.9037 -24.1183 -7.39252
-28.0606 -24.9171 -7.06498
-20.1958 -49.9094 -10.1897
3.92906 -9.19239 -1.90314
-15.5043 -42.2901 -8.43322
-23.7911 -54.0625 -10.8675
3.47495 -9.3084 -1.83383
-31.3743 -23.4174 -7.12778
-30.1624 -25.8619 -7.24209
-31.6251 22.2651 -6.97108
-18.7187 -46.3152 -8.91658
-30.193 -24.3221 -6.81993
-22.0032 -56.9751 -10.7634
-32.8418 21.8557 -6.90678
-15.3266 -43.2229 -8.04465
3.4397 -9.66735 -1.79277
14.2953 7.93404 -2.83691
-33.5144 22.9657 -7.04589
-27.9224 -24.4729 -6.45838
3.51328 -9.62106 -1.77548
4.83988 -8.73227 -1.7297
-25.8675 20.3087 -5.68244
-29.5134 21.4656 -6.29367
-29.8907 -27.5318 -7.01292
3.93467 -10.1243 -1.87336
14.139 7.62236 -2.76159
-21.7411 -49.957 -9.26874
-19.9262 18.959 -4.64015
-30.4357 -24.1911 -6.59341
-18.285 -45.3361 -8.29212
5.68685 -11.9145 -2.22817
43.7587 -12.3589 -7.70743
-16.884 -45.0659 -8.1053
42.7992 -11.1357 -7.43812
5.06449 -10.867 -1.99501
6.78359 -11.2716 -2.22158
-9.98424 15.8731 -3.0408
-29.3545 -22.7232 -6.05005
44.172 -11.8626 -7.44193
-21.3351 19.3808 -4.67443
7.68225 -9.25802 -1.9052
-18.8558 -46.6511 -7.994
-22.0949 19.4269 -4.63987
-23.249 19.8193 -4.75251
-31.555 22.228 -5.97139
3.86364 -10.2334 -1.68014
-31.0049 -23.9731 -5.99119
-12.8496 -38.7684 -6.27648
-29.8328 21.711 -5.60853
-20.8871 -50.2717 -8.29308
-7.3423 14.8663 -2.49806
-32.2291 -22.6492 -5.93544
-31.5218 -23.1742 -5.92873
-26.8492 -25.1917 -5.54132
-32.0835 -23.0914 -5.92946
-30.3031 -24.2571 -5.80305
-33.614 -22.4515 -6.00099
-23.914 20.0747 -4.60234
-31.9856 -23.9357 -5.88798
-31.0207 -23.4911 -5.74675
-24.5497 20.2298 -4.65327
-30.4981 -25.3038 -5.80271
-11.6356 -38.5628 -5.90702
-12.1515 16.622 -2.96511
-7.36081 14.7251 -2.3458
3.54584 -9.66066 -1.46366
39.771 -13.0802 -5.95364
-32.3078 -23.7989 -5.67695
-29.6052 -23.5291 -5.32267
-25.084 -53.0149 -8.32767
-29.075 -24.5227 -5.35662
-22.3505 -51.5289 -7.84482
-18.992 -45.7632 -6.90684
-6.54262 14.4954 -2.15713
-13.4845 17.2282 -2.96695
-10.8677 -38.0463 -5.39046
-7.11225 14.4136 -2.15663
-21.8487 -56.8785 -8.24665
-21.5551 19.6027 -3.87989
-22.6066 -51.2415 -7.44406
-30.2984 -23.3888 -5.05281
47.1618 -10.8678 -6.36366
46.4658 -10.2148 -6.26639
-12.4657 -38.7415 -5.35104
6.72109 -11.0768 -1.70333
-14.4549 17.7051 -2.97391
-21.9591 19.3409 -3.79306
-31.8066 -17.0719 -4.65905
-31.5314 -23.5395 -5.06623
10.8796 8.92373 -1.81811
-32.2102 22.1475 -5.01887
-28.4749 21.6682 -4.51049
-29.9355 -23.4372 -4.79678
-12.0196 -34.1993 -4.58534
-30.2116 -61.592 -8.59282
9.76366 -9.13793 -1.6684
12.9566 -10.5889 -2.1061
-32.3022 22.6606 -4.93398
-34.8557 -21.7151 -5.11508
-29.5823 -24.4512 -4.76936
6.85325 -10.4227 -1.55624
-31.853 -22.5146 -4.83406
-12.5939 -39.2925 -5.07738
13.3627 -11.1396 -2.13499
43.33 -11.2617 -5.527
-15.5878 17.9452 -2.90493
-14.9999 -36.3593 -4.80952
-8.40812 15.0309 -2.09649
45.3357 -10.4436 -5.6324
15.2304 7.95085 -2.06491
9.50215 -9.01615 -1.56344
-32.609 -22.7516 -4.71532
-17.1892 18.6823 -2.97024
-20.3176 8.9912 -2.63307
-30.6775 -23.75 -4.57609
-23.45 -53.1313 -6.82535
11.4133 -9.81812 -1.76232
43.7117 -11.7019 -5.32719
14.9245 -11.5882 -2.17125
15.153 7.78911 -1.93837
-28.6766 21.8086 -4.11008
7.35717 -11.172 -1.51745
-9.8622 15.7459 -2.08
9.54135 -9.4065 -1.49117
12.9356 -10.6244 -1.8661
14.1658 -11.1809 -2.00691
9.54213 -9.20213 -1.471
7.135 -10.5659 -1.39614
46.3738 -10.1283 -5.1658
-10.4987 15.7708 -2.04238
-31.7423 22.3832 -4.21847
11.8494 -9.95561 -1.67078
6.28564 -12.9252 -1.51103
7.65435 -11.7163 -1.45581
9.93859 -8.98758 -1.40952
-14.1923 -41.0121 -4.55167
16.8348 -12.467 -2.19643
-27.8105 -55.873 -6.47529
15.0928 7.60009 -1.72832
-30.006 -23.9135 -3.94167
14.0162 -11.0899 -1.83124
-30.736 -23.775 -3.93207
15.0835 7.88096 -1.7111
-12.212 16.3315 -2.00365
-18.6797 -47.3618 -4.93488
-29.5579 -59.7106 -6.37985
-22.5222 19.702 -2.82745
-29.8564 -24.4585 -3.66919
-29.8249 -24.774 -3.69568
-19.6672 -51.4644 -5.19638
-13.5557 17.3462 -2.06055
-30.1391 -23.5794 -3.57166
-14.584 -39.7243 -3.94328
-12.8384 -39.9046 -3.91156
9.91143 -9.18675 -1.25555
-30.1706 -58.7712 -6.08742
8.63248 -8.73051 -1.11462
16.7656 -12.4919 -1.91227
-14.4213 17.6909 -2.04759
-34.5766 -21.5058 -3.68524
-31.6926 22.3766 -3.41774
-29.9239 -24.1415 -3.39805
14.2359 -11.3226 -1.61431
-31.1386 -18.9752 -3.11165
11.1658 -9.79893 -1.26471
-25.5996 20.7654 -2.76922
-10.6419 -33.1226 -2.94104
9.48261 -9.09231 -1.10283
-32.38 22.2627 -3.26571
8.75791 -8.75954 -1.01727
17.0343 -12.4232 -1.72176
-15.5171 -40.3214 -3.47301
-19.8196 -45.3389 -3.87389
-14.3682 -35.4714 -3.03414
-12.4702 -34.9893 -2.95193
9.28239 -9.02071 -1.01678
11.4062 -9.88781 -1.1832
15.0789 -11.7944 -1.51519
-28.6807 21.8717 -2.80754
-28.4986 -13.3025 -2.44369
11.9924 -10.1598 -1.21799
-21.3481 -47.545 -3.99241
12.9345 -10.7361 -1.27319
-36.5182 -69.2824 -5.66829
10.0414 -9.21592 -0.987603
11.0207 -9.83732 -1.0294
-32.1515 -19.9594 -2.61822
12.0884 -10.1598 -1.0931
14.9225 -11.7493 -1.31964
-14.5489 -36.7631 -2.69109
-14.1385 -37.4031 -2.74153
18.908 -13.6646 -1.54816
-22.4247 19.6344 -1.97886
-22.6733 -52.3041 -3.76998
13.032 -10.7204 -1.1278
-13.648 -37.8644 -2.61607
15.499 -11.7026 -1.26159
-29.3187 -59.3612 -4.15778
-13.7471 -42.6109 -2.78258
-31.4329 22.2056 -2.35636
-29.7831 -58.8976 -4.01705
-15.8831 -38.6901 -2.55029
31.9319 -21.1709 -2.33102
43.4588 -11.3331 -2.72591
37.5454 -9.05221 -2.33951
-14.1318 -37.9414 -2.44641
-25.8986 21.0193 -1.89195
-28.2318 -13.8992 -1.81872
-37.0826 -71.656 -4.59103
-14.7843 -38.5156 -2.30116
17.1763 -12.8165 -1.20009
-26.448 -15.9154 -1.66188
44.0753 -9.81797 -2.32167
-9.26509 -12.3796 -0.78506
-14.3918 -38.3011 -2.03786
5.81704 -12.6957 -0.693354
-13.6682 17.3275 -1.07672
-13.8367 -43.4914 -2.24131
15.1044 7.9243 -0.822743
-15.2561 -39.1058 -1.99475
-13.3151 -43.3054 -2.13755
19.0645 -13.5266 -1.11977
-15.7726 -45.7428 -2.25671
37.8616 -9.29916 -1.82633
-28.1309 -14.3846 -1.41396
-22.3173 -51.1378 -2.47371
-15.4927 -38.1194 -1.83135
9.74939 -9.20007 -0.597465
12.7568 -10.4706 -0.740429
45.8463 -10.4905 -2.09086
-13.0227 -39.6135 -1.7745
-31.3647 22.1726 -1.60074
-50.5869 27.474 -2.29777
-32.3562 22.2675 -1.44239
-17.3645 -45.4101 -1.82395
-33.4492 -21.0635 -1.41294
9.83682 -9.15459 -0.49387
6.68857 -10.9678 -0.445487
-12.1996 -36.3684 -1.26911
7.59367 -13.329 -0.523485
18.953 -13.4241 -0.783936
-24.3652 -53.3645 -1.93037
-12.5266 -35.5386 -1.22024
21.921 25.2828 -1.07682
-22.2486 19.7521 -0.938001
-21.6603 -54.267 -1.86856
-19.1347 -48.9976 -1.62999
21.4694 -14.6409 -0.789328
-26.9491 -13.8682 -0.91887
-12.0515 -38.5694 -1.20051
-23.1811 19.6973 -0.874774
-21.7508 -50.0573 -1.55115
-16.1925 -43.8247 -1.3466
22.9727 -10.3383 -0.759939
-33.3375 -20.3125 -1.07969
-9.64971 -12.6604 -0.454641
-21.0308 -49.5968 -1.51923
18.3566 -13.6753 -0.582149
33.0444 55.1461 -1.67033
-28.8244 21.993 -0.933387
-29.9358 21.8961 -0.918548
-26.5944 -12.7783 -0.723221
9.65234 -9.08328 -0.320638
-19.9355 -32.1103 -0.880485
-38.748 13.4409 -0.897975
21.6719 -14.501 -0.55303
-50.6911 18.2828 -0.996223
18.7771 -13.5374 -0.433772
12.9739 -10.6586 -0.279447
-6.88922 14.9128 -0.288042
-32.1413 10.1647 -0.558326
-27.6061 -13.1459 -0.484197
-35.8148 -20.396 -0.625975
-16.8835 -41.389 -0.690014
-7.49712 15.7673 -0.23777
-31.4369 -23.4842 -0.543708
-32.7585 -22.3317 -0.507124
-31.3458 -63.336 -0.873036
17.5972 -13.1292 -0.265887
18.5569 -13.361 -0.28945
29.7815 -18.3642 -0.465993
-19.5499 -50.0716 -0.649944
-28.9941 22.1057 -0.390383
-36.3018 -20.2926 -0.459088
-25.4044 -54.2091 -0.635095
-17.4407 -40.0028 -0.465534
-50.2929 27.5625 -0.479246
-30.9936 -54.6746 -0.576827
-18.3878 -48.2256 -0.488106
38.6147 -9.32905 -0.364611
-13.7687 17.4765 -0.157408
-31.2363 -69.5606 -0.518471
-16.739 -40.6005 -0.29726
-28.6615 -8.91233 -0.174119
9.6611 -9.09086 -0.0411688
13.3069 15.2297 -0.0427006
15.0025 7.8978 -0.029557
-28.6875 -12.7975 -0.0569551
-11.4498 -16.6706 0.0249902
-12.5767 -18.9299 0.043769
-17.4957 -40.1615 0.182891
9.52448 -9.06811 0.0600601
-31.4042 22.2251 0.198107
-19.906 -50.2539 0.264583
-29.4363 -13.6618 0.194808
17.1035 -12.4795 0.118732
-12.8042 -19.6322 0.153519
14.9123 -11.6163 0.149039
-50.6189 18.1362 0.473955
7.19203 -12.3577 0.120147
16.2371 -12.0321 0.171881
-35.2343 -21.3212 0.432394
39.3288 -8.08357 0.418512
-34.1331 -21.3903 0.459243
-11.8839 -32.8238 0.409205
-12.3452 -33.1989 0.430989
-10.6304 -30.6116 0.395977
-9.16168 -28.3471 0.3621
28.3129 57.3293 0.829744
9.67367 -9.09897 0.171792
-12.4976 -19.3661 0.314441
-10.2939 -31.2486 0.452477
8.63409 -8.57729 0.184565
6.40249 -13.0985 0.21236
7.23449 -11.1481 0.202933
9.42686 -9.13875 0.189718
8.09588 -9.1862 0.195884
9.81069 -9.0841 0.220332
38.7806 -8.30887 0.651182
-23.0605 19.7759 0.542451
-32.1613 -21.638 0.667459
-33.3124 -24.441 0.724237
13.0667 -10.7344 0.277273
13.3835 -10.7949 0.322417
-9.77977 -12.3998 0.298315
6.91148 -11.3273 0.258781
8.0547 -9.46644 0.24446
28.9492 59.566 1.32449
7.05766 -11.0936 0.264376
9.25252 -8.75461 0.270682
11.6456 -10.0097 0.336647
17.4516 -7.79501 0.38493
7.29313 -11.0655 0.299986
-9.32643 -12.04 0.385383
-12.5089 -19.2026 0.54816
7.70914 -9.38583 0.276712
7.89536 -9.44206 0.28579
-24.7313 20.7865 0.837266
-28.306 -9.07712 0.745658
9.70101 -9.02629 0.340949
17.7674 -12.9796 0.555048
18.6295 -13.4145 0.571284
-22.2061 19.4421 0.767162
-26.7283 21.1241 0.887409
-28.3224 -8.50041 0.773828
-32.2327 -17.1864 0.992265
-13.0514 -19.7083 0.628987
14.9529 -11.6184 0.505491
23.0615 -3.35546 0.655884
-11.9368 -18.613 0.640369
25.3763 -4.80736 0.751894
16.9685 26.3335 0.937763
-27.2811 -20.0975 1.00314
7.31191 -11.4537 0.408021
7.03963 -10.8105 0.392917
15.2728 24.88 0.895213
-7.55729 -8.73259 0.353101
13.1789 -10.7838 0.520168
-7.25225 -9.42583 0.364274
-27.9713 -7.89496 0.966871
-11.6632 -17.0491 0.692316
7.93441 -9.42457 0.407677
16.4007 11.2053 0.710833
10.957 -9.54082 0.527894
12.0128 -10.1497 0.573173
24.5578 49.4518 2.07207
-7.39115 -8.06937 0.408935
9.72891 -9.03134 0.495654
23.1324 -3.24787 0.896861
29.1645 60.2888 2.59141
-7.37541 -9.78941 0.479482
10.5235 -9.59799 0.558817
12.8659 -10.6261 0.674345
21.8468 -2.67759 0.89741
-28.4215 -17.2426 1.35959
8.80315 -8.76364 0.513418
-6.86907 -8.39902 0.466365
9.51164 -8.99782 0.547437
12.9286 14.8414 0.868685
-28.2958 -8.30423 1.29559
15.1152 19.6877 1.11484
15.6135 26.8833 1.38444
23.1051 45.4351 2.25311
6.29945 -14.0355 0.68575
10.9411 -9.59881 0.658355
18.6804 -1.65787 0.857981
20.5685 39.1635 2.07377
15.5664 27.427 1.47791
-11.0825 2.74887 0.54906
-7.17735 -9.46057 0.572742
9.2392 -9.05576 0.612776
11.4936 -8.81814 0.678498
20.3452 -2.33153 0.986533
11.8187 12.0448 0.83754
17.1785 41.3132 2.19869
7.82233 -9.53378 0.607018
10.2704 -9.35408 0.688004
15.114 25.6292 1.48922
21.324 41.3519 2.36071
21.2612 -2.64861 1.08954
-7.34688 -8.44059 0.58054
9.45847 -9.0056 0.68011
17.281 25.3415 1.61069
17.261 31.2924 1.86454
13.1509 -10.8399 0.905662
10.7359 12.5503 0.882869
14.5982 19.8159 1.3216
11.1764 -9.69118 0.799989
15.4076 20.0747 1.39506
-25.4051 19.4747 1.74719
-6.91699 -8.11506 0.589872
10.4283 12.6077 0.915859
-7.1988 -9.29317 0.658467
10.1634 12.6609 0.941199
-26.8289 18.8886 1.86104
6.20794 -13.1107 0.830292
11.3656 12.2865 0.961577
-6.8413 -6.75181 0.557326
11.4559 12.216 0.985716
-6.75776 -8.35045 0.642932
6.34749 -12.7594 0.832492
15.0325 20.001 1.504
14.5964 23.8651 1.6683
14.1127 32.616 2.13237
-6.05584 6.44992 0.542144
-8.10823 -7.68285 0.675574
-7.06544 -8.10534 0.660346
5.81305 -12.6421 0.841143
-7.43423 -6.84456 0.628524
7.08341 -11.2859 0.823831
7.05661 -10.6648 0.79809
11.4466 -9.88089 0.933987
12.2514 -10.2489 0.989958
16.4178 7.27113 1.14384
15.2787 19.7927 1.58149
-7.19591 -6.27125 0.618919
10.3534 -9.45608 0.904983
-7.33613 -6.22367 0.630891
11.6637 12.3077 1.15502
9.8921 22.2694 1.65899
-7.2084 -9.56843 0.800522
11.834 12.8351 1.19728
-6.92401 -4.4372 0.565345
-6.70531 -8.14385 0.719421
-6.67092 -4.41465 0.551447
9.3459 -8.93535 0.900185
10.0714 -7.90179 0.901798
12.9887 16.3706 1.51064
-6.63366 -6.62621 0.651342
9.88599 -8.34833 0.94621
11.7457 17.5628 1.58811
11.698 18.6501 1.64427
9.87096 18.7877 1.6002
9.30856 20.1174 1.66701
7.6611 22.834 1.81067
11.0719 19.1109 1.68238
10.0871 -7.65326 0.968179
-6.98507 -7.14512 0.765578
-16.9897 -6.16227 1.41286
9.53924 -7.73353 0.962692
9.61413 19.2025 1.69478
-6.3555 -4.24366 0.605531
-6.78253 -8.16311 0.84139
4.84912 -5.7503 0.598012
9.31849 20.5015 1.78609
8.02909 19.6316 1.70538
5.04416 -5.81355 0.620093
12.9803 11.7128 1.41646
11.9696 12.0234 1.38898
6.78635 -9.46737 0.946771
12.4311 11.8901 1.41377
6.94095 20.3764 1.76218
-6.33161 -4.37082 0.626703
-7.10182 -9.39923 0.967079
11.7389 12.2984 1.40646
10.6071 9.27938 1.19984
-4.98154 -11.3656 1.0488
6.15183 -6.07157 0.754456
9.27808 -7.22796 1.01157
-6.7579 -6.65615 0.805749
10.6123 12.5766 1.43635
8.85448 -7.3781 1.0019
11.0127 12.4144 1.45218
-7.26097 -7.71275 0.92864
8.24128 -7.33686 0.97967
10.3876 12.6968 1.47461
-7.0255 -7.69137 0.923618
-6.88928 -8.28175 0.966864
10.7819 12.5334 1.50112
10.7043 13.8081 1.58277
-7.0664 -8.26911 0.990882
11.3889 11.0009 1.4563
-6.29049 -4.21508 0.69594
-6.8115 -8.53116 0.998907
-6.30388 -4.37733 0.707111
11.2209 8.65957 1.32993
10.7825 9.4525 1.33684
6.67532 15.8575 1.61845
11.2385 11.173 1.47899
10.6767 11.4862 1.48379
-11.1273 2.85139 1.08441
6.18336 -5.99033 0.820742
8.05045 -6.6739 1.0044
10.8823 9.31892 1.39074
9.70246 12.7666 1.55259
9.88851 12.6902 1.58499
7.8147 12.4981 1.46427
8.07877 13.5055 1.56657
11.3594 8.15724 1.42518
7.28926 12.9712 1.50175
9.212 11.5446 1.5028
7.15947 13.8609 1.59679
6.02408 14.3147 1.59472
9.3382 10.6461 1.46361
9.19824 12.5314 1.61515
11.5209 7.7473 1.44825
9.38653 10.1513 1.43948
4.98993 -5.83904 0.824546
-6.81652 -4.63607 0.869285
5.72947 14.2748 1.63309
-7.02795 -4.48677 0.888898
9.06829 10.8659 1.5196
-6.72952 -6.73911 1.01865
5.9332 -5.85626 0.900485
9.81242 8.63935 1.40916
9.08424 9.48829 1.41283
9.39703 10.4756 1.52581
4.92551 14.2758 1.63049
4.26481 -8.1109 0.992479
6.58262 11.0129 1.41206
-6.77415 -3.90915 0.860538
6.47834 12.1473 1.52775
-6.8672 -3.84734 0.871671
9.81758 7.28461 1.36706
6.79676 11.6001 1.49758
9.91185 7.10672 1.37013
5.55273 11.8377 1.47882
5.56525 12.3752 1.53302
4.82257 12.551 1.52191
9.93811 6.75476 1.36946
-6.86264 -4.54426 0.942352
7.44545 -6.26261 1.10898
-7.29748 -0.781901 0.840934
-6.24901 -5.36829 0.948599
5.26752 -5.58751 0.886062
8.98188 7.98516 1.40019
4.44172 -7.22155 0.982045
10.5107 5.2035 1.37346
9.06553 7.88662 1.41251
5.21881 -5.63137 0.907063
8.70649 8.01431 1.40418
9.02388 9.18037 1.50615
-7.01393 -5.62388 1.06357
10.2312 4.7908 1.346
-6.89077 -3.83623 0.949922
9.23195 6.20614 1.3492
5.32748 11.6781 1.55653
-6.86642 -3.05362 0.91268
-6.85082 -3.23889 0.916001
4.89934 -5.97498 0.943078
6.00128 -6.15714 1.04684
9.46269 5.67592 1.36408
8.55793 7.30632 1.39133
-6.92149 -4.29256 1.00299
-6.85309 -4.51603 1.01126
8.36837 8.69943 1.49771
5.14533 11.572 1.57313
-6.5216 -5.59315 1.06906
3.73148 -7.62065 1.05723
8.60539 7.83595 1.45639
6.10342 -5.641 1.042
9.25828 6.12162 1.40659
-6.11044 -5.39176 1.02812
8.63936 6.68355 1.39303
8.18316 7.59784 1.42057
-7.0714 -1.77547 0.932042
-6.98545 -2.29677 0.938663
-6.4189 -5.29676 1.06161
8.91251 5.71396 1.35726
8.25714 8.14636 1.49512
-7.23133 -1.24767 0.940434
-6.86994 -4.10222 1.03417
7.50579 6.28325 1.26786
8.16796 7.11915 1.40508
8.06999 8.22849 1.49364
-6.88337 -2.81516 0.967787
-6.88458 -2.95446 0.968169
4.64544 10.288 1.48409
9.06871 4.1434 1.3124
-7.21597 -1.5991 0.970805
6.86585 -4.27552 1.07498
4.9472 -5.96649 1.02758
-7.29961 -1.11203 0.98782
-6.98574 -2.19039 0.978876
-7.02251 -2.2593 0.985106
-5.97432 -4.38306 0.989994
5.21248 -6.59524 1.1203
6.93707 -4.19219 1.09123
8.16381 7.25056 1.47932
-7.12072 -1.71085 0.984057
-7.05305 -1.94752 0.983648
8.86881 4.89639 1.376
8.41139 5.92922 1.3993
-6.89346 -3.60458 1.05967
8.93693 4.19441 1.35416
3.43234 10.7888 1.55097
-7.27948 -1.19447 1.00927
-5.98931 -4.42604 1.024
-5.96973 -4.5244 1.02522
7.17647 -3.94984 1.12593
8.15484 6.5526 1.44694
5.44367 9.20115 1.48086
-6.35844 -4.3053 1.05245
4.94994 -5.54488 1.03255
7.21423 -3.84515 1.13779
7.59199 -3.70211 1.16876
3.70305 10.2742 1.52159
3.51969 10.5918 1.55706
-7.33499 -1.07709 1.03446
-7.04405 -1.99538 1.01979
4.98838 -5.30471 1.01795
7.27636 -3.75289 1.15024
7.3938 -3.68759 1.17191
7.90787 -3.3716 1.22217
-7.12405 -1.86666 1.04689
-6.97975 -2.93391 1.09682
-5.98732 -4.35838 1.06485
7.94215 -2.79528 1.23196
8.3012 4.65927 1.39483
5.07263 8.69024 1.4753
8.4391 4.54458 1.41672
7.86657 -2.35155 1.21038
7.21381 5.7427 1.38095
3.03263 9.68168 1.51806
-7.06373 -2.0109 1.10027
7.5171 -3.1235 1.22723
8.29714 4.58553 1.43712
5.86084 7.53769 1.45024
5.36411 7.73891 1.43528
5.20207 8.06004 1.45762
5.15646 8.17288 1.46307
7.36573 -3.18359 1.22566
7.71482 -2.76884 1.24826
-6.72856 -1.67589 1.04398
7.86862 -2.26746 1.25581
7.30241 5.47684 1.40184
-7.07309 -1.94403 1.13785
-6.89191 -2.77458 1.15435
6.87912 5.57993 1.3896
-7.321 -1.09061 1.15558
-7.11334 -1.81623 1.14933
-7.01684 -2.05878 1.14533
-7.09026 -1.86439 1.15002
-6.86731 -2.92241 1.17125
4.87881 7.56522 1.43217
3.45582 -6.04856 1.1123
-7.24269 -1.2935 1.17809
3.5362 -5.72078 1.08342
3.57279 -5.62536 1.07269
7.13989 4.81288 1.40333
4.73026 7.48705 1.44192
-7.04122 -2.01492 1.19314
-7.06295 -1.93864 1.20139
7.03477 4.87484 1.41571
3.88669 8.07508 1.48455
6.07354 -3.3304 1.15392
6.69972 4.92191 1.38637
4.73025 7.27071 1.44749
3.84425 -5.31136 1.10199
7.17299 4.4668 1.42305
7.53328 2.88066 1.36319
6.3875 5.33985 1.41137
-7.24616 -1.25003 1.25166
6.81395 4.1198 1.36771
-6.4272 -2.76176 1.19323
5.52527 -3.64006 1.13666
5.70812 -3.52927 1.15229
2.81323 8.01897 1.4704
-7.33833 -1.0347 1.28427
5.34823 -3.79363 1.14306
-6.28849 -2.2516 1.15781
-6.24942 -2.40824 1.17227
4.2893 -4.67353 1.10932
4.50316 -4.48627 1.11507
4.60151 -4.4585 1.12409
-6.77376 -1.7256 1.23088
4.39249 6.59043 1.41347
-7.12754 -0.924134 1.28415
-6.12334 -2.25008 1.16159
6.69618 3.7236 1.37372
6.15667 4.40251 1.37318
3.6154 -5.3373 1.17236
5.20802 5.7521 1.41977
2.56562 7.34376 1.46255
6.53488 3.07573 1.36586
-1.70398 -5.77387 1.13942
6.45197 -1.39143 1.25242
6.3188 2.79822 1.33076
6.26047 2.39773 1.33777
-4.41929 3.9101 1.38577
4.35832 3.56178 1.34681
4.24099 3.31586 1.33327
4.67279 -1.68043 1.24713
4.82809 -1.38357 1.25665
-2.11915 4.74505 1.29584
3.72788 -2.95365 1.22292
3.67346 -2.54976 1.19401
3.40568 -2.9609 1.22575
4.02505 2.58298 1.33707
-2.59468 -3.53414 1.25037
-2.32692 -3.5715 1.21611
3.77018 2.06642 1.30769
3.7462 1.98816 1.30694
-2.82509 3.46299 1.37675
-2.29812 -2.42076 1.18735
1.94977 -2.77344 1.21003
-2.11481 2.75426 1.31705
-2.02051 2.74267 1.32331
2.24602 -1.86588 1.22347
2.37622 -1.49582 1.22104
-2.01117 1.87147 1.29097
-2.06623 -1.44392 1.22827
1.44415 -2.06315 1.24216
-1.99404 -1.08839 1.21414
-1.92623 -0.707981 1.21939
-1.92793 -0.703745 1.24495
-1.9565 -0.344457 1.22785
-1.89406 -0.56491 1.22916
-1.89362 -0.531101 1.23421
8.27762 -8.75956 -7.5162
12.2457 -10.3884 -8.88532
-8.55433 15.2646 -6.78572
21.1213 25.7247 -11.9637
-8.75263 -2.50662 -2.56542
-33.3934 -22.3069 -7.41914
-33.0333 -21.6029 -5.82422
-32.7582 -22.2619 -5.88222
-30.3366 -19.4559 -2.71029
9.37427 -8.9288 -0.395401
-7.33623 15.8135 -0.430381
-28.8186 -11.1518 0.711818
-6.87126 -8.21231 0.45739
17.3104 24.8571 1.64491
11.68 16.4266 1.66688
-6.65982 -6.63302 0.878829
4.34821 12.6182 1.5387
8.85791 9.22691 1.49614
8.02537 -8.82094 -10.4462
8.89457 -8.59901 -10.5697
7.00104 -12.0085 -11.5818
6.91568 -11.4177 -10.9596
8.20747 -8.31953 -9.59528
7.0638 -12.0961 -11.3886
7.11194 -11.0409 -10.52
8.057 -8.43414 -9.26515
6.77117 -11.3542 -10.3512
6.48622 -11.7673 -10.2733
7.81065 -8.91015 -9.03176
6.2448 -14.3988 -11.8748
8.3594 -8.76365 -9.16614
6.33978 -11.98 -10.2349
6.18413 -12.1551 -10.1678
7.54595 -9.51281 -9.06448
7.96407 -9.11716 -8.98636
10.5658 -9.53781 -10.5847
6.1532 -14.1818 -11.4248
6.12935 -13.7231 -11.0489
6.16866 -12.6478 -10.3483
9.27102 -8.89644 -9.42447
9.35982 -9.14523 -9.54282
5.90094 -12.5763 -10.0899
9.43613 -9.06108 -9.33504
6.91275 -11.2058 -9.34245
5.64914 -13.0407 -10.0569
9.77655 -9.15958 -9.49286
7.66354 -9.40963 -8.53098
10.0861 -9.2675 -9.62133
11.0176 -9.57953 -10.243
11.5554 -9.79485 -10.1715
8.44745 -8.67145 -8.01379
7.48659 -9.36723 -7.9218
8.23133 -8.78574 -7.95651
7.68605 -9.42174 -7.95368
7.89663 -9.47231 -7.90258
8.38466 -8.60028 -7.67717
0.350013 15.8465 -10.1141
7.58559 -9.39457 -7.68275
11.0172 -9.70003 -9.3315
7.28632 -10.7893 -8.23819
8.2178 -8.56183 -7.48316
4.63317 -15.4595 -10.1485
8.77749 -8.76332 -7.67303
7.98173 -9.10011 -7.46528
4.06343 -18.0619 -11.4026
8.26032 -8.69249 -7.32978
4.09403 -17.3192 -10.8584
0.136648 14.8486 -9.03586
6.70838 -11.3508 -8.02564
7.80054 -9.33605 -7.38058
10.2265 -9.40471 -8.42883
6.87501 -11.3381 -7.95849
8.12447 -9.27634 -7.40076
11.3858 -9.79669 -8.97884
5.43702 -13.9417 -8.87339
7.79502 -9.33688 -7.21197
9.43147 -9.11037 -7.76896
6.95895 -11.2039 -7.80438
8.04607 -9.19854 -7.16978
9.84281 -9.27159 -7.87909
15.0429 7.5176 -9.77018
8.74157 -8.90603 -7.20977
6.9884 -11.0497 -7.51237
2.65399 -11.2626 -6.65349
7.92202 -9.14232 -6.92723
9.69437 -9.22442 -7.60018
10.8978 -9.5868 -8.1866
0.121839 15.2919 -8.62609
3.27468 -20.5258 -11.689
6.8527 -11.0628 -7.2939
10.2025 -9.37916 -7.75974
12.4873 -10.4773 -9.13938
9.32133 -9.08563 -7.27244
4.64794 -14.3821 -8.42458
8.07167 -9.29353 -6.83522
14.9669 7.65264 -9.23204
9.78733 -9.19078 -7.37247
0.827453 17.4757 -9.55559
2.73388 -19.7543 -10.8746
11.2439 -9.74282 -8.07658
4.26956 -14.5341 -8.19773
14.8786 7.78165 -9.04748
15.302 10.5664 -9.98844
14.2025 7.83612 -8.67062
11.0632 -9.71601 -7.82843
13.4316 -10.9372 -9.2123
3.03546 -19.2398 -10.2398
11.4763 -9.92853 -7.72006
2.16432 -20.281 -10.2948
10.3666 -9.4377 -7.04824
14.4527 -11.4304 -9.24987
13.9914 -11.3161 -9.00662
11.1269 -9.75904 -7.3722
7.57087 -9.41433 -5.98153
3.57917 -8.50426 -4.54645
-8.64851 -1.89889 -4.35292
2.21291 -20.0092 -9.87459
4.5511 -9.33561 -5.07871
0.395708 13.6626 -6.69234
7.67007 -9.345 -5.8983
-8.31571 15.8593 -8.66807
-9.14216 -2.41681 -4.55596
15.2086 -11.744 -9.2321
19.6655 5.62696 -9.78436
-10.2388 -2.53496 -4.98872
1.90628 -20.4521 -9.76743
17.5526 16.4976 -11.4143
7.6536 -11.313 -6.44333
20.3363 5.48933 -9.92201
14.2065 -11.2466 -8.42434
2.9483 -17.4168 -8.21209
19.6474 5.81342 -9.46801
18.1378 -13.2174 -10.3644
9.92298 -2.5065 -4.72958
20.5969 5.22071 -9.80571
17.6856 16.6337 -11.193
1.80315 -20.0782 -9.22659
9.75811 -9.12404 -6.11631
-9.15183 -1.66116 -4.24154
9.50605 -3.48818 -4.6123
6.77767 -11.4234 -6.03997
9.97104 -2.63379 -4.6785
19.5397 5.95846 -9.19908
18.1091 17.9654 -11.473
9.4205 -3.10332 -4.4651
15.6634 -12.0525 -8.86723
7.10638 -11.6735 -6.11106
7.21404 -11.0105 -5.86593
9.61369 -3.42422 -4.54829
-9.7933 16.0435 -8.36389
17.9468 -13.0971 -9.87064
19.8319 5.71322 -9.14985
16.33 7.40747 -7.94332
18.2257 18.4122 -11.4633
16.6776 -12.4027 -9.15834
-10.972 16.6786 -8.77003
-6.42678 14.6751 -7.01975
-5.18812 4.86504 -3.097
20.4464 5.55172 -9.21311
9.61258 -3.42447 -4.40436
18.643 18.8988 -11.4156
16.0602 -12.3584 -8.71808
15.0614 7.53119 -7.18959
3.8615 -9.35514 -4.29904
-10.9064 16.5814 -8.39745
7.00675 -11.0025 -5.49886
-13.4263 3.29031 -5.82306
0.741552 -22.1368 -9.33508
16.0296 -12.1359 -8.40645
-5.111 5.62651 -3.17818
0.993545 -21.9899 -9.22866
1.23184 -20.6771 -8.67775
14.3566 7.70048 -6.81691
19.003 19.8068 -11.4744
3.80318 -9.00093 -4.07406
14.9738 7.83628 -7.03769
18.3458 19.597 -11.146
-9.44922 -1.08451 -3.92579
4.02315 -8.53398 -3.86503
14.2232 7.85427 -6.6728
6.90654 -11.0855 -5.33832
-13.4718 2.5165 -5.6055
-7.7878 15.0789 -6.892
19.766 21.4814 -11.8325
15.2812 7.34307 -6.83365
-5.17652 14.1214 -6.0262
14.1443 -11.182 -7.06059
3.96424 -9.14781 -3.913
1.53887 19.4527 -7.58285
-8.54478 15.4253 -6.84809
19.2805 5.88011 -7.81229
-1.73915 13.1174 -5.12327
5.33357 -9.45969 -4.18703
-2.3588 13.3114 -5.19007
20.1476 23.3109 -11.8208
4.68606 -8.56074 -3.70569
19.7189 5.65715 -7.80832
0.863441 -25.8955 -9.84951
15.124 -11.6542 -7.18391
20.2921 5.49772 -7.87057
9.49677 -3.46008 -3.77934
0.526771 -22.1464 -8.25851
3.27805 -10.8878 -4.24648
20.785 24.1857 -11.8493
0.907424 -8.68833 -3.24011
14.2178 -11.2592 -6.68602
20.7116 5.26792 -7.85962
18.3101 18.0948 -9.41247
-12.9002 2.25997 -4.76079
21.4935 25.6712 -12.15
2.30411 -13.3404 -4.87591
13.1999 -10.6742 -6.1073
0.792066 15.5254 -5.56499
-8.15603 -2.78328 -3.0823
0.407599 -21.4165 -7.65946
-4.13359 13.5477 -5.03428
0.634171 -21.581 -7.67419
16.1052 -12.1633 -7.15165
-15.3135 17.7011 -8.24489
5.97437 -11.4229 -4.53144
-10.7491 16.2171 -6.79134
0.0965418 -18.1984 -6.39921
14.4599 -11.4591 -6.44986
20.6668 5.44299 -7.46151
0.652109 -22.6313 -7.82094
-4.9027 14.2175 -5.1487
3.65976 -8.49424 -3.18311
4.90783 -9.08954 -3.53907
-14.1192 17.5265 -7.69979
2.28537 -10.926 -3.82466
-8.66546 15.7135 -6.11266
3.06714 -13.8646 -4.8391
-14.5814 17.8941 -7.82149
20.4826 5.5691 -7.13638
22.8398 28.2582 -12.1509
37.2857 -21.047 -14.3045
-5.18392 13.7381 -4.87262
1.93274 21.0512 -7.01901
1.26829 -10.2402 -3.41168
33.4959 -21.0563 -13.0077
-5.13504 14.1263 -4.87794
-12.26 16.781 -6.73811
18.9158 -13.4791 -7.54087
3.57384 -8.70422 -3.0164
6.27279 -10.1975 -3.83587
2.32015 -11.0292 -3.58621
-4.36449 -32.8377 -10.5336
-1.10111 -23.1868 -7.39221
15.2724 10.5189 -5.85552
-12.8625 17.113 -6.76309
-17.4707 18.8421 -8.07398
3.02675 -9.75946 -3.22264
7.03678 -11.2128 -4.0914
1.37182 -21.5855 -6.69208
-2.48168 -26.4938 -8.17173
7.42024 34.3216 -10.7239
0.767379 15.1174 -4.6002
-10.8362 16.3467 -5.90756
-2.5973 -25.5511 -7.73857
-13.9527 17.443 -6.66152
-5.08471 -33.3888 -10.0601
0.823572 -24.4114 -7.30574
-5.25445 14.44 -4.56683
2.10382 21.0264 -6.23039
-20.6438 19.2476 -8.32434
18.4873 5.88325 -5.71246
-4.19754 14.0807 -4.3165
-7.72112 14.9739 -4.93904
4.2879 -9.21077 -2.98534
4.68375 -11.7319 -3.69237
-12.4886 2.20004 -3.64416
-31.1745 -44.1614 -15.5587
-14.7751 17.7725 -6.64089
7.04162 -11.2142 -3.81085
2.57744 -9.59193 -2.82144
13.0989 -10.6022 -4.79473
-8.40329 -2.44562 -2.48157
21.8191 28.1443 -10.0961
-8.52894 -2.24791 -2.49231
-2.4433 -24.9758 -7.04691
-12.8892 1.97511 -3.63093
4.4379 -11.4554 -3.40834
-9.0551 15.5688 -4.94116
-12.6969 16.9316 -5.80979
-5.24847 13.9975 -4.08213
-8.03638 -39.0573 -10.9154
9.83208 -8.96102 -3.6197
-20.8095 19.4183 -7.64904
-9.4631 15.6885 -4.90669
-25.8486 19.8559 -8.66911
11.6352 11.7116 -4.35933
4.37829 -11.4264 -3.24027
48.919 -14.2207 -13.4936
-7.70561 -36.3829 -9.78078
4.12394 -8.72973 -2.5414
11.3024 -10.0527 -3.95612
-14.0324 17.5683 -5.84366
6.59847 -10.5213 -3.21353
3.20322 -9.71932 -2.64473
-28.5105 -41.7579 -13.0599
-4.14146 -27.1844 -7.11946
3.57653 -10.4728 -2.85246
4.10376 -9.46773 -2.65136
15.8619 -11.9269 -5.06236
-6.9414 14.783 -4.13009
-29.9574 -39.9528 -12.6661
4.36159 -11.2699 -3.05722
4.28581 -7.76011 -2.25562
6.61073 -10.7823 -3.15307
46.4575 -14.0461 -12.0987
-27.3017 20.5977 -8.4533
-11.1983 16.4502 -4.90291
-26.3069 -38.378 -11.4431
-9.31844 -36.691 -9.34273
-23.6837 19.8919 -7.59853
4.39153 -10.4282 -2.77908
-11.7155 16.7789 -4.95902
-7.6208 14.8442 -4.01862
10.3829 -9.36516 -3.3473
41.6093 -13.8215 -10.49
15.3384 7.67124 -4.08481
-5.9523 -34.1138 -8.2539
3.9952 -9.15365 -2.3659
48.7688 -13.0525 -11.9802
-11.3464 -41.7904 -10.2636
4.24627 -9.08551 -2.39151
3.92082 -11.2437 -2.80473
4.94955 -8.76576 -2.3675
-12.4042 16.9023 -4.8766
11.1331 -9.75618 -3.38257
-5.89559 -29.9147 -6.96075
-26.2375 20.2642 -7.51319
42.8777 -9.37733 -9.95923
-29.3939 21.3412 -8.14237
-34.293 -22.4731 -9.18777
-5.16953 -24.6251 -5.6138
42.0582 -13.0014 -9.88245
5.50508 -9.56125 -2.46251
-12.277 2.80136 -2.76285
41.9327 -12.2885 -9.65289
44.0209 -12.5604 -10.0699
28.9499 40.776 -10.9611
-5.20735 13.6555 -3.19203
13.5834 -10.9304 -3.83673
39.2243 -12.6053 -9.05586
-22.6197 19.714 -6.50668
-26.5528 -65.4696 -15.3365
4.35403 -9.79881 -2.32433
4.58255 -9.26757 -2.23233
-14.1322 17.6062 -4.81916
-29.7865 21.6362 -7.85962
-30.6146 21.726 -8.02332
-25.1225 -66.6594 -15.2764
-10.3606 16.1874 -4.07266
-7.96634 -33.8289 -7.39438
3.22543 -9.7899 -2.19701
4.01236 -9.94263 -2.28502
47.4402 -10.9992 -10.394
15.1681 7.59778 -3.59843
-14.6822 18.0727 -4.92774
5.21012 -9.13528 -2.20881
28.0609 40.6048 -10.3223
-26.7798 -26.2072 -7.78129
15.2152 7.96313 -3.56733
-29.2475 -22.5879 -7.66692
-29.0022 -74.3682 -16.5331
41.8066 -11.2509 -8.95231
-11.0936 16.3439 -4.01174
-15.1343 17.8929 -4.76895
-33.7604 22.6625 -8.26117
45.9678 -10.0268 -9.59321
-12.3586 -39.7707 -8.46866
4.1805 -9.83833 -2.17398
4.30851 -9.81123 -2.18335
11.7459 -9.76407 -3.107
-11.6225 16.6778 -4.05566
-18.2222 -52.3035 -11.0744
-12.199 -37.9011 -7.88643
4.11449 -10.029 -2.14537
-33.033 -22.5877 -7.88951
-25.8006 20.2492 -6.4538
-32.1028 -22.9636 -7.69481
-6.65594 14.7036 -3.12989
-24.286 -57.0681 -12.0513
-32.5274 -21.6545 -7.53089
3.4733 -9.46331 -1.94569
47.5151 -11.009 -9.3644
-12.3422 16.8502 -3.99083
4.03141 -9.44326 -1.95867
-35.2785 -21.4292 -7.81428
-20.369 -33.0893 -7.39151
-14.5211 -41.9022 -8.39485
39.0679 -12.8876 -7.77549
-34.4559 23.1417 -7.76665
-32.6318 -22.5362 -7.45068
-31.617 -23.1322 -7.35462
-19.7147 -48.8445 -9.91489
-15.751 -42.7875 -8.46099
3.8535 -9.28575 -1.85635
44.0169 -11.8634 -8.46416
5.81752 -9.81342 -2.09007
-22.6188 -51.2903 -10.2666
-18.9987 -47.1601 -9.19931
-14.0834 17.5549 -3.98895
-30.1102 -24.2846 -6.87673
-19.6594 -26.1971 -5.85817
-23.9945 -62.6971 -11.9183
-37.652 23.759 -7.85443
-25.8022 20.2597 -5.7089
-32.7109 22.3839 -6.88109
3.95604 -10.1682 -1.89103
4.81317 -8.68695 -1.72539
14.2073 7.62994 -2.7831
14.2909 8.20099 -2.82376
-29.6445 21.557 -6.28278
43.6859 -12.3598 -7.72803
43.4477 -11.2527 -7.63904
-30.2682 -24.0386 -6.5576
-20.3427 19.3737 -4.7162
-18.8999 -46.9799 -8.55943
15.081 7.55882 -2.83082
-30.4763 21.5754 -6.23657
-21.7087 -51.7604 -9.27779
45.1046 -12.151 -7.59133
-10.0027 15.8789 -3.02661
-19.1407 -47.4872 -8.1687
-33.7487 -23.2969 -6.46264
-21.9952 19.3246 -4.5838
-24.5036 -15.3616 -4.56765
-23.3221 19.9092 -4.75173
-38.3434 23.2158 -6.94545
-10.8439 16.2292 -3.0116
3.51472 -9.6451 -1.58686
3.92243 -10.3715 -1.716
-7.32969 14.865 -2.52928
-29.8514 21.7268 -5.64326
-30.7541 -23.7535 -5.90958
-27.0591 -25.3108 -5.61369
43.6566 -11.3495 -6.8553
46.4708 -10.1245 -7.24486
-6.29243 14.0132 -2.29614
9.90224 -5.19046 -1.65942
-32.4134 -23.3783 -5.95201
-23.9679 -60.6078 -9.66932
10.3071 -9.26725 -2.06515
46.6336 -10.7882 -7.10724
-35.4134 -23.5742 -6.26159
-30.4776 -25.1392 -5.77983
-11.8212 -39.1725 -6.02302
17.2201 -12.4586 -3.11245
-24.4748 20.1509 -4.60661
-22.8161 -51.1241 -8.06964
-7.33309 14.686 -2.34524
-12.2828 16.7466 -2.95975
6.12697 -11.705 -1.88692
-12.9487 17.3069 -3.03499
-33.2694 22.4744 -5.64422
