ply
format ascii 1.0 
element vertex 1861
comment /media/mkaihara/Seagate Backup Plus Drive/model_iterations/model_79.ply
property float32 x 
property float32 y 
property float32 z 
end_header 
-31.1534 -24.3735 -6.5858
41.2307 -11.947 -7.09655
44.5059 -10.1994 -7.41149
-24.731 -58.3265 -9.98319
-32.1567 -25.0235 -6.27535
45.0253 -10.3115 -7.02731
-31.8563 -25.1555 -6.12144
-33.6265 -23.8648 -6.08025
-29.497 -25.0803 -5.69886
-34.2652 -23.1724 -6.0146
-21.801 -53.3718 -8.39894
-34.4905 -23.5375 -5.90591
41.8885 -10.9092 -6.17187
-32.767 -24.6925 -5.78528
-32.2386 -24.7176 -5.77156
-30.8553 -25.6815 -5.62533
-29.7147 -26.5095 -5.59724
-31.1467 -25.4601 -5.60213
38.8394 -12.756 -5.70474
-35.7455 -22.8467 -5.85052
-33.1585 -24.7701 -5.66721
-32.3865 -24.6249 -5.57943
-33.453 -23.7153 -5.56219
-33.2759 -24.2591 -5.616
-31.125 -25.6928 -5.48559
13.2355 -10.5222 -2.2886
-34.8331 -22.0527 -5.51723
-33.7836 -23.5004 -5.53453
-32.7528 -24.6951 -5.45856
6.79761 -10.2008 -1.62898
-35.3058 -22.1558 -5.43438
-34.1322 -23.5743 -5.37949
10.3523 -9.1462 -1.78629
-34.155 -23.2809 -5.28495
-23.172 -52.8662 -7.29628
-35.2095 -22.2564 -5.22751
-33.9173 -23.5756 -5.16711
-31.4827 -25.2085 -5.06425
10.7784 -9.39223 -1.79866
11.5561 -9.72253 -1.88
-33.3675 -22.5928 -4.95518
-33.9611 -23.3587 -5.07664
-32.962 -24.8711 -5.08481
10.5782 -9.30653 -1.74431
-37.915 23.7526 -5.36745
-20.147 10.2672 -2.69298
-19.263 9.59374 -2.57726
-27.638 -14.9408 -3.66313
-26.978 -16.5994 -3.64783
44.2392 -9.90787 -5.19853
7.14577 -10.2176 -1.41168
9.89762 -8.85609 -1.47825
41.1578 -10.7725 -4.72773
-27.7385 -16.9636 -3.53794
45.2745 -10.3431 -5.03983
-29.4834 -15.1516 -3.57109
10.3557 -9.08762 -1.47697
10.0894 -8.95488 -1.43185
12.9613 -10.528 -1.77524
14.7013 -11.3147 -1.9573
9.45502 -4.72267 -1.10694
9.45018 -3.49504 -1.06158
9.44817 -3.38736 -1.05275
-28.3167 -16.9019 -3.4479
10.1027 -9.0365 -1.37724
15.172 -11.4252 -1.91849
-28.4704 -13.0899 -3.14314
41.9603 -10.9002 -4.24435
9.68022 -8.80126 -1.26776
13.7993 -10.9504 -1.69394
14.5731 -11.2196 -1.7622
9.44198 -3.3881 -0.963286
15.1985 -11.6294 -1.81174
-24.7893 21.0939 -2.9926
-24.3238 -55.3283 -5.57539
9.38248 -8.28089 -1.17045
-25.5985 21.3851 -2.96988
11.4886 -9.77455 -1.33841
15.6763 -11.8558 -1.72833
16.6437 -12.2452 -1.79994
9.80417 -9.03115 -1.14684
-36.1901 -69.8514 -6.76292
13.3563 -10.7468 -1.46147
-35.5786 -22.2819 -3.55473
11.4808 -9.84514 -1.27309
45.1838 -9.82498 -3.83676
38.8475 -12.7197 -3.2772
-30.3505 -14.5486 -2.69188
18.0483 -12.9621 -1.6912
16.8608 -12.365 -1.47202
-17.5978 -47.0594 -3.42645
-15.3722 -39.7218 -2.85989
40.9718 -10.7202 -2.87216
42.5432 -9.65266 -2.87127
11.7029 -9.94831 -0.99497
13.1242 -10.6556 -1.08834
13.4855 -10.6902 -1.08735
-17.3272 -43.189 -2.87539
-34.9864 24.0801 -2.5022
16.6445 -12.3145 -1.2167
15.6271 -11.802 -1.1292
17.2593 -12.6194 -1.23231
-37.8272 23.7406 -2.4343
-9.57776 -12.5552 -0.841173
-16.2757 -41.3096 -2.40225
-14.5534 -41.2427 -2.3455
-28.6559 -16.7853 -1.73607
-17.7213 -43.438 -2.46264
-15.2168 -42.142 -2.34968
-28.0887 -13.7146 -1.61779
37.7837 -8.06492 -1.99186
-43.3497 -82.6397 -4.59382
17.8664 -12.8634 -1.06987
-27.8606 -13.9811 -1.48459
-16.8836 -41.8643 -2.08207
-26.6205 -16.5278 -1.35008
-37.9464 23.8353 -1.61478
43.692 -9.42968 -1.53003
-28.1705 -60.493 -2.05568
-13.1909 -38.3148 -1.25003
-32.618 -24.5919 -1.22441
-26.7982 21.8693 -0.934345
35.8066 -8.5075 -0.997812
-35.7339 -22.2027 -1.02929
-35.3816 -22.3782 -1.01745
-35.676 -70.9348 -1.82028
-19.3563 -44.224 -1.02234
-35.6754 -22.378 -0.796953
16.8504 -12.3342 -0.401969
-35.1561 -22.2316 -0.569881
16.9727 -12.4272 -0.242379
13.0438 14.839 -0.205433
-34.2991 -22.8768 -0.400131
11.1132 -9.60061 -0.132206
-36.5022 -21.2005 -0.351889
-28.9935 -8.72485 -0.125782
-29.6475 -9.51002 -0.0849209
11.4776 -9.92725 -0.00327438
-13.05 -20.0885 0.0349608
41.8644 -9.2862 0.130622
9.07901 -8.87598 0.103759
15.0365 -11.4869 0.151602
11.3068 -9.7724 0.139109
13.2556 -10.6536 0.178406
18.0858 -12.9772 0.215922
-27.9107 -13.5225 0.342139
-33.7736 -22.4399 0.465979
-35.2025 -18.8998 0.454442
-36.1714 -22.2755 0.528767
-13.7282 -20.8402 0.286932
-12.9151 -20.2668 0.31859
-13.4006 -20.0735 0.345718
14.9713 -11.4824 0.278171
-30.4422 -13.1723 0.584695
-36.9514 -19.9022 0.811432
-14.2234 -22.3179 0.526566
-30.6095 -13.4269 0.706648
-36.3046 -20.2134 0.846838
18.1259 -13.0105 0.466161
10.4822 -9.21769 0.298113
10.3895 -9.22431 0.345002
-8.23877 -9.77448 0.361083
10.5094 -9.25589 0.415755
13.4857 -10.7713 0.534062
10.3515 -9.43676 0.460536
13.1977 -10.6365 0.559379
-9.29432 -13.1184 0.597938
10.4927 -9.45283 0.526625
13.1914 -10.5703 0.66667
-30.5584 -17.0488 1.41511
-32.4793 -18.7835 1.52607
9.5272 -9.10035 0.556704
-29.3404 -17.5184 1.49695
22.0956 43.8045 2.17657
9.59409 -8.93394 0.581755
10.4589 -9.36388 0.666153
12.2615 -10.2387 0.746991
-6.17296 6.64508 0.448855
-6.89126 -8.18248 0.536055
-7.15256 -9.28081 0.577155
-28.5313 -11.255 1.60773
-6.84961 -8.48519 0.563266
11.8435 11.6895 0.884621
16.3416 24.4014 1.56004
15.7788 23.8927 1.5053
8.87139 -8.62034 0.664245
8.65466 -8.56319 0.670223
14.5982 25.0453 1.6117
-28.8632 -8.65623 1.68077
-7.5473 -8.04303 0.620261
10.3726 -9.36027 0.803141
-6.77909 -8.22669 0.638823
-6.73937 -8.46648 0.650849
-7.58203 -7.978 0.682966
-6.91638 -8.24987 0.674107
9.54036 -8.87096 0.815926
10.4514 -9.35007 0.880011
10.434 12.1982 1.04478
-7.35567 -9.52929 0.794057
12.4135 18.8464 1.52363
12.9312 20.6415 1.63975
9.1033 22.6417 1.69895
-7.11439 -8.32188 0.759884
-7.11714 -7.63529 0.742027
9.50285 -8.84114 0.921348
11.2966 11.8761 1.21437
11.7056 16.6403 1.53089
12.5127 11.4471 1.30393
12.7866 11.3889 1.33439
12.1938 11.4981 1.30533
11.9723 11.6256 1.32173
-7.23653 -9.40316 0.940562
11.5384 11.8745 1.33353
-7.37768 -6.14718 0.759336
-7.0737 -8.11565 0.866752
-6.77424 -8.32223 0.864425
-7.28387 -6.25839 0.765311
9.23933 -7.57123 0.990034
-7.37668 -8.12185 0.913742
-7.41002 -9.91911 1.03468
-7.30155 -7.8897 0.904215
9.17848 -6.9537 0.975097
11.5813 11.8508 1.40923
-6.36523 -4.33892 0.659811
-7.09176 -8.37686 0.945949
-6.84765 -8.42758 0.964763
8.97885 -6.84803 1.00739
8.2015 -7.12167 0.976738
5.92984 -5.90453 0.772737
10.7637 11.0415 1.47744
-7.03816 -5.73806 0.86717
10.7247 9.26681 1.37785
-7.1721 -5.72276 0.895086
7.7283 -6.56261 0.997788
11.0154 9.78419 1.45684
10.8734 9.05111 1.42134
9.53873 11.4761 1.4947
-6.51302 -6.5082 0.923156
-6.87834 -4.51934 0.833661
-6.98576 -7.32541 1.02572
10.7331 9.05042 1.45273
10.0874 9.41734 1.41503
9.25675 10.0705 1.42946
-6.86299 -4.45972 0.862544
-7.14686 -5.68014 0.9764
-7.11813 -5.71996 0.97523
-6.92355 -4.63297 0.909594
-7.06893 -5.50934 0.97443
8.65281 10.2311 1.4889
-6.9016 -3.43247 0.864036
-6.97495 -4.35162 0.917029
-6.84798 -3.49251 0.863611
-6.89118 -3.57695 0.87068
-6.89752 -4.2357 0.910711
-6.91868 -4.40671 0.926034
-6.91866 -4.49249 0.928751
8.71377 8.78142 1.40124
-6.95623 -3.85564 0.912379
-6.92073 -4.07317 0.910166
-6.92022 -4.15693 0.91788
5.84611 -5.77295 0.949577
-6.93295 -3.41816 0.900846
-6.94422 -4.37494 0.952525
-6.91378 -4.44655 0.95415
-6.90724 -2.83135 0.875479
-6.88877 -3.61898 0.911156
-6.97379 -4.13723 0.954275
-6.92018 -4.20605 0.948968
8.48791 8.02821 1.38643
-6.92295 -2.9844 0.909599
-6.90125 -3.97234 0.956412
-6.88431 -3.65803 0.94665
-6.92817 -4.12906 0.987805
-6.914 -4.31288 0.999102
-6.47456 -5.36322 1.02792
6.00132 -5.95039 1.03272
-6.91272 -3.75427 0.975381
-6.91104 -3.91908 0.986955
-7.01729 -4.74399 1.05681
-6.94056 -4.39103 1.03659
-6.87271 -3.4806 0.976114
-7.08453 -2.17178 0.947103
-6.88987 -3.08436 0.96851
-6.9086 -3.16201 0.977698
-6.14983 -5.4907 1.07439
-6.92976 -3.23248 1.00002
-6.3845 -4.36566 1.01906
-6.80174 -3.78652 1.03176
-6.88894 -4.18731 1.0698
-7.05561 -2.13653 0.984926
-7.00575 -2.33731 0.993832
-6.91217 -3.26851 1.0215
-6.91144 -3.54157 1.03977
-6.91911 -3.39565 1.05293
-7.03694 -2.16267 1.02316
-6.93541 -3.18156 1.0566
-6.90526 -3.26524 1.05615
-6.85291 -3.65196 1.07196
-6.90886 -2.94727 1.05002
-6.87426 -3.4126 1.07129
-6.8896 -3.75674 1.10402
-6.9388 -3.23802 1.08299
-6.00717 -4.49342 1.06752
-6.89344 -3.58671 1.11618
7.67147 6.32744 1.43747
5.18217 8.30979 1.41668
-6.89712 -3.49488 1.11959
7.29456 -3.51987 1.17569
-6.88909 -3.28115 1.11349
-6.88557 -3.39295 1.11958
-6.86928 -3.20227 1.11515
-7.17076 -1.75469 1.08825
-6.92076 -2.94374 1.11709
-6.92623 -3.03119 1.12157
7.11192 5.59896 1.40153
-6.38024 -2.28616 1.05157
7.04622 5.16125 1.39399
-7.01847 -2.41227 1.19407
-6.46637 -2.82197 1.15096
3.77449 7.91001 1.44484
-6.3138 -2.26281 1.11358
-6.48291 -2.29108 1.17143
-6.15176 -2.28128 1.14298
2.55051 7.37283 1.47967
7.82504 -8.51486 -10.1651
7.95249 -8.7977 -10.3795
7.68458 -8.74165 -10.1281
8.18304 -8.31499 -9.99377
6.93473 -11.455 -10.9726
8.1352 -8.26246 -9.51436
6.93829 -11.8696 -11.1636
8.01314 -8.39948 -9.22639
7.95783 -9.1516 -9.44268
8.22782 -8.68723 -9.30414
7.84685 -8.9729 -9.09182
8.28771 -8.69624 -9.11587
6.31507 -13.9622 -11.4385
7.47803 -9.40708 -8.98209
7.91483 -9.06893 -8.91216
6.21146 -14.3241 -11.5002
6.2534 -12.8476 -10.5011
9.21514 -8.81917 -9.34079
9.20042 -8.97533 -9.35514
5.95081 -12.7049 -10.1811
5.88812 -13.0762 -10.2696
9.34767 -8.97628 -9.27328
9.20431 -9.01838 -9.15375
6.90423 -11.1795 -9.32201
5.60141 -12.9323 -9.97405
6.49881 -10.9818 -8.77767
11.7354 -9.95837 -10.3329
8.2354 -8.61899 -7.89017
7.42586 -9.26393 -7.83086
8.23951 -8.77474 -7.94101
9.15316 -8.77761 -8.3502
7.59975 -9.31862 -7.85482
12.0766 -10.0862 -10.2413
4.66172 -15.7842 -10.6422
9.17387 -8.81542 -8.18209
5.00426 -15.3388 -10.4021
7.75221 -9.29621 -7.74841
8.24531 -8.46658 -7.55723
0.354268 15.6947 -10.0121
4.73406 -15.1197 -10.0877
10.8738 -9.56319 -9.20952
7.9112 -9.07189 -7.62944
8.15737 -8.49056 -7.43098
4.71526 -15.7524 -10.3308
-0.391575 13.6136 -8.51594
8.83123 -8.79735 -7.69852
4.22419 -18.6763 -11.8258
7.91429 -9.05145 -7.42379
8.26396 -8.56699 -7.35073
4.25841 -15.3985 -9.78588
8.21585 -8.6374 -7.28939
4.24582 -18.1473 -11.3676
0.156776 15.0617 -9.17425
3.75441 -17.8403 -11.0347
4.17256 -15.7524 -9.85416
7.04395 -10.8158 -7.74723
8.04838 -9.20582 -7.34568
4.1952 -16.5724 -10.1889
8.28818 -8.66397 -7.14366
9.40303 -8.99437 -7.75518
7.01233 -11.0588 -7.78859
7.72569 -9.26014 -7.15868
9.05508 -8.80874 -7.48648
7.99474 -9.16085 -7.11582
8.57529 -8.76917 -7.15986
9.69034 -9.14757 -7.76797
6.76547 -13.3199 -8.62528
9.23768 -8.96944 -7.43677
5.78932 -13.357 -8.40261
6.88153 -10.8623 -7.41198
9.55118 -9.10054 -7.51307
11.9203 -10.2237 -8.86703
10.7771 -9.47212 -8.07233
6.87914 -11.0991 -7.33055
9.13425 -9.07948 -7.22285
9.24947 -9.01729 -7.22346
12.5952 -10.5142 -9.1651
4.6494 -14.3584 -8.43722
10.1903 -9.37768 -7.74208
8.52335 -8.70205 -6.78083
2.74352 -17.3159 -9.67207
14.7289 7.53286 -9.04454
2.71013 -19.8844 -10.9158
2.42539 -8.79069 -4.9461
2.97392 -19.8869 -10.8657
14.6994 7.65588 -8.90001
2.36326 -20.2011 -10.8016
10.9453 -9.59942 -7.74547
9.77365 -9.02664 -7.04643
14.89 7.47165 -8.81634
2.36095 -8.80885 -4.82021
1.65668 -19.8263 -10.2766
2.38643 -20.8574 -10.7684
13.9067 -11.1117 -9.12283
-9.30803 -2.60872 -4.92107
11.3245 -9.80709 -7.60935
2.1723 -20.2817 -10.2801
0.854223 17.4933 -8.70963
10.9794 -9.63261 -7.28227
-8.87869 -1.95307 -4.45961
2.21138 -20.2261 -9.99059
3.84992 -9.1841 -4.89181
11.2438 -9.64841 -7.25423
1.9958 -19.9065 -9.77912
-8.44714 16.2125 -8.86598
2.5027 -11.1993 -5.49107
1.99487 -21.1249 -10.1043
14.8518 7.59171 -7.8749
17.2709 16.1753 -11.1911
17.6237 16.8857 -11.3397
14.3178 -11.3225 -8.46534
9.79749 -2.60796 -4.69989
17.201 16.189 -10.9143
9.74508 -2.46648 -4.65072
-10.3463 16.9894 -9.06904
-9.58227 -2.07621 -4.44686
9.84648 -2.60527 -4.62342
10.1765 -2.39634 -4.73583
9.7534 -2.97525 -4.61556
-5.40749 4.45795 -3.16019
8.07825 -8.31437 -5.22748
17.7583 17.3029 -11.1321
17.6303 17.474 -11.1582
19.1405 5.82252 -8.9753
7.13223 -10.8866 -5.79893
20.2653 5.32079 -9.31003
9.55403 -3.4189 -4.51189
-9.99313 16.4274 -8.54033
-5.35901 4.91128 -3.22083
19.2428 5.55906 -8.85427
-11.4158 17.4054 -9.1617
17.9027 17.7568 -11.0556
-6.58941 15.1096 -7.23796
9.58129 -3.59673 -4.46019
20.0057 5.42149 -8.9871
18.0401 18.3025 -11.0792
17.8325 18.4505 -11.059
14.8182 7.58335 -7.09526
3.85608 -9.34104 -4.28412
-11.3527 17.2715 -8.73505
-13.5151 3.31032 -5.86603
1.26355 -21.4723 -9.01369
3.24895 -10.1837 -4.47254
14.1415 7.61734 -6.71612
18.6066 19.4231 -11.2514
3.86403 -9.17267 -4.14553
14.7638 7.69776 -6.90692
18.2846 19.4908 -11.0974
13.9772 7.72042 -6.56688
3.99804 -8.46662 -3.83871
6.76545 -10.8394 -5.2343
-13.4449 2.52899 -5.59983
14.9227 7.47898 -6.8039
-8.09525 15.6645 -7.17034
1.19022 -10.6058 -4.33499
0.756848 -21.7604 -8.81841
-13.002 2.35503 -5.31688
-9.33164 -1.44077 -3.77018
-5.08932 5.64806 -3.01505
2.83293 -11.7518 -4.7685
14.1644 -11.1752 -7.0541
1.51962 19.0817 -7.43784
3.93718 -13.1404 -5.30388
18.9295 5.78686 -7.62887
0.884833 -26.328 -10.0581
4.74558 -8.66813 -3.75132
11.6969 -10.1269 -5.87972
19.287 5.55377 -7.60816
20.0155 23.7287 -11.5922
19.8753 5.39794 -7.68464
20.3126 23.675 -11.6234
3.25907 -10.833 -4.22132
-13.2138 17.7971 -8.18023
11.8627 -10.0673 -5.72128
20.266 5.17362 -7.66799
20.8941 24.978 -11.829
-8.18773 -2.8232 -3.13786
19.208 5.69847 -7.21357
2.27998 -13.2276 -4.82986
0.810817 15.737 -5.64754
-4.32422 14.1004 -5.26041
-8.24187 -2.80639 -3.10668
6.73086 -10.5111 -4.43187
-16.1842 18.7013 -8.74448
15.9072 -12.0121 -7.06267
-11.2227 16.9204 -7.09944
19.2489 5.86866 -6.98815
3.71474 -8.66377 -3.25156
-8.90967 16.2044 -6.29393
2.98318 -13.4624 -4.70378
18.8523 -13.4858 -7.93089
33.8282 -20.9588 -13.5272
-15.1151 18.5177 -8.06961
19.9869 5.43061 -6.94396
36.6874 -20.7179 -14.0722
40.2623 -19.8151 -14.9574
16.3862 7.35 -5.9827
3.4472 -10.2577 -3.60854
1.34791 -10.9216 -3.6378
-6.33396 15.1145 -5.34642
-12.8484 17.6237 -7.1001
15.7167 -12.0786 -6.44949
6.038 -9.83773 -3.71044
3.33918 -10.1322 -3.42128
-1.14313 -23.924 -7.64933
2.32414 -11.0278 -3.5904
3.23056 -10.0555 -3.34726
2.82567 -9.03795 -2.98644
13.5876 -10.7441 -5.44507
-18.181 19.6534 -8.38457
-8.71966 -2.65588 -2.85501
1.36953 -21.513 -6.65639
19.5927 25.3657 -9.65962
3.222 -9.86272 -3.1285
3.45017 -8.97765 -2.89489
-14.5344 18.179 -6.96418
-21.6489 20.1898 -8.76879
-8.04359 15.6438 -5.17708
4.76796 -11.978 -3.77709
4.14867 -8.91885 -2.89201
2.0696 20.4425 -6.03263
-4.38242 14.7447 -4.50754
4.0558 -8.95518 -2.87456
-15.4656 18.6078 -6.97863
-32.9266 -47.0533 -16.4268
7.12228 -11.0904 -3.76074
2.5445 -9.47496 -2.7816
-8.41885 -2.20524 -2.45359
4.43193 -11.0012 -3.34429
-2.48856 -25.0876 -7.06355
-9.38105 16.1784 -5.15187
4.35479 -11.2378 -3.32322
8.56492 -8.35418 -3.28778
-13.237 17.6376 -6.03737
45.0918 -14.9501 -12.9508
-8.73869 -2.4443 -2.45709
-24.7416 20.7665 -8.73816
3.24179 -9.96479 -2.83224
3.39344 -9.96904 -2.84469
-4.31273 -30.9948 -8.40067
-27.1822 20.8473 -9.13234
42.2351 -13.9346 -11.755
45.4604 -13.1597 -12.5226
-8.67557 -39.0415 -10.5359
-8.45929 -39.8849 -10.7456
-14.6258 18.3291 -6.08649
9.81788 -8.92826 -3.46871
11.2871 -10.0224 -3.92154
-10.7626 16.7946 -5.16163
-4.34286 -28.4624 -7.47877
3.25778 -9.84945 -2.68218
3.51459 -10.2846 -2.81297
-26.592 21.0815 -8.7049
4.26858 -11.0319 -2.99324
4.39611 -9.66495 -2.67854
9.45287 -9.14161 -3.31524
6.89521 -11.3298 -3.32917
-27.5859 21.2857 -8.70648
43.4904 -12.6594 -11.3031
-11.6557 17.174 -5.15227
11.7758 -10.1405 -3.84144
3.35967 -10.2197 -2.64745
-24.8586 20.8819 -7.94298
9.94827 -8.9843 -3.22522
-7.94099 15.4937 -4.18058
4.03665 -11.9269 -3.03457
15.0158 7.54179 -4.02051
3.37356 -11.0885 -2.77922
3.16154 -9.8608 -2.46828
-6.86614 -39.2612 -9.48454
-11.4315 -43.9092 -10.7561
3.9637 -9.08108 -2.34385
-29.3098 21.9042 -8.645
14.8264 7.58841 -3.90024
-9.55467 16.5062 -4.48042
3.91598 -11.2911 -2.81366
-12.9878 17.708 -5.13316
-26.807 21.2712 -7.94804
3.47631 -10.2989 -2.49277
11.009 -9.45126 -3.34859
15.5862 -11.7498 -4.47181
-38.0755 26.9404 -10.6669
-12.8025 -44.5662 -10.5672
10.8794 -9.51262 -3.30633
-12.0794 -43.4133 -10.2217
-6.25636 -31.7229 -7.35697
40.3055 -12.4607 -9.56069
-27.4233 21.1855 -7.81965
14.647 -11.3666 -4.16934
-31.2275 22.6838 -8.66173
4.44495 -5.7991 -1.64006
5.2847 -9.16116 -2.36667
-29.1988 -75.3237 -17.8606
-9.76079 16.3415 -4.19365
4.09826 -9.75718 -2.32928
13.4048 -10.8133 -3.79756
4.00037 -9.16005 -2.19842
40.6784 -12.0298 -9.29067
-23.8207 20.7642 -6.89207
3.38747 -10.0805 -2.28223
4.38861 -9.87914 -2.33934
14.9 7.48977 -3.582
-29.3549 21.965 -7.88198
-21.5491 -34.1651 -8.67761
-8.48733 -35.9422 -7.89783
-24.7588 20.8822 -6.9023
-31.5129 22.889 -8.28961
3.24102 -9.90879 -2.22517
4.86505 -8.8478 -2.14141
14.7134 7.68282 -3.5125
4.22074 -10.4662 -2.40192
41.3426 -10.774 -9.05441
-10.6672 16.7108 -4.18363
4.33042 -9.13188 -2.12009
5.14795 -9.03141 -2.17819
14.7201 7.40688 -3.43275
-38.7 25.4841 -9.64598
-27.4969 -25.4958 -7.75071
3.02248 -9.45853 -2.06422
-29.0462 -30.6292 -8.6968
-20.0695 -31.3372 -7.66213
3.84747 -9.31418 -2.07962
3.73206 -8.72391 -1.94764
-15.8151 18.7021 -5.01411
-25.6298 -67.9332 -14.9014
3.9822 -8.76842 -1.96945
-14.0263 3.06849 -2.93364
-33.8617 -23.9313 -8.45535
-28.6637 -79.1753 -17.1379
-11.4722 -36.9415 -7.8657
43.4657 -9.49255 -9.03785
14.8707 7.59713 -3.34558
-17.9236 -23.7436 -5.97773
12.304 -10.0548 -3.19572
-19.3784 -55.4341 -11.7186
4.17094 -10.7313 -2.2966
-12.1831 17.4706 -4.232
-26.5021 20.8532 -6.68516
-35.7972 -21.1915 -8.2699
-32.5191 -25.3966 -8.17701
-9.38193 -36.3681 -7.47751
14.4776 -11.4142 -3.65308
4.02205 -9.8058 -2.08951
3.21905 -9.84009 -2.02988
-36.1242 23.8693 -8.41474
-23.7745 -57.2445 -11.9792
-16.3215 -47.1266 -9.51011
3.48262 -8.89161 -1.82897
-20.4793 -33.1676 -7.40026
-32.312 -25.2174 -7.72819
-29.315 -26.0307 -7.3795
-22.4941 -55.5843 -11.3428
3.87784 -9.07257 -1.8793
-17.0415 -46.4792 -9.26356
3.43621 -9.20602 -1.81445
-32.7843 -24.4698 -7.44702
-31.5947 -27.0899 -7.58472
-33.4375 23.541 -7.37195
-20.6844 -51.175 -9.84748
-31.5607 -25.4238 -7.12776
-25.0334 -64.8155 -12.2384
-34.7194 23.105 -7.30277
-16.9457 -47.7859 -8.88895
3.39753 -9.55054 -1.77195
14.0352 7.7894 -2.78327
-29.1564 -25.5544 -6.74268
3.46747 -9.49685 -1.75346
4.7912 -8.64461 -1.71292
-27.1948 21.3509 -5.97532
-31.1346 22.6448 -6.64063
-31.3671 -28.8913 -7.35803
3.8803 -9.98573 -1.8487
13.8877 7.48663 -2.71054
-24.1824 -55.5636 -10.3044
-20.8892 19.8754 -4.86597
-31.8163 -25.2885 -6.89147
-20.1854 -50.045 -9.14904
5.59113 -11.7155 -2.19219
41.8928 -11.8318 -7.38049
-18.5982 -49.6351 -8.92295
41.0357 -10.6768 -7.13315
4.98759 -10.703 -1.96596
-10.4735 16.652 -3.19245
-30.6105 -23.6954 -6.308
42.2704 -11.3517 -7.12316
-22.3835 20.3332 -4.90548
-20.8993 -51.7043 -8.85583
-23.1839 20.3844 -4.86975
-24.4182 20.816 -4.99262
-33.3606 23.4997 -6.31391
3.8048 -10.0787 -1.65572
-32.4118 -25.061 -6.2622
-14.0515 -42.3904 -6.8593
-31.4939 22.9197 -5.92165
-23.3144 -56.111 -9.25238
-7.74066 15.675 -2.63683
-33.6666 -23.6595 -6.19939
-32.9315 -24.2106 -6.19303
-28.0471 -26.3155 -5.78764
-33.5279 -24.1311 -6.19562
-31.6749 -25.3552 -6.06492
-35.1382 -23.4697 -6.27234
-25.1331 21.0981 -4.83791
-33.4538 -25.0344 -6.15744
-32.4087 -24.5422 -6.00311
-25.8098 21.2682 -4.89302
-12.7542 -42.2641 -6.47052
-12.733 17.4179 -3.10881
-7.75364 15.513 -2.47391
3.5002 -9.53762 -1.44575
38.1842 -12.5581 -5.71768
-33.7928 -24.8928 -5.93715
-30.8989 -24.5573 -5.55453
-30.3806 -25.6239 -5.59639
-20.9723 -50.5326 -7.62364
-6.91596 15.3251 -2.28339
-14.135 18.0596 -3.11156
-11.9468 -41.8186 -5.92166
-7.49793 15.1967 -2.2763
-24.9708 -65.0031 -9.4205
-22.6338 20.5836 -4.07484
-25.2449 -57.2196 -8.30954
-31.6337 -24.4196 -5.27485
45.0242 -10.375 -6.07664
44.4038 -9.76132 -5.98962
-13.6959 -42.5627 -5.87583
6.61317 -10.899 -1.6769
-15.1607 18.5696 -3.1204
-23.0432 20.2955 -3.98097
-32.953 -24.6008 -5.29404
10.682 8.7611 -1.78301
-34.0634 23.4215 -5.3079
-30.0514 22.8677 -4.7606
-31.245 -24.4624 -5.00602
-12.9607 -36.8743 -4.94195
9.64104 -9.02319 -1.64793
12.7413 -10.4129 -2.07184
-34.196 23.9888 -5.22348
-36.4419 -22.7034 -5.34727
-30.912 -25.5502 -4.98314
6.7558 -10.2746 -1.53485
-33.2557 -23.5062 -5.04638
-13.8665 -43.2607 -5.58745
13.1306 -10.9462 -2.09873
41.5061 -10.7875 -5.29569
-16.3434 18.8149 -3.04671
-16.1663 -39.1845 -5.18153
-8.83958 15.8033 -2.20605
43.3586 -9.98789 -5.38804
14.9408 7.79949 -2.02401
9.38712 -8.90709 -1.54496
-34.0705 -23.7713 -4.92611
-18.0423 19.6093 -3.11842
-20.9024 9.24985 -2.7086
-32.0487 -24.8116 -4.78012
11.2476 -9.67559 -1.73731
41.8516 -11.2038 -5.10187
14.6386 -11.3662 -2.13051
14.8684 7.64262 -1.90039
-30.2753 23.0241 -4.33935
7.23998 -10.9942 -1.49409
-10.3616 16.5436 -2.18679
9.4173 -9.28416 -1.47227
12.7204 -10.4477 -1.83574
13.9086 -10.9779 -1.97125
9.4215 -9.08578 -1.45287
7.03319 -10.4154 -1.3769
44.3249 -9.68066 -4.93877
-11.016 16.5479 -2.14419
-33.5808 23.6794 -4.46272
11.6667 -9.80187 -1.64559
6.14999 -12.647 -1.4796
7.52672 -11.5213 -1.43238
9.81379 -8.87471 -1.39224
-15.6543 -45.2357 -5.01856
16.472 -12.1982 -2.15004
-31.264 -62.8107 -7.27779
14.8117 7.45838 -1.69466
-31.3398 -24.9766 -4.11651
13.7637 -10.89 -1.79898
-32.1102 -24.8381 -4.10751
14.7983 7.73181 -1.67725
-12.7967 17.1134 -2.10031
-20.805 -52.7492 -5.4948
-33.5469 -67.7681 -7.23955
-23.6577 20.695 -2.96994
-31.2008 -25.56 -3.83412
-31.1809 -25.9004 -3.86341
-22.1837 -58.0477 -5.8596
-14.2247 18.2022 -2.16281
-31.461 -24.6135 -3.72801
-15.9687 -43.4947 -4.3164
-14.1726 -44.0505 -4.31649
9.78343 -9.06806 -1.23974
-34.0771 -66.3801 -6.87463
8.53454 -8.63148 -1.1023
16.4056 -12.2237 -1.87209
-15.1341 18.5651 -2.14919
-36.1267 -22.4701 -3.85013
-33.5285 23.6725 -3.61522
-31.2583 -25.2182 -3.54936
13.9712 -11.112 -1.585
-32.3676 -19.7243 -3.23417
11.0041 -9.65702 -1.24686
-26.9573 21.8664 -2.91572
-11.5193 -35.8523 -3.18254
9.36379 -8.97834 -1.08938
-34.2583 23.5537 -3.45452
8.65674 -8.65832 -1.00583
16.6668 -12.1552 -1.68544
-16.9952 -44.1617 -3.80317
-21.8266 -49.9289 -4.26574
-15.5044 -38.2759 -3.27359
-13.5078 -37.8999 -3.19688
9.16798 -8.90947 -1.00459
11.2374 -9.74144 -1.16615
14.7822 -11.5622 -1.4861
-30.287 23.0962 -2.96417
-29.4203 -13.7328 -2.52237
11.8044 -10.0005 -1.19941
-23.6342 -52.636 -4.41962
12.7142 -10.5532 -1.25207
-42.2361 -80.1297 -6.55598
9.91026 -9.09548 -0.975057
10.8606 -9.69433 -1.01487
-33.4735 -20.7802 -2.72569
11.8978 -9.99948 -1.07633
14.6303 -11.5192 -1.29447
-15.765 -39.8354 -2.91589
-15.3786 -40.6834 -2.98181
18.45 -13.3336 -1.51157
-23.5541 20.6229 -2.07791
-25.4128 -58.6223 -4.2256
12.8095 -10.5373 -1.10908
-14.8971 -41.3291 -2.85538
15.1882 -11.4677 -1.23695
-33.2466 -67.3135 -4.71535
-15.3013 -47.4274 -3.09708
-33.2404 23.482 -2.49081
-33.6906 -66.6244 -4.54475
-17.2738 -42.0772 -2.77376
30.6091 -20.2937 -2.23621
41.617 -10.8527 -2.61146
36.1846 -8.72405 -2.2555
-15.4015 -41.3499 -2.66633
-27.289 22.1474 -1.99259
-29.149 -14.3508 -1.87753
-16.1169 -41.987 -2.50891
16.7923 -12.5299 -1.174
-27.3093 -16.4337 -1.71583
42.1963 -9.39916 -2.22361
-9.42373 -12.5916 -0.798444
-15.6997 -41.7816 -2.2236
5.67887 -12.3941 -0.677522
-14.3476 18.1883 -1.12979
-15.4563 -48.581 -2.50421
14.8141 7.77191 -0.805776
-16.6298 -42.6261 -2.17501
-14.9056 -48.4777 -2.39355
18.5951 -13.1933 -1.093
-17.616 -51.0873 -2.52126
36.4686 -8.95687 -1.75989
-29.0493 -14.8543 -1.45991
-24.972 -57.2204 -2.76921
-16.8323 -41.4152 -1.99048
9.62192 -9.07964 -0.589927
12.5433 -10.2952 -0.728466
43.8042 -10.0229 -1.99871
-14.3383 -43.6141 -1.95455
-33.1643 23.4443 -1.69113
-54.4995 29.5984 -2.47336
-34.2246 23.5529 -1.52409
-19.2874 -50.4383 -2.02725
-34.8923 -21.9723 -1.47396
9.70878 -9.03532 -0.487691
6.57913 -10.7882 -0.438542
-13.3077 -39.6715 -1.38549
7.41918 -13.0225 -0.512001
18.4908 -13.0966 -0.765525
-27.3203 -59.836 -2.1664
-13.5921 -38.5606 -1.32511
20.8764 24.0777 -1.02292
-23.3757 20.7523 -0.984212
-21.3549 -54.6804 -1.82087
20.8788 -14.2379 -0.768428
-27.7878 -14.2999 -0.947289
-13.2881 -42.5267 -1.32506
-24.3507 20.6907 -0.917514
-24.2749 -55.866 -1.73315
-17.9522 -48.5871 -1.49461
22.4097 -10.0847 -0.74185
-34.745 -21.1702 -1.12536
-9.81911 -12.8826 -0.462661
-23.4599 -55.3247 -1.69667
17.9138 -13.3454 -0.568776
29.7159 49.5897 -1.4971
-30.446 23.2298 -0.984202
-31.6198 23.1274 -0.968469
-27.3943 -13.1627 -0.744758
9.52991 -8.96802 -0.316778
-21.1029 -33.9905 -0.933116
-40.6471 14.0994 -0.940252
21.0776 -14.1031 -0.538617
18.3194 -13.2073 -0.423829
12.7532 -10.4771 -0.275034
-33.4178 10.5682 -0.578982
-28.4674 -13.5561 -0.499113
-37.4 -21.2988 -0.653805
-18.4809 -45.3046 -0.757351
-7.99523 16.8141 -0.252874
-32.8282 -24.5236 -0.568188
-34.193 -23.3097 -0.529655
17.1917 -12.8266 -0.260308
18.109 -13.0383 -0.283044
28.6778 -17.6835 -0.449788
-21.9556 -56.2328 -0.732812
-30.6324 23.3543 -0.410422
-28.449 -60.7042 -0.714272
-18.9693 -43.5086 -0.508431
-54.1701 29.6868 -0.513327
-34.4907 -60.8431 -0.644901
-20.5354 -53.8566 -0.54798
37.1567 -8.97658 -0.351497
-14.4595 18.3527 -0.1639
-36.561 -81.418 -0.611531
-18.2684 -44.3093 -0.326742
9.53729 -8.97427 -0.0407932
14.7127 7.74522 -0.028143
-29.5999 -13.2046 -0.0585678
-11.7365 -17.0879 0.0251663
-12.9523 -19.4952 0.0444524
-19.0331 -43.6901 0.196309
9.40413 -8.95346 0.0591732
-33.1943 23.4917 0.211827
-22.3514 -56.4274 0.293287
-30.41 -14.1138 0.201381
16.7247 -12.2029 0.115686
-13.2076 -20.2506 0.157625
14.6225 -11.3905 0.145815
-53.8843 19.3058 0.507203
7.04451 -12.1039 0.117538
15.8936 -11.7774 0.167875
-36.8004 -22.269 0.451238
37.835 -7.77634 0.402075
-35.6255 -22.3256 0.478912
-12.7708 -35.2726 0.437351
-13.2535 -35.6397 0.460292
-11.3735 -32.7503 0.421432
-9.77376 -30.2404 0.384232
25.0681 50.7583 0.738124
9.54917 -8.98177 0.169471
-12.8836 -19.9641 0.323366
-11.0658 -33.5912 0.483996
8.53611 -8.4799 0.182405
6.24627 -12.7787 0.207124
7.11338 -10.9613 0.199448
9.30609 -9.02155 0.187184
7.99721 -9.07414 0.193426
9.68397 -8.96666 0.217383
37.3203 -7.99576 0.626133
-24.2169 20.7673 0.571993
-33.5246 -22.5554 0.695239
-34.8597 -25.5763 0.757137
12.8403 -10.5482 0.272242
13.1484 -10.6051 0.316529
-9.94586 -12.6104 0.303169
6.79097 -11.1296 0.254219
7.95246 -9.34618 0.241292
25.5816 52.6339 1.1736
6.93986 -10.9082 0.25991
9.14107 -8.64908 0.26735
11.4663 -9.85553 0.331311
17.141 -7.65616 0.377897
7.17305 -10.8831 0.295
-12.8904 -19.7882 0.564008
7.61307 -9.26874 0.273217
7.79578 -9.32287 0.282137
-26.032 21.8794 0.883915
-29.1433 -9.34573 0.768149
9.57725 -8.91105 0.336523
17.3539 -12.6773 0.541778
18.1765 -13.0881 0.55701
-23.3074 20.406 0.807668
-28.1639 22.2583 0.937751
-29.1553 -8.75048 0.797063
-33.4629 -17.8425 1.02996
-13.4598 -20.3249 0.647741
14.6574 -11.3887 0.495252
22.5647 -3.2831 0.641697
-12.2851 -19.1559 0.658181
24.7652 -4.69148 0.73363
16.0617 24.9259 0.88913
-28.294 -20.8438 1.03981
7.18386 -11.253 0.40087
6.92802 -10.639 0.386692
14.4771 23.5834 0.84999
-7.63538 -8.82283 0.356807
12.948 -10.5948 0.510879
-7.33283 -9.53052 0.368302
-28.7778 -8.12269 0.995271
-11.9676 -17.4942 0.709647
7.83465 -9.30598 0.402534
16.0011 10.9322 0.694237
10.7997 -9.40375 0.520231
11.8222 -9.98856 0.563961
22.0531 44.408 1.86272
-7.46046 -8.14506 0.412882
9.60423 -8.91549 0.489254
22.6321 -3.17754 0.877404
25.6502 53.023 2.28136
-7.4628 -9.90542 0.485088
10.3744 -9.46195 0.550834
12.6464 -10.4447 0.662707
21.4036 -2.62321 0.879184
-29.4128 -17.8441 1.40668
8.69905 -8.65992 0.507333
-6.93412 -8.47859 0.47084
9.39134 -8.88392 0.540482
12.533 14.3872 0.842928
-29.1219 -8.54678 1.33392
14.5107 18.9003 1.0712
14.7225 25.349 1.30658
20.9483 41.1931 2.04437
6.11922 -13.6337 0.666452
10.7836 -9.46052 0.648818
18.3599 -1.62938 0.843319
18.8898 35.9668 1.90587
14.6574 25.8251 1.3927
-11.2305 2.78557 0.557514
-7.25805 -9.56698 0.579119
9.1232 -8.94196 0.605071
11.3351 -8.69641 0.669082
19.9621 -2.28756 0.967962
11.5215 11.7418 0.817156
15.5386 37.3689 1.98998
7.7224 -9.41189 0.599301
10.1304 -9.22644 0.678592
14.2921 24.2353 1.40921
19.4963 37.807 2.15961
20.8413 -2.59623 1.068
-7.41879 -8.52323 0.586279
9.33934 -8.89208 0.67154
16.3961 24.0437 1.52914
16.1176 29.2192 1.74204
12.9198 -10.6493 0.889659
10.4497 12.2157 0.85999
14.0053 19.0111 1.26873
11.0121 -9.54858 0.788186
14.7813 19.2587 1.33914
-26.6629 20.4387 1.83676
-6.97972 -8.18869 0.595301
10.1471 12.2678 0.891791
-7.27736 -9.3946 0.665598
9.88585 12.3151 0.91609
-28.1309 19.805 1.95442
6.05767 -12.7934 0.81056
11.0723 11.9694 0.937365
-6.89189 -6.80176 0.561678
11.1619 11.9024 0.960995
-6.82052 -8.42804 0.648946
6.20365 -12.4703 0.813958
14.4197 19.1856 1.44338
13.8578 22.6573 1.58461
13.0307 30.1147 1.96952
-6.17585 6.57782 0.554434
-8.18475 -7.75537 0.682104
-7.13006 -8.17949 0.666465
5.67872 -12.35 0.822109
-7.49385 -6.89948 0.633798
6.96266 -11.0934 0.809972
6.94856 -10.5014 0.786025
11.2731 -9.73099 0.919805
12.0532 -10.083 0.973904
16.0941 7.12775 1.12165
14.6661 18.999 1.51872
-7.24831 -6.31694 0.623716
10.21 -9.32501 0.892458
-7.39021 -6.26957 0.635841
11.3624 11.9897 1.12566
9.34337 21.0337 1.56727
-7.28986 -9.67656 0.809458
11.5168 12.491 1.16568
-6.96409 -4.46291 0.569097
-6.76519 -8.21659 0.725904
-6.70754 -4.43891 0.554952
9.22976 -8.82424 0.889041
9.95497 -7.81034 0.891389
12.5481 15.8151 1.45985
9.76761 -8.24829 0.934911
11.3002 16.8965 1.52825
11.2209 17.8892 1.57757
9.4329 17.9537 1.52944
8.8435 19.1119 1.58389
7.15504 21.3248 1.69089
10.5955 18.2885 1.61029
9.97334 -7.56686 0.957284
-7.04042 -7.20178 0.771832
-17.2786 -6.26709 1.43738
9.43526 -7.64919 0.95224
9.16953 18.3142 1.61655
-6.38753 -4.26507 0.609087
-6.8435 -8.2365 0.849002
4.82987 -5.7275 0.595733
8.84233 19.4534 1.69487
7.60884 18.6036 1.61605
5.02259 -5.78871 0.617533
12.6619 11.4255 1.38206
11.6679 11.7203 1.3543
6.70249 -9.35032 0.935256
12.122 11.5943 1.37894
6.52612 19.1578 1.65653
-6.36369 -4.39299 0.630372
-7.17986 -9.50255 0.977586
11.4362 11.9812 1.37051
10.3942 9.09308 1.17605
-5.05631 -11.536 1.06394
6.11615 -6.03636 0.750163
9.18426 -7.15483 1.00139
-6.80613 -6.70365 0.811742
10.3273 12.2388 1.39802
8.7666 -7.30482 0.992015
10.7235 12.0883 1.4143
-7.32426 -7.77998 0.93685
8.16416 -7.26816 0.970576
10.1043 12.3503 1.43459
-7.08528 -7.75681 0.931589
-6.95271 -8.35803 0.97579
10.4944 12.199 1.46129
10.3869 13.3984 1.53601
-7.13222 -8.34616 1.00014
11.1236 10.7445 1.42259
-6.32159 -4.23595 0.699906
-6.87628 -8.61232 1.00839
-6.33559 -4.39938 0.711175
11.0077 8.49495 1.30489
10.5624 9.25946 1.30977
6.38595 15.1696 1.54797
10.4156 11.2052 1.44769
-11.2765 2.88963 1.10032
6.14777 -5.95584 0.816102
7.98287 -6.61785 0.996038
10.6627 9.13075 1.36286
9.43124 12.4095 1.50927
9.61575 12.34 1.54134
7.58502 12.1305 1.42119
7.82054 13.0735 1.51642
11.1514 8.00786 1.39925
7.05758 12.5586 1.45388
8.97828 11.2516 1.46473
6.90909 13.3758 1.54071
5.78355 13.7425 1.53058
9.12144 10.3989 1.42971
8.94231 12.1825 1.57019
11.3168 7.60999 1.42274
9.17938 9.92714 1.4078
4.96875 -5.81429 0.821139
-6.85571 -4.66275 0.874785
5.49475 13.6894 1.5656
-7.06957 -4.51338 0.894688
8.85197 10.6065 1.48336
-6.77806 -6.78775 1.02623
5.90161 -5.82509 0.895775
9.62673 8.47577 1.3826
8.89582 9.29137 1.38359
9.18305 10.2369 1.49109
4.70588 13.6382 1.55695
4.2281 -8.04119 0.984236
6.40376 10.7134 1.3735
-6.81084 -3.93035 0.865791
6.2781 11.7714 1.4802
-6.90503 -3.86858 0.877076
9.65561 7.16435 1.3446
6.60276 11.2687 1.45459
9.751 6.99132 1.34799
5.37316 11.4543 1.43052
5.37483 11.9511 1.48003
4.64201 12.08 1.46417
9.78243 6.64888 1.3481
-6.90214 -4.57045 0.948302
7.39178 -6.21752 1.10106
-7.34447 -0.786923 0.847306
-6.28371 -5.39815 0.954279
5.24519 -5.56384 0.882386
8.82292 7.84374 1.37544
4.41368 -7.17602 0.976047
10.3666 5.13209 1.35471
8.9069 7.74851 1.38782
5.1967 -5.60754 0.903302
8.55171 7.87172 1.37922
8.84236 8.99558 1.47584
-7.05987 -5.66075 1.07093
10.0979 4.72835 1.32855
-6.92888 -3.85748 0.955796
9.09752 6.1157 1.3296
5.15436 11.298 1.50532
-6.90327 -3.07004 0.918292
-6.88758 -3.2563 0.921607
4.87792 -5.94888 0.939055
5.96671 -6.12168 1.0409
9.33181 5.59734 1.34525
8.41762 7.18643 1.36851
-6.96104 -4.31713 1.0093
-6.89235 -4.54195 1.01759
8.20683 8.53136 1.46871
4.97718 11.1932 1.52101
-6.56078 -5.62681 1.07588
3.70536 -7.5675 1.05014
8.45531 7.69918 1.43095
6.07135 -5.61136 1.0366
9.1246 6.03315 1.38629
-6.1435 -5.42099 1.0341
8.50761 6.58153 1.37177
8.04403 7.46854 1.39636
-7.11212 -1.78571 0.938286
-7.02416 -2.30951 0.944679
-6.45538 -5.32692 1.06808
8.7906 5.63573 1.33872
8.10729 7.9984 1.46789
-7.27574 -1.25533 0.947151
-6.9083 -4.12517 1.04055
7.39748 6.19248 1.24954
8.03691 7.00481 1.38248
7.92177 8.07722 1.46609
-6.92037 -2.83031 0.973748
-6.92166 -2.9704 0.974124
4.50882 9.98466 1.43968
8.96446 4.09571 1.29734
-7.25928 -1.60871 0.977539
6.83115 -4.25392 1.06959
4.92568 -5.94058 1.0232
-7.34537 -1.119 0.994987
-7.02454 -2.20257 0.985156
-7.06177 -2.27195 0.991447
-6.00202 -4.40343 0.995144
5.18331 -6.55839 1.11417
6.90169 -4.17082 1.0857
8.0306 7.13213 1.45508
-7.16228 -1.72085 0.990701
-7.09317 -1.95861 0.990116
8.75868 4.83551 1.35891
8.29455 5.84677 1.37982
-6.9312 -3.62436 1.06615
8.8343 4.14618 1.33861
3.30558 10.3887 1.49226
-7.32466 -1.20188 1.01651
-6.01732 -4.44679 1.02935
-5.99781 -4.54574 1.03059
7.1386 -3.92901 1.12002
8.03281 6.45444 1.42519
5.31516 8.98355 1.44538
-6.39062 -4.32714 1.05836
4.93111 -5.52382 1.0287
7.17612 -3.82484 1.1318
7.5488 -3.68106 1.16213
3.58089 9.93379 1.47018
3.39438 10.2131 1.50025
-7.38138 -1.0839 1.042
-7.08393 -2.00669 1.02644
4.97065 -5.28589 1.01439
7.23762 -3.73292 1.14414
7.35354 -3.66752 1.16555
7.86071 -3.3515 1.21489
-7.16527 -1.87747 1.05385
-7.01787 -2.94996 1.10359
-6.01512 -4.37867 1.07037
7.89521 -2.77877 1.22468
8.20317 4.60417 1.37829
4.95783 8.49311 1.4413
8.3403 4.4913 1.40007
7.82096 -2.33793 1.20336
7.1175 5.66591 1.36237
2.93049 9.35341 1.46529
-7.10385 -2.02234 1.10742
7.47614 -3.10649 1.22054
8.20006 4.5318 1.42022
5.75516 7.4015 1.42369
5.26121 7.59011 1.40726
5.09604 7.89535 1.42735
5.04898 8.00212 1.432
7.32701 -3.16688 1.21921
7.67131 -2.75324 1.24122
-6.76483 -1.68495 1.05055
7.82291 -2.2543 1.24851
7.20846 5.40626 1.38365
-7.11343 -1.95513 1.14526
-6.92906 -2.78957 1.16139
6.78958 5.50716 1.37132
-7.36707 -1.09747 1.16389
-7.15444 -1.82674 1.15691
-7.05619 -2.07034 1.15267
-7.13099 -1.87512 1.15756
-6.90411 -2.93811 1.17833
4.78415 7.41803 1.40378
3.44612 -6.03166 1.1093
-7.28695 -1.30141 1.18631
3.52809 -5.70771 1.08101
3.56506 -5.61323 1.07043
7.05689 4.75682 1.38685
4.63866 7.34161 1.41333
-7.08098 -2.02632 1.20081
-7.10314 -1.94969 1.20918
6.95245 4.81767 1.39895
3.79569 7.88522 1.44876
6.05135 -3.31825 1.14969
6.6211 4.86403 1.36989
4.64177 7.13427 1.41975
3.8364 -5.30055 1.09977
7.09384 4.4174 1.40717
7.46633 2.85499 1.35097
6.30743 5.27276 1.3934
-7.29057 -1.2577 1.26039
6.74362 4.07717 1.35341
-6.45815 -2.7751 1.19982
5.50865 -3.62914 1.13321
5.68973 -3.51793 1.14856
2.73703 7.79982 1.4289
-7.38479 -1.04125 1.2935
5.33309 -3.78292 1.1398
-6.31796 -2.26218 1.16415
-6.27821 -2.41937 1.17857
4.28111 -4.66463 1.10719
4.49391 -4.47708 1.11276
4.5915 -4.44883 1.12163
-6.81034 -1.73494 1.23852
4.31767 6.47768 1.38867
-7.17109 -0.929768 1.29312
-6.15061 -2.26013 1.16768
6.63178 3.68768 1.36031
6.09129 4.3556 1.35832
3.60904 -5.32796 1.17032
5.13593 5.67222 1.39962
2.50172 7.15858 1.42426
6.47927 3.04945 1.35402
-1.70639 -5.78266 1.14143
6.42476 -1.38561 1.24706
6.26849 2.77583 1.31995
6.21447 2.38001 1.32772
-4.46899 3.95479 1.40386
4.32047 3.53058 1.33453
4.20658 3.2887 1.32185
4.66482 -1.6776 1.24477
4.8181 -1.38076 1.25383
-2.1568 4.83377 1.32339
3.72801 -2.95375 1.22271
3.67412 -2.55023 1.19394
3.40789 -2.9628 1.22624
3.99921 2.56615 1.32785
-2.5936 -3.53313 1.25088
-2.3249 -3.56896 1.21611
3.75057 2.05543 1.30022
3.72738 1.97793 1.2997
-2.85292 3.4989 1.3936
-2.29501 -2.41796 1.18715
1.95779 -2.78436 1.21419
-2.1294 2.77578 1.32982
-2.03401 2.76376 1.33598
2.25281 -1.87131 1.22633
2.38198 -1.49932 1.22318
-2.01904 1.88054 1.29939
-2.0631 -1.44216 1.22831
1.45169 -2.07285 1.24714
-1.99118 -1.08716 1.21445
-1.92387 -0.707311 1.22016
-1.92563 -0.703112 1.24577
-1.95507 -0.344208 1.22936
-1.89194 -0.564417 1.23015
-1.89157 -0.530643 1.23526
8.20638 -8.68513 -7.45325
12.0816 -10.25 -8.76856
-8.85992 15.8178 -7.03634
20.306 24.7264 -11.4925
-8.82279 -2.52669 -2.58604
-34.902 -23.3147 -7.75324
-34.4873 -22.5538 -6.07983
-34.2184 -23.2542 -6.14365
-31.5256 -20.2185 -2.81629
9.25901 -8.81896 -0.390747
-7.82844 16.8743 -0.458942
-29.7107 -11.497 0.734129
-6.93407 -8.28738 0.461652
16.4482 23.6188 1.56387
11.2704 15.8503 1.60868
-6.70603 -6.67901 0.885171
4.17435 12.1123 1.47622
8.67842 9.03981 1.4658
7.96625 -8.75738 -10.3718
8.82458 -8.53258 -10.4887
6.95134 -11.9282 -11.5055
6.86716 -11.3418 -10.8879
8.14616 -8.25845 -9.52556
7.0169 -12.021 -11.3188
7.06067 -10.965 -10.4487
7.99592 -8.37127 -9.19691
6.72249 -11.2767 -10.2818
6.44045 -11.6891 -10.2062
7.75159 -8.84417 -8.96574
6.20055 -14.3061 -11.7998
8.29162 -8.69374 -9.09394
6.29528 -11.9011 -10.1687
6.14325 -12.0805 -10.1065
7.4851 -9.43777 -8.99416
7.90356 -9.04948 -8.92045
10.4519 -9.43591 -10.473
6.1166 -14.1069 -11.3655
6.09882 -13.6638 -11.0017
6.12696 -12.5688 -10.2848
9.18555 -8.8154 -9.3397
9.27325 -9.06179 -9.45681
5.86086 -12.4974 -10.0279
9.34909 -8.97863 -9.25108
6.8552 -11.116 -9.26898
5.61191 -12.9625 -9.99785
9.678 -9.06813 -9.39936
7.60293 -9.33687 -8.46599
9.98234 -9.17311 -9.5246
10.9006 -9.47907 -10.1366
11.4205 -9.68153 -10.0552
8.37763 -8.60086 -7.94934
7.42485 -9.29145 -7.85881
8.16031 -8.71087 -7.88973
7.62163 -9.34425 -7.88935
7.83033 -9.39433 -7.83852
8.31343 -8.52813 -7.61364
0.36132 15.8789 -10.1334
7.52133 -9.3164 -7.61993
10.8922 -9.59096 -9.22784
7.21852 -10.6913 -8.16492
8.14845 -8.49046 -7.42167
4.61082 -15.4008 -10.1109
8.70661 -8.69388 -7.61276
7.91492 -9.02522 -7.40476
4.04651 -18.0139 -11.3732
8.19103 -8.62058 -7.26996
4.08521 -17.3069 -10.8509
0.147135 14.8852 -9.0569
6.64816 -11.2523 -7.95749
7.73642 -9.26082 -7.322
10.1086 -9.29684 -8.33369
6.81431 -11.2414 -7.89199
8.05336 -9.19642 -7.33799
11.2472 -9.67821 -8.87169
5.39669 -13.8477 -8.81492
7.72847 -9.25854 -7.15244
9.33984 -9.02285 -7.69529
6.89564 -11.1051 -7.73697
7.97645 -9.12021 -7.10966
9.73919 -9.17482 -7.79801
14.8024 7.39647 -9.60948
8.65794 -8.82159 -7.14249
6.92634 -10.9546 -7.44899
2.63837 -11.2066 -6.62164
7.85294 -9.06376 -6.86868
9.59143 -9.1272 -7.52129
10.7751 -9.47982 -8.09634
3.27948 -20.6035 -11.7327
6.79511 -10.973 -7.2359
10.0903 -9.2768 -7.67624
12.3105 -10.3296 -9.01232
9.22881 -8.99631 -7.20197
4.61141 -14.281 -8.36687
7.99576 -9.20714 -6.77283
14.7244 7.52775 -9.07812
9.68343 -9.09397 -7.29594
0.838031 17.4623 -9.54617
2.74186 -19.8639 -10.934
11.1098 -9.62753 -7.98222
4.22787 -14.4048 -8.1269
14.638 7.65488 -8.89688
15.0181 10.3686 -9.79756
13.976 7.71018 -8.52794
10.93 -9.59985 -7.73612
13.2285 -10.7726 -9.07548
3.04419 -19.3394 -10.292
11.3328 -9.80519 -7.62544
2.16845 -20.3881 -10.3486
10.2419 -9.32461 -6.96516
14.2281 -11.2539 -9.10861
13.7643 -11.1331 -8.86297
10.9848 -9.63493 -7.27989
7.49941 -9.32652 -5.92687
3.56123 -8.46393 -4.52552
-8.72046 -1.91469 -4.38973
2.22417 -20.1765 -9.95593
4.52949 -9.29451 -5.05676
0.40488 13.6532 -6.68592
7.59834 -9.25864 -5.84485
-8.56109 16.3397 -8.93494
-9.2231 -2.43823 -4.59679
14.9439 -11.5402 -9.07395
19.2956 5.52083 -9.59743
-10.3422 -2.56057 -5.03955
1.90919 -20.562 -9.81951
17.1072 16.0758 -11.1171
7.57001 -11.1918 -6.37579
19.9427 5.38285 -9.72719
13.9869 -11.0739 -8.29643
2.92492 -17.3113 -8.16398
19.2728 5.70236 -9.28465
17.7685 -12.9492 -10.1564
9.84578 -2.48688 -4.69194
20.196 5.11887 -9.61218
17.2309 16.2029 -10.8979
1.81035 -20.238 -9.29911
9.655 -9.02839 -6.0531
-9.23327 -1.67593 -4.27984
9.43486 -3.46194 -4.57718
6.70072 -11.2962 -5.9744
9.8929 -2.61303 -4.64104
19.1659 5.84425 -9.02025
17.6077 17.4646 -11.1475
9.3513 -3.0804 -4.43162
15.3719 -11.8286 -8.70472
7.02341 -11.5398 -6.04276
7.13865 -10.8977 -5.80719
9.54071 -3.39811 -4.51318
-10.0931 16.5443 -8.62883
17.5778 -12.8286 -9.67062
19.451 5.60328 -8.97141
16.0416 7.27615 -7.79958
17.7128 17.8904 -11.1328
16.3623 -12.169 -8.98782
-11.3677 17.2873 -9.09502
-6.6189 15.1282 -7.24088
-5.25511 4.92922 -3.13968
20.0448 5.44249 -9.02955
9.53967 -3.39839 -4.37038
18.1009 18.3457 -11.0757
15.762 -12.1298 -8.55879
14.8079 7.40378 -7.06508
3.83443 -9.2923 -4.27111
-11.2886 17.1699 -8.69998
6.93126 -10.8861 -5.44209
-13.6469 3.34453 -5.92007
0.743152 -22.4195 -9.45292
15.7505 -11.9259 -8.26251
-5.1863 5.71124 -3.22811
0.998982 -22.2843 -9.35065
1.23126 -20.7898 -8.7249
14.12 7.57282 -6.701
18.4248 19.2005 -11.1172
3.77909 -8.94636 -4.05014
14.7197 7.70257 -6.91473
17.8001 19.0103 -10.8064
-9.53762 -1.09464 -3.96304
4.00458 -8.4969 -3.8486
13.987 7.72307 -6.5584
6.83071 -10.966 -5.28219
-13.6843 2.55632 -5.69502
-8.05074 15.5979 -7.13387
19.1135 20.7684 -11.4334
15.0208 7.21742 -6.71394
-5.32447 14.5434 -6.21025
13.9062 -10.9942 -6.94371
1.5287 19.1848 -7.47381
-8.84781 15.9808 -7.09931
18.9141 5.76813 -7.6613
-1.76095 13.3507 -5.21622
5.2886 -9.38158 -4.15341
-2.39708 13.5773 -5.2959
19.4306 22.477 -11.3912
4.65615 -8.5076 -3.68327
19.3379 5.54765 -7.65501
0.878378 -26.6304 -10.1254
14.8514 -11.4445 -7.05648
19.8934 5.38949 -7.71358
9.42574 -3.43411 -3.75055
0.534223 -22.7757 -8.48945
3.24277 -10.776 -4.20449
20.0213 23.2924 -11.4049
0.910105 -8.72723 -3.25394
13.9812 -11.0724 -6.57663
20.2988 5.16278 -7.70075
17.7659 17.5545 -9.12606
-13.0945 2.29405 -4.83331
20.6587 24.6693 -11.6688
2.28313 -13.2384 -4.84003
12.9947 -10.5087 -6.01401
0.796052 15.4105 -5.52073
-8.21665 -2.80396 -3.10542
0.410137 -21.9264 -7.83896
-4.26124 13.9882 -5.2021
0.638613 -21.9853 -7.81595
15.7948 -11.9293 -7.01592
-15.954 18.4444 -8.59537
5.91925 -11.3212 -4.49214
-11.1727 16.8611 -7.06552
0.093049 -18.5712 -6.52788
14.2169 -11.2672 -6.34335
20.2537 5.33401 -7.31018
0.658134 -23.1153 -7.9859
-5.07511 14.7354 -5.34078
3.63619 -8.44121 -3.16389
4.87117 -9.02331 -3.51399
-14.7117 18.2651 -8.02862
2.27323 -10.8788 -3.80882
-9.0081 16.342 -6.36182
3.01983 -13.6645 -4.77162
-15.1939 18.6491 -8.15566
20.0724 5.45741 -6.99129
21.823 26.9959 -11.6004
35.7494 -20.1808 -13.7198
-5.37391 14.2556 -5.0608
1.90775 20.6567 -6.88232
1.26714 -10.2479 -3.41426
-5.31984 14.6506 -5.06335
-12.7665 17.4779 -7.02217
18.4758 -13.1657 -7.36783
3.55799 -8.66848 -3.00432
6.20993 -10.097 -3.79906
2.3124 -11.004 -3.57836
-4.61757 -34.676 -11.1176
-1.14759 -24.0242 -7.65531
14.9525 10.2979 -5.72918
-13.4001 17.8317 -7.05119
-18.2634 19.699 -8.44516
6.94719 -11.0717 -4.04128
1.38706 -21.947 -6.80268
-2.60113 -27.6936 -8.53723
7.11037 32.8297 -10.2488
0.771051 14.9996 -4.56151
-11.2955 17.0435 -6.16359
-2.73192 -26.8155 -8.11641
-14.5551 18.1987 -6.95398
-5.36339 -35.1603 -10.5892
0.840809 -25.1809 -7.53294
-5.46811 15.0418 -4.7618
2.07252 20.6033 -6.10005
-21.6001 20.1406 -8.71391
18.1401 5.77256 -5.60303
-4.35153 14.6192 -4.48572
-8.0395 15.5981 -5.14927
4.25093 -9.13295 -2.96096
4.62861 -11.5982 -3.65163
-12.6704 2.23207 -3.69767
-33.667 -47.6892 -16.7963
-15.4197 18.5503 -6.93514
6.94305 -11.0583 -3.75935
2.56172 -9.53881 -2.80642
12.898 -10.4401 -4.72253
-8.46742 -2.46427 -2.50059
20.8651 26.9086 -9.64606
-8.59547 -2.26543 -2.51183
-2.58654 -26.3854 -7.43906
-13.0793 2.00425 -3.68489
4.37975 -11.3089 -3.36623
-9.44538 16.2443 -5.15968
-13.2486 17.6698 -6.06678
-5.47061 14.6024 -4.26302
-8.66813 -42.089 -11.7561
-21.7972 20.3409 -8.01558
-9.8719 16.3703 -5.12388
-27.1284 20.8396 -9.10128
11.383 11.4565 -4.26083
4.31871 -11.2744 -3.19863
46.6213 -13.5528 -12.8624
-8.3739 -39.5135 -10.615
4.08435 -8.64649 -2.51804
11.1444 -9.91245 -3.90191
-14.6648 18.3619 -6.11113
6.5257 -10.4069 -3.17952
3.17449 -9.63558 -2.62281
-30.73 -45.0071 -14.0713
-4.43413 -29.0801 -7.60963
3.5356 -10.3565 -2.82195
4.06299 -9.37526 -2.62639
15.5503 -11.6927 -4.96449
-7.26366 15.4756 -4.32803
-32.1626 -42.8928 -13.594
4.30384 -11.124 -3.019
4.25105 -7.69703 -2.23791
6.52359 -10.6412 -3.11301
44.3456 -13.4074 -11.5512
-28.715 21.6644 -8.89359
-11.6982 17.187 -5.12605
-28.0967 -40.9865 -12.2172
-10.101 -39.7551 -10.1165
-24.8519 20.8737 -7.97619
4.34289 -10.3152 -2.75002
-12.2391 17.5314 -5.18482
-7.95934 15.5089 -4.20242
10.2532 -9.24854 -3.30637
39.9107 -13.2574 -10.0641
15.0604 7.53182 -4.00842
-6.43749 -36.8613 -8.91246
3.96106 -9.07713 -2.3468
46.4962 -12.4443 -11.4243
-12.4512 -45.8421 -11.2516
3.84856 -11.0384 -2.7554
4.90197 -8.68187 -2.34558
-12.9647 17.668 -5.10069
10.9819 -9.62396 -3.33755
-6.293 -31.9086 -7.41997
-27.5658 21.2905 -7.89585
41.1317 -8.99517 -9.55516
-30.9792 22.4925 -8.58374
-35.8773 -23.5113 -9.61083
40.3367 -12.4693 -9.48003
5.44565 -9.45879 -2.43695
-12.4593 2.84294 -2.80408
40.2091 -11.7832 -9.25805
42.157 -12.0286 -9.64549
-5.46163 14.3313 -3.35424
13.3492 -10.7419 -3.77174
37.7212 -12.1224 -8.71076
-23.7336 20.6852 -6.82946
-30.708 -75.7064 -17.7251
4.30177 -9.68232 -2.2977
4.53167 -9.1652 -2.20855
-14.7897 18.4266 -5.0465
-31.4269 22.8279 -8.29451
-32.3232 22.9386 -8.47309
-29.364 -77.9054 -17.8433
-10.8457 16.9476 -4.26713
-8.61144 -36.5525 -7.98449
3.1844 -9.66751 -2.17063
3.95826 -9.80964 -2.25561
45.2938 -10.5013 -9.92557
14.8934 7.45988 -3.53109
-15.3745 18.9263 -5.16321
5.1559 -9.04067 -2.18668
26.2035 37.912 -9.62935
14.9319 7.81458 -3.49869
-30.4991 -23.5546 -7.99373
-11.6125 17.1099 -4.20274
-15.8417 18.7303 -4.99463
-35.7563 24.0022 -8.75133
43.9592 -9.58836 -9.1756
-13.5909 -43.7309 -9.3059
4.12784 -9.7155 -2.14784
11.5732 -9.62052 -3.06218
-12.1668 17.4605 -4.24883
-20.5732 -59.0439 -12.4943
-13.258 -41.1835 -8.56461
4.06178 -9.90193 -2.1192
-34.5288 -23.6104 -8.24556
-27.1184 21.2836 -6.78522
-33.5471 -23.9967 -8.03979
-6.99289 15.4533 -3.29314
-27.4615 -64.5247 -13.6195
-33.953 -22.6035 -7.85985
3.42943 -9.34489 -1.92231
45.3755 -10.5132 -8.94443
-12.9232 17.6445 -4.18156
3.98192 -9.32799 -1.93566
-36.8838 -22.4042 -8.16879
-21.6148 -35.1126 -7.84095
-15.9877 -46.1298 -9.23651
37.5539 -12.3881 -7.47597
-36.5354 24.5382 -8.23684
-34.0966 -23.5478 -7.78402
-33.0371 -24.1712 -7.68381
-21.9285 -54.3252 -11.0219
-17.3142 -47.0293 -9.29489
3.81508 -9.19462 -1.8388
42.143 -11.3583 -8.10555
5.74692 -9.69477 -2.06562
-25.2678 -57.2951 -11.4631
-20.9986 -52.1191 -10.1619
-14.758 18.3964 -4.1824
-31.4726 -25.3833 -7.18675
-20.5381 -27.3676 -6.11846
-40.0276 25.2579 -8.35115
-27.1296 21.302 -6.00394
-34.611 23.684 -7.28198
3.90142 -10.0292 -1.86617
4.76521 -8.60056 -1.70881
13.9535 7.4934 -2.73141
14.0252 8.04824 -2.76918
-31.278 22.7449 -6.63021
41.8259 -11.8334 -7.40071
41.6297 -10.7817 -7.32095
-31.6297 -25.1199 -6.85155
-21.3455 20.3289 -4.95028
-20.962 -52.1028 -9.48822
14.8057 7.42059 -2.77726
-32.1629 22.7694 -6.58278
-24.2695 -57.8618 -10.3669
43.1255 -11.6176 -7.25991
-10.4901 16.654 -3.17673
-21.263 -52.7498 -9.06976
-35.3163 -24.3791 -6.76195
-23.0736 20.2721 -4.80971
-24.4989 20.9137 -4.99261
-40.7404 24.6669 -7.38027
-11.3694 17.0167 -3.15984
3.46537 -9.51054 -1.5656
3.86031 -10.2083 -1.69003
-7.72946 15.6778 -2.67053
-31.5142 22.9369 -5.95846
-32.1354 -24.8204 -6.17417
-28.2723 -26.4455 -5.86448
41.8147 -10.8705 -6.56756
44.4176 -9.67698 -6.92613
-6.63547 14.7802 -2.42482
9.81732 -5.146 -1.64513
-33.89 -24.4433 -6.22236
10.1716 -9.14541 -2.03858
44.5548 -10.3072 -6.79187
-37.1048 -24.7001 -6.55985
-31.8929 -26.3066 -6.0474
-12.988 -43.033 -6.61299
16.8509 -12.1916 -3.04688
-25.7279 21.1825 -4.84334
-25.4278 -56.9734 -8.98954
-7.7251 15.4731 -2.47355
-12.874 17.5531 -3.10398
6.01855 -11.4984 -1.85473
-13.5859 18.159 -3.18606
-35.2209 23.7924 -5.9758
6.7429 -11.0142 -1.80519
37.2741 -12.3011 -5.52103
-31.5174 -25.2549 -5.63636
-33.4956 24.0716 -5.71429
-21.1401 -50.9508 -7.61818
44.7034 -10.0006 -6.31701
-6.97169 15.4188 -2.31312
-23.4068 -61.0879 -8.88591
7.73737 -9.36363 -1.63022
-14.1828 18.1093 -3.10117
13.1767 -10.5094 -2.28074
-22.511 20.4765 -4.0922
41.7358 -10.7908 -5.72344
44.4327 -9.73253 -6.02094
-22.8935 20.1464 -3.98791
-33.0727 -24.7478 -5.39514
-15.0855 18.4729 -3.08409
-34.5206 23.0406 -5.38836
-38.7597 -16.3659 -5.4321
7.00097 -10.4119 -1.60996
10.7344 8.78852 -1.78107
-34.1989 -23.5676 -5.31484
-31.8903 23.2806 -4.9947
-35.9962 -22.462 -5.31798
41.6046 -10.7596 -5.37824
6.78081 -10.3445 -1.54569
-7.76371 15.5292 -2.15027
-25.3476 21.2838 -4.05303
