ply
format ascii 1.0 
element vertex 1873
comment /media/mkaihara/Seagate Backup Plus Drive/model_iterations/model_87.ply
property float32 x 
property float32 y 
property float32 z 
end_header 
7.42345 -9.28974 -7.85739
8.15855 -8.70901 -7.88808
7.62015 -9.34247 -7.88788
7.82881 -9.39255 -7.83706
8.31169 -8.52636 -7.61208
0.361876 15.8803 -10.1342
7.51987 -9.31462 -7.61851
10.8885 -9.58773 -9.22478
7.21696 -10.6891 -8.16325
8.14678 -8.48873 -7.42018
4.61072 -15.401 -10.111
8.70496 -8.69227 -7.61137
7.9134 -9.02351 -7.40338
4.04649 -18.0148 -11.3737
8.1894 -8.61889 -7.26856
4.08555 -17.3092 -10.8524
0.147658 14.8867 -9.05778
6.64689 -11.2502 -7.95609
7.73502 -9.25919 -7.32073
10.1051 -9.29364 -8.33088
6.81306 -11.2394 -7.89066
8.0517 -9.19456 -7.33653
11.243 -9.67461 -8.86843
5.39607 -13.8465 -8.81415
7.72699 -9.2568 -7.15112
9.33741 -9.02054 -7.69335
6.8943 -11.103 -7.73557
7.97486 -9.11842 -7.1083
9.73631 -9.17213 -7.79577
14.792 7.39123 -9.60252
8.65579 -8.81941 -7.14076
6.92508 -10.9527 -7.44774
2.63823 -11.2062 -6.62146
7.85138 -9.06198 -6.86736
9.58858 -9.1245 -7.51911
10.7716 -9.47673 -8.09375
3.28022 -20.6099 -11.7364
6.79404 -10.9714 -7.23486
10.0871 -9.2739 -7.67388
12.3048 -10.3248 -9.00826
9.22637 -8.99396 -7.20012
4.61083 -14.2795 -8.36609
7.99396 -9.20508 -6.77135
14.7138 7.52231 -9.07142
9.68056 -9.0913 -7.29383
0.83853 17.4612 -9.54547
2.74264 -19.8713 -10.9381
11.1059 -9.62413 -7.97944
4.22702 -14.4023 -8.12555
14.6275 7.64934 -8.8903
15.0056 10.3599 -9.78915
13.9661 7.70465 -8.52168
10.9261 -9.59642 -7.7334
13.2219 -10.7673 -9.07104
3.04506 -19.3465 -10.2958
11.3285 -9.8015 -7.62262
2.16897 -20.3953 -10.3523
10.2382 -9.32128 -6.96274
14.2208 -11.2482 -9.10405
13.7568 -11.1271 -8.85822
10.9805 -9.63117 -7.27711
7.49784 -9.32459 -5.92568
3.56133 -8.46416 -4.52565
-8.72343 -1.91534 -4.39128
2.225 -20.1863 -9.96074
4.52962 -9.29484 -5.05694
0.405331 13.6523 -6.68536
7.59677 -9.25676 -5.84369
-8.5734 16.3638 -8.94832
-9.22643 -2.43911 -4.5985
14.9349 -11.5333 -9.06863
19.28 5.51635 -9.58956
-10.3465 -2.56164 -5.04171
1.90962 -20.5693 -9.82299
17.0876 16.0571 -11.104
7.56813 -11.1891 -6.3743
19.9261 5.37837 -9.71901
13.9798 -11.0683 -8.29234
2.92454 -17.3101 -8.16349
19.257 5.69767 -9.27692
17.7556 -12.9399 -10.1492
9.8432 -2.48622 -4.69067
20.1792 5.1146 -9.60407
17.2108 16.1838 -10.8848
1.81094 -20.2473 -9.30337
9.65227 -9.02587 -6.05145
-9.2367 -1.67655 -4.28148
9.43267 -3.46112 -4.57608
6.69906 -11.2935 -5.97302
9.8903 -2.61234 -4.63978
19.1501 5.83942 -9.0127
17.5856 17.4425 -11.1331
9.34914 -3.07968 -4.43055
15.3618 -11.8209 -8.69916
7.02158 -11.5369 -6.04129
7.13711 -10.8954 -5.80602
9.53844 -3.39729 -4.51207
-10.1082 16.5696 -8.6422
17.5649 -12.8192 -9.66365
19.4349 5.59863 -8.96388
16.0291 7.27044 -7.79333
17.6901 17.8674 -11.1182
16.3515 -12.161 -8.98201
-11.3875 17.3177 -9.11123
-6.62856 15.151 -7.25199
-5.25855 4.93254 -3.1419
20.0279 5.43789 -9.02183
9.5374 -3.39758 -4.36931
18.077 18.3213 -11.0607
15.7519 -12.122 -8.55341
14.7968 7.39817 -7.0596
3.83436 -9.29215 -4.27106
-11.3078 17.1994 -8.71513
6.92975 -10.8838 -5.44098
-13.6573 3.34709 -5.92464
0.743333 -22.4333 -9.45871
15.7413 -11.9189 -8.25778
-5.19019 5.71564 -3.23071
0.999358 -22.2988 -9.35671
1.23142 -20.7968 -8.72783
14.1095 7.56715 -6.69585
18.3994 19.1738 -11.1015
3.77913 -8.94649 -4.05021
14.7085 7.69666 -6.9093
17.776 18.9843 -10.7914
-9.54141 -1.09507 -3.96466
4.00488 -8.49757 -3.8489
13.9765 7.71723 -6.55331
6.82921 -10.9636 -5.2811
-13.6942 2.55818 -5.6992
-8.06398 15.6241 -7.14606
19.0849 20.7372 -11.4159
15.0094 7.2119 -6.70868
-5.33192 14.5647 -6.21953
13.8983 -10.988 -6.93987
1.52812 19.1708 -7.46809
-8.86307 16.0088 -7.11196
18.8985 5.76335 -7.65487
-1.76194 13.3618 -5.22061
5.28814 -9.38078 -4.15309
-2.3989 13.5902 -5.30102
19.3992 22.4404 -11.3724
4.65618 -8.50766 -3.6833
19.3217 5.543 -7.64852
0.879121 -26.6636 -10.1379
14.8422 -11.4374 -7.0522
19.8765 5.3849 -7.70693
9.42357 -3.43332 -3.74966
0.534629 -22.8042 -8.49996
3.24235 -10.7747 -4.20403
19.9878 23.2533 -11.3854
0.910396 -8.72985 -3.2549
13.9734 -11.0663 -6.57308
20.2814 5.15833 -7.69404
17.7417 17.5305 -9.11335
-13.1035 2.29564 -4.83669
20.6222 24.6255 -11.6477
2.2829 -13.2375 -4.83975
12.9881 -10.5034 -6.01105
0.796196 15.4037 -5.51813
-8.21896 -2.80475 -3.10632
0.410324 -21.9495 -7.84714
-4.26765 14.0104 -5.21054
0.6389 -22.004 -7.82255
15.7842 -11.9212 -7.01131
-15.9858 18.4812 -8.61272
5.91867 -11.3202 -4.49178
-11.194 16.8934 -7.07929
0.0929632 -18.5879 -6.53367
14.209 -11.261 -6.33992
20.2362 5.32938 -7.30377
0.658481 -23.1373 -7.99344
-5.0838 14.7616 -5.35047
3.6364 -8.4417 -3.16408
4.87106 -9.02315 -3.51395
-14.7411 18.3018 -8.04493
2.27344 -10.88 -3.80924
-9.02542 16.3738 -6.37441
3.01887 -13.6605 -4.7703
-15.2244 18.6868 -8.17232
20.055 5.45267 -6.98515
21.779 26.9412 -11.5766
35.6914 -20.1481 -13.6978
-5.38354 14.2819 -5.07035
1.90637 20.6359 -6.87512
1.26742 -10.2503 -3.41506
-5.32922 14.6772 -5.07276
-12.7919 17.5128 -7.03638
18.46 -13.1544 -7.36164
3.55855 -8.6699 -3.0048
6.20904 -10.0956 -3.79857
2.31284 -11.0064 -3.57912
-4.62859 -34.7562 -11.1431
-1.14955 -24.0602 -7.66666
14.9381 10.2879 -5.72352
-13.4271 17.8677 -7.06561
-18.3025 19.7413 -8.46344
6.9454 -11.0689 -4.0403
1.38788 -21.9642 -6.80798
-2.60623 -27.7452 -8.55298
7.09557 32.7587 -10.2261
0.771155 14.9922 -4.55909
-11.3187 17.0786 -6.17647
-2.73766 -26.8698 -8.13266
-14.5852 18.2365 -6.96856
-5.37532 -35.2362 -10.6119
0.841615 -25.2145 -7.5429
-5.47897 15.0724 -4.77171
2.07076 20.5805 -6.09305
-21.6471 20.1845 -8.73304
18.1251 5.76779 -5.59833
-4.35933 14.6465 -4.4943
-8.05571 15.6299 -5.15997
4.25087 -9.13286 -2.96095
4.62804 -11.5969 -3.65125
-12.6788 2.23356 -3.70015
-33.7826 -47.8528 -16.8537
-15.4519 18.5891 -6.9498
6.94092 -11.0549 -3.75827
2.56211 -9.54034 -2.80687
12.8917 -10.4351 -4.72031
-8.46989 -2.46498 -2.50134
20.8231 26.8543 -9.6263
-8.59808 -2.26612 -2.51262
-2.59269 -26.4463 -7.45604
-13.088 2.0056 -3.68739
4.37906 -11.3072 -3.36577
-9.46521 16.2787 -5.17078
-13.2763 17.7068 -6.07964
-5.48198 14.6334 -4.27228
-8.69645 -42.2249 -11.7938
-21.8457 20.3863 -8.03356
-9.89265 16.405 -5.1349
-27.1907 20.8874 -9.12227
11.3712 11.4446 -4.25624
4.318 -11.2726 -3.19817
46.5312 -13.5267 -12.8378
-8.40434 -39.6562 -10.653
4.08422 -8.64619 -2.51798
11.1398 -9.90834 -3.90035
-14.6964 18.4015 -6.12445
6.52464 -10.4052 -3.17906
3.1747 -9.63629 -2.62302
-30.8322 -45.1568 -14.1179
-4.44695 -29.1633 -7.63118
3.53546 -10.3561 -2.82188
4.06289 -9.37506 -2.62635
15.5396 -11.6847 -4.96117
-7.28013 15.5111 -4.33815
-32.2636 -43.0274 -13.6365
4.30325 -11.1225 -3.01865
4.25103 -7.69697 -2.2379
6.52195 -10.6386 -3.11229
44.2625 -13.3823 -11.5298
-28.7838 21.7163 -8.91495
-11.7234 17.2242 -5.1373
-28.1776 -41.1044 -12.2522
-10.1366 -39.8943 -10.1517
-24.909 20.9216 -7.99459
4.34265 -10.3147 -2.74991
-12.2655 17.5694 -5.19621
-7.9767 15.543 -4.21185
10.2497 -9.24536 -3.30528
39.8443 -13.2353 -10.0476
15.048 7.52558 -4.00502
-6.45921 -36.9844 -8.94202
3.96126 -9.07763 -2.34695
46.4071 -12.4204 -11.4026
-12.5023 -46.0297 -11.2974
3.84738 -11.0351 -2.75462
4.90163 -8.68127 -2.34545
-12.9929 17.7065 -5.11195
10.9775 -9.62015 -3.33628
-6.3103 -31.9956 -7.44003
-27.6307 21.3407 -7.9145
41.0618 -8.97986 -9.53905
-31.0565 22.5487 -8.6052
-35.9477 -23.5574 -9.62961
40.2694 -12.4486 -9.46439
5.445 -9.45768 -2.4367
-12.4678 2.84489 -2.806
40.1409 -11.7632 -9.24251
42.0841 -12.0078 -9.62897
-5.47476 14.3662 -3.36262
13.3414 -10.7357 -3.76964
37.6625 -12.1035 -8.69737
-23.7881 20.7327 -6.84521
-30.9165 -76.2201 -17.845
4.3014 -9.68152 -2.29754
4.5313 -9.16444 -2.20839
-14.8226 18.4676 -5.05786
-31.5065 22.8857 -8.31556
-32.4056 22.9971 -8.49473
-29.5798 -78.4774 -17.9739
-10.8703 16.9862 -4.27698
-8.6402 -36.674 -8.01086
3.18435 -9.66738 -2.17063
3.95782 -9.80856 -2.2554
45.2083 -10.4815 -9.90701
14.8811 7.4537 -3.52809
-15.4092 18.969 -5.17498
5.15541 -9.03982 -2.1865
26.1247 37.7978 -9.59999
14.9192 7.80791 -3.49563
-30.554 -23.597 -8.00807
-11.6387 17.1487 -4.21238
-15.877 18.772 -5.00587
-35.8522 24.0666 -8.77482
43.879 -9.57084 -9.15901
-13.6479 -43.9141 -9.34468
4.12749 -9.71471 -2.1477
11.5679 -9.61606 -3.06083
-12.1943 17.5 -4.25857
-20.6868 -59.3696 -12.5629
-13.3059 -41.3321 -8.59536
4.06148 -9.90122 -2.11908
-34.5949 -23.6556 -8.26128
-27.1826 21.334 -6.80131
-33.6107 -24.0422 -8.05498
-7.01032 15.4921 -3.30158
-27.6159 -64.8872 -13.6957
-34.0158 -22.6454 -7.87433
3.42938 -9.34476 -1.9223
45.291 -10.4936 -8.92795
-12.9524 17.6845 -4.19114
3.98168 -9.32744 -1.93558
-36.9548 -22.4473 -8.18446
-21.6697 -35.2017 -7.86075
-16.0557 -46.3258 -9.27557
37.4944 -12.3685 -7.46428
-36.6355 24.6054 -8.25941
-34.1612 -23.5924 -7.7987
-33.0996 -24.217 -7.6983
-22.0335 -54.5851 -11.0744
-17.3866 -47.2259 -9.33356
3.8153 -9.19518 -1.83893
42.069 -11.3383 -8.09148
5.74593 -9.69311 -2.0653
-25.3942 -57.5817 -11.5203
-21.0925 -52.352 -10.2071
-14.7917 18.4384 -4.19203
-31.5323 -25.4315 -7.20032
-20.5756 -27.4176 -6.12957
-40.1425 25.3303 -8.37508
-27.1941 21.3526 -6.01823
-34.7029 23.7469 -7.3013
3.90115 -10.0286 -1.86608
4.76496 -8.6001 -1.70875
13.942 7.48722 -2.72909
14.0131 8.0413 -2.76672
-31.3575 22.8027 -6.64704
41.7525 -11.8127 -7.3879
41.5579 -10.7631 -7.30847
-31.6893 -25.1672 -6.8644
-21.3948 20.3758 -4.96174
-21.0589 -52.3435 -9.53189
14.7933 7.41438 -2.77487
-32.2449 22.8275 -6.59956
-24.3914 -58.1523 -10.4188
43.0471 -11.5965 -7.24687
-10.515 16.6936 -3.18437
-21.3628 -52.9974 -9.11218
-35.3854 -24.4267 -6.77512
-23.1264 20.3185 -4.82073
-24.5563 20.9628 -5.00432
-40.8566 24.7372 -7.40127
-11.3961 17.0567 -3.16735
3.46527 -9.51029 -1.56558
3.85983 -10.2071 -1.68986
-7.7501 15.7198 -2.67782
-31.5949 22.9956 -5.9737
-32.1959 -24.8671 -6.18573
-28.3249 -26.4947 -5.87533
41.7419 -10.8516 -6.55627
44.336 -9.6592 -6.91356
-6.65333 14.8201 -2.43151
9.81491 -5.14474 -1.64474
-33.9548 -24.49 -6.2342
10.1678 -9.14195 -2.03786
44.4722 -10.2881 -6.77945
-37.1796 -24.7499 -6.57301
-31.9547 -26.3575 -6.05908
-13.0415 -43.2103 -6.64013
16.838 -12.1822 -3.04463
-25.789 21.2328 -4.85482
-25.551 -57.2493 -9.03297
-7.74539 15.5138 -2.48018
-12.9038 17.5938 -3.11124
6.01642 -11.4944 -1.85414
-13.618 18.2019 -3.19365
-35.3151 23.856 -5.99174
6.74063 -11.0105 -1.80463
37.2145 -12.2814 -5.51235
-31.5766 -25.3023 -5.6469
-33.5854 24.1361 -5.72957
-21.2338 -51.1765 -7.65185
44.6202 -9.982 -6.3054
-6.99136 15.4625 -2.3198
-23.5401 -61.4358 -8.93638
7.7354 -9.36125 -1.62985
-14.2157 18.1512 -3.1084
13.169 -10.5033 -2.27948
-22.5632 20.5239 -4.10168
41.6621 -10.7717 -5.71349
44.3504 -9.7145 -6.00994
-22.9458 20.1925 -3.99703
-33.1353 -24.7946 -5.40531
-15.1205 18.5157 -3.09127
-34.6108 23.1008 -5.40237
-38.8297 -16.3954 -5.44185
6.99883 -10.4087 -1.60952
10.725 8.78075 -1.77941
-34.2632 -23.6119 -5.32477
-31.9732 23.3411 -5.00764
-36.0643 -22.5045 -5.32798
41.5325 -10.741 -5.36907
6.77877 -10.3413 -1.54527
-7.7847 15.5713 -2.15619
-25.4081 21.3347 -4.06269
-33.9781 23.9467 -5.12769
6.27432 -12.0335 -1.65353
44.304 -9.45213 -5.54921
14.9329 7.82344 -2.02658
-18.445 -44.6726 -5.82727
7.06835 -10.5051 -1.52473
-20.7096 9.17823 -2.68106
-14.7441 -44.5998 -5.52267
-32.2816 -24.8886 -4.76604
-31.7614 -25.401 -4.75889
41.611 -11.1463 -5.06357
11.1989 -9.64426 -1.71245
-30.3805 23.0358 -4.38651
6.6248 -10.7943 -1.45012
7.4743 -9.20226 -1.35623
11.5489 -9.69505 -1.71286
9.43432 -4.60247 -1.18871
14.9119 7.6628 -1.88924
-10.5115 16.7342 -2.23068
-32.7417 23.9245 -4.54287
38.4897 -12.6703 -4.54476
9.33494 -9.00201 -1.43488
-11.235 16.8502 -2.20196
6.7678 -12.7417 -1.56311
44.4433 -9.65907 -4.93104
10.7222 8.81102 -1.49536
16.6929 -12.4 -2.23215
41.8024 -10.8417 -4.62796
9.59599 -8.95715 -1.39089
8.36267 -8.44762 -1.24538
-31.3146 -25.0589 -4.17604
-31.2606 -62.7025 -7.30851
14.9092 7.47716 -1.70386
-32.2192 -24.8431 -4.17415
-13.0514 17.7917 -2.24078
-12.9642 17.369 -2.15458
10.1817 -9.06499 -1.33564
-21.5735 -54.7884 -5.7723
6.29347 -12.0522 -1.31622
16.564 -12.1185 -1.97314
41.6921 -11.2032 -4.13872
-31.8411 -64.3629 -6.82583
-21.5809 -56.6346 -5.75538
-23.6648 20.6992 -2.9392
45.1263 -10.0388 -4.31851
9.69301 -8.96529 -1.22241
39.3038 -12.9653 -3.8572
-15.2455 18.6884 -2.18433
-29.9885 -13.6727 -3.00409
-33.5112 -65.3274 -6.76722
15.7864 -11.8159 -1.79409
8.61778 -8.70855 -1.10958
12.8453 -10.6031 -1.45065
44.7168 -10.3645 -3.93275
9.37964 -9.0066 -1.09326
10.9205 -9.61683 -1.22329
-34.7421 23.859 -3.50708
16.7628 -12.224 -1.7187
-17.4084 -45.2997 -3.88685
14.6216 -11.4331 -1.48037
-11.9721 -33.5162 -2.80902
-30.3117 23.0476 -2.94471
-33.6582 23.7907 -3.18181
-23.4355 -53.5328 -4.51135
-52.2371 28.4296 -4.50325
-21.7088 20.4313 -2.16855
-33.8881 23.9701 -3.00811
16.3018 -12.1806 -1.48898
41.7157 -11.1631 -3.14667
-40.9982 -77.5723 -6.33181
13.9196 -11.0131 -1.27053
-15.966 -42.3535 -3.12396
10.7356 -9.5876 -0.986338
-23.6893 20.7421 -2.12648
12.8237 -10.5814 -1.11317
17.86 -12.9537 -1.47124
15.9668 -12.077 -1.32246
-15.0552 -41.7419 -2.87038
43.4424 -11.2983 -2.80634
-33.0615 -66.9878 -4.55862
35.5382 -8.62155 -2.2447
42.636 -9.75864 -2.68571
6.02178 -13.0168 -0.857486
30.608 -20.2532 -2.19687
-9.99698 16.6885 -1.14382
-15.9575 -41.6264 -2.53849
16.5304 -12.3539 -1.15901
-9.72877 -12.6118 -0.872839
14.8992 7.6438 -0.905228
13.8474 -10.9616 -0.945961
-12.9734 17.5808 -1.14129
-16.8786 -41.8349 -2.39589
14.7935 7.77888 -0.819015
-16.7147 -42.7247 -2.25117
-14.3589 18.1998 -1.10861
9.54229 -9.00089 -0.601797
-24.7844 -56.8523 -2.80659
12.4082 -10.2005 -0.744888
-16.4717 -45.9163 -2.16595
-17.6538 -43.4953 -2.00985
6.82627 -12.6047 -0.636178
-14.3115 -43.6258 -1.95593
-53.6972 29.2023 -2.47561
18.2379 -13.1026 -0.911702
16.7191 -12.4272 -0.811599
-43.3876 -84.2113 -3.57427
-18.7832 -49.2558 -1.94178
-34.189 23.491 -1.51675
42.1922 -10.8714 -1.56941
-35.8252 -71.2626 -2.66896
-26.7291 -58.5768 -2.16822
19.9238 23.0429 -1.01093
-21.7526 20.3842 -0.971016
8.07419 -14.2503 -0.550346
9.39911 -8.97288 -0.421359
11.2646 -9.91678 -0.488013
18.4912 -13.0746 -0.744603
34.5313 -13.024 -1.22523
21.6677 26.2286 -1.0903
-27.6291 -13.8585 -0.968682
-23.2358 20.6914 -0.947873
-32.203 22.8077 -1.2311
-25.835 -59.3953 -2.00648
-14.1453 -40.0165 -1.30762
-22.2381 -56.7262 -1.84526
-17.094 -46.3284 -1.41513
-34.4353 -20.8789 -1.07244
11.4135 -9.68246 -0.401127
16.2612 -12.0948 -0.534514
-41.8047 25.8616 -1.29579
-30.7762 23.4177 -0.956264
-31.298 22.9375 -0.916844
9.54478 -8.98529 -0.303805
-41.9304 14.4922 -0.979948
-32.2707 -54.0375 -1.41798
21.136 -14.1358 -0.559278
30.2204 -18.3247 -0.798205
14.1769 3.91793 -0.299945
26.7388 46.7249 -0.988599
23.4023 -10.895 -0.454933
46.6253 -10.7362 -0.8905
-30.9954 -22.2744 -0.695911
-29.9991 -29.465 -0.666811
-19.5117 -47.8768 -0.861473
12.6756 -10.4235 -0.270199
18.4193 -13.3096 -0.347595
-29.5453 -13.1322 -0.424243
-33.2551 -24.8873 -0.577853
-34.6417 -69.8351 -1.05327
-28.6591 -60.9957 -0.924183
-34.3634 -23.4684 -0.543187
-30.797 23.4298 -0.454964
16.9132 -12.6303 -0.250911
29.062 -18.0199 -0.402883
-31.2523 22.9436 -0.431041
-19.5689 -44.88 -0.52439
-12.2942 -37.004 -0.393178
-34.4193 -60.646 -0.643138
-14.5333 18.4351 -0.179771
-26.9438 -13.5843 -0.243432
-15.2327 18.5684 -0.163825
-22.883 20.4366 -0.157337
-21.2994 19.9781 -0.13232
-10.6131 -13.644 -0.060681
14.6619 7.70223 -0.0198619
11.0742 -9.7378 -0.00789899
-34.9022 -19.1167 0.0609064
-11.5849 -34.4305 0.117708
16.8741 -12.2595 0.0903071
-19.2764 -44.2548 0.213874
18.6791 -13.1608 0.121119
7.1488 -12.2886 0.103646
25.8412 -10.602 0.171547
-56.3977 20.1379 0.572092
16.1724 -11.9854 0.191996
37.1334 -7.58121 0.357342
-29.336 -8.2721 0.356865
-36.7518 -22.1827 0.473588
-11.5582 -33.1157 0.375649
-12.985 -35.9817 0.454796
-10.4915 -32.2485 0.406325
6.30224 -12.8818 0.182994
7.1915 -11.0789 0.173586
-28.6267 22.4711 0.558088
11.2782 -9.84964 0.225
-24.4796 20.9343 0.532436
10.8676 -9.70346 0.228553
12.9244 -10.6398 0.263611
36.0977 -7.72535 0.613905
-35.0014 -23.4504 0.766433
-31.7378 22.6927 0.767023
6.11563 -12.7775 0.274818
7.00078 -11.0172 0.251407
8.00743 -9.39614 0.241001
26.6129 54.7219 1.32423
7.71097 -9.42167 0.275182
10.1024 -9.15012 0.328741
-29.0707 -9.32183 0.735691
-23.6567 20.6487 0.850447
-28.0146 22.0894 0.958434
-29.2 -8.76777 0.803734
9.16783 -8.87423 0.344594
9.60057 -8.92298 0.357188
-25.9871 21.9021 0.924337
25.2253 -5.10311 0.716409
12.9342 -10.6106 0.498233
14.6056 23.7936 0.861678
6.16326 -12.7145 0.444593
7.43213 -11.5854 0.431879
-28.7175 -8.09925 0.979342
-12.7183 -19.4731 0.76612
-28.3963 -8.87525 1.02896
16.0078 10.9565 0.701208
-30.1534 -18.6849 1.24003
15.5098 26.9418 1.10976
-30.7695 -16.7839 1.299
23.4057 -4.22646 0.859182
-28.1341 -20.0094 1.27933
-7.31441 -7.97522 0.408504
9.02981 -8.80536 0.468747
12.3308 13.4887 0.704844
25.1897 51.9641 2.18755
24.0753 51.2586 2.13302
-11.6045 -9.18542 0.583707
8.70336 -8.64912 0.485313
-26.0687 21.4743 1.37213
21.7232 -2.94405 0.888033
-29.104 -17.6778 1.39512
9.39051 -8.90399 0.530502
12.3495 14.2231 0.81058
6.55008 -12.4044 0.595644
14.6873 19.0838 1.0589
20.4424 28.2363 1.52699
-9.54625 -13.8803 0.740419
-10.0446 -15.7093 0.827608
7.57395 -10.9161 0.585307
8.60464 -8.69385 0.552695
24.046 -3.6836 1.09824
-30.1446 -8.78458 1.43354
6.72076 -11.0487 0.594974
-8.29847 -8.16667 0.548077
20.7494 41.864 2.23575
-28.8628 -17.8383 1.60398
-9.82094 -13.7757 0.805198
9.63506 -8.9396 0.618965
14.9648 41.5858 2.1397
-30.5634 -13.5374 1.59572
-6.78022 -8.26609 0.526183
14.1895 32.9978 1.83307
-30.0375 -11.7628 1.61916
-7.6117 -6.99921 0.522852
-6.71566 -7.61292 0.513681
15.8142 28.6473 1.69933
10.4562 12.2266 0.86957
14.0447 19.1124 1.27364
9.32074 -8.90228 0.690504
14.629 19.0342 1.32569
15.0406 23.23 1.52402
-27.9289 19.6648 1.87331
-6.99178 -8.21685 0.598426
-26.8542 20.6052 1.88298
6.06529 -12.8064 0.792821
-7.12818 -9.18634 0.663178
9.86608 12.3233 0.928539
14.6497 24.6829 1.67705
6.43173 -12.9176 0.830461
13.6185 22.2181 1.53943
-8.28521 -8.14404 0.700126
11.4393 11.5182 0.968179
14.477 19.2546 1.4475
-7.42405 -10.05 0.777139
6.98473 -11.1307 0.800786
11.2214 -9.67903 0.898288
5.84742 -10.7192 0.757681
-7.21222 -6.66633 0.613885
14.271 20.2444 1.56734
16.0405 7.12019 1.13952
-7.05263 -6.16194 0.614721
6.43154 -13.3807 0.989408
9.22459 20.8366 1.53729
10.3179 12.4363 1.1048
13.3726 17.9815 1.56308
12.2038 20.2336 1.63512
11.244 11.8776 1.14809
6.57873 -9.81109 0.836489
11.3931 11.6563 1.17965
9.77808 -6.90235 0.851563
12.2479 11.857 1.25207
9.89342 -8.35483 0.948561
-6.20501 6.72512 0.683694
10.3543 9.11725 1.03643
11.7565 17.5779 1.5912
11.3078 18.0155 1.60276
-6.96419 -7.71941 0.806333
10.6863 18.4444 1.6356
9.48185 -8.92712 1.00637
-6.42702 -4.30656 0.610409
9.03441 18.1002 1.61659
10.0499 -6.87703 0.974991
12.3438 11.4527 1.36124
9.58329 18.6068 1.68532
-7.29073 -9.67054 0.986556
6.69797 -9.35252 0.936048
12.1314 11.6053 1.37567
12.0344 11.8354 1.4017
11.3156 11.8273 1.35517
-5.07351 -11.5796 1.06343
10.2059 12.7689 1.39093
-6.97638 -6.09626 0.798205
-6.83319 -6.7118 0.809236
-5.23458 -11.4807 1.073
-7.32172 -7.76931 0.919501
9.25721 -7.23457 1.01502
-7.14186 -8.08182 0.944
-7.03659 -7.71198 0.918289
9.29158 12.4023 1.37396
-6.97337 -8.39775 0.975331
10.7322 9.00501 1.27683
10.3495 13.3295 1.52473
10.4419 9.17069 1.27221
7.62057 13.833 1.45265
-6.51675 -8.15912 0.956895
-6.92601 -9.04857 1.05185
11.1003 10.7058 1.42299
11.1625 9.10741 1.34815
10.7727 10.7078 1.42386
6.38984 14.766 1.51183
-11.4876 2.94298 1.1126
-6.3719 -4.17785 0.71409
-6.82115 -6.30819 0.86179
9.32774 13.1548 1.55566
-6.07436 6.60054 0.883956
7.94273 -6.59449 1.00607
7.83857 13.07 1.51385
-7.08826 -7.63872 1.04999
9.21704 11.5248 1.48849
6.92727 12.2996 1.4326
6.97876 12.8568 1.49131
9.45975 9.02241 1.3529
5.77929 13.7771 1.54841
9.04599 12.3032 1.5921
-6.1164 -4.46347 0.793924
5.87935 13.5095 1.55185
6.13869 13.4463 1.55392
-6.98339 -4.43599 0.885178
8.69961 8.94823 1.33053
9.05811 10.091 1.47476
7.25778 10.8977 1.42294
5.76196 11.3489 1.38373
-6.31409 -7.42794 1.06576
10.204 6.41297 1.33347
8.92735 8.07999 1.32732
7.2365 11.5672 1.50658
6.7745 11.514 1.47693
5.294 11.7557 1.43434
4.80818 11.9515 1.44114
4.63263 13.4724 1.56715
9.80276 7.00901 1.3456
8.68836 9.23561 1.41692
5.3211 11.3854 1.41515
-6.85701 -6.73878 1.07028
6.80126 10.6157 1.4202
4.2553 12.9807 1.5437
9.72875 -3.18799 1.14145
-6.11386 -5.42266 0.94639
7.27617 -6.10897 1.07841
10.3543 5.68116 1.35458
-7.39615 -0.987765 0.855448
-6.26755 -5.36487 0.949883
5.2416 -5.54981 0.87944
5.00805 11.4869 1.45556
-6.89526 -4.56732 0.958704
4.44714 -7.25141 0.983718
10.3499 5.12002 1.35502
8.82171 7.82968 1.38466
-6.0104 -4.37431 0.86663
-6.49695 -5.28255 0.989471
4.08536 -7.8531 1.05273
4.96109 -5.84367 0.919616
10.1127 4.72857 1.33826
8.45617 8.21118 1.42766
5.21487 11.3609 1.5258
8.99067 6.2283 1.33913
7.95183 8.27557 1.43766
-6.50162 -5.75727 1.08133
3.70177 -7.56325 1.05462
8.62165 6.64763 1.36901
-6.47909 -5.35376 1.06401
9.03729 5.97768 1.38336
8.12988 7.09382 1.3766
8.05885 7.45632 1.40184
5.76944 -5.33846 1.00911
-6.98486 -4.45139 1.0635
8.04379 7.94191 1.46615
-7.37232 -1.04449 0.962494
-6.93528 -2.83137 0.978667
8.93358 4.08185 1.28627
8.35071 6.58803 1.39631
4.99277 -6.02122 1.02812
4.91083 -6.1854 1.04577
6.85977 -4.27617 1.07593
-7.14693 -1.72153 0.985945
-7.02234 -2.22403 0.985221
-6.03428 -4.4289 1.001
8.0854 6.61777 1.41644
8.56899 4.41849 1.31445
8.58656 5.14019 1.36689
7.97652 7.09199 1.45276
-6.82005 -3.7399 1.0565
8.82028 4.14021 1.33371
8.21924 5.80113 1.37765
-6.4082 -4.33601 1.05908
-5.96614 -4.53171 1.02351
5.31235 8.95196 1.43768
3.59816 9.95381 1.46959
-7.3825 -1.09515 1.03402
-6.91612 -3.93386 1.10456
4.94434 -5.53843 1.026
5.22312 -5.39295 1.04193
7.45171 -3.53138 1.15313
3.34337 10.0263 1.48064
8.36234 4.57671 1.34849
7.36366 -3.67246 1.16725
7.57465 -3.32945 1.17956
7.74862 -3.30003 1.19498
8.90338 2.80343 1.3435
4.8294 -5.63028 1.06617
7.34256 -2.84872 1.14656
-6.97037 -3.3058 1.12487
7.90411 -2.77468 1.22129
8.64575 -1.81609 1.29672
4.96759 8.50502 1.45374
2.9173 9.32411 1.4531
7.71873 -1.88464 1.17094
7.19212 5.72771 1.36985
3.41606 9.44995 1.48505
3.14763 9.67607 1.50766
-7.38488 -1.04543 1.10638
-7.08699 -2.02664 1.09898
6.9091 6.25437 1.40699
-6.27215 -2.27496 1.00171
-7.25378 -1.37788 1.11506
7.90291 4.79559 1.40828
5.67259 7.30938 1.40375
5.25654 7.57912 1.40367
5.01953 7.95451 1.42192
6.7511 -3.22166 1.1312
7.23573 -3.12015 1.20665
7.62357 -2.75096 1.23498
-7.33138 -0.734415 1.12572
-7.10978 -1.95792 1.13867
6.78059 -3.08896 1.15222
3.74986 -5.78659 1.06618
-7.06526 -2.07959 1.15512
-7.36041 -1.09502 1.16898
7.32861 4.75348 1.37959
-7.21177 -1.44615 1.17075
-7.2852 -1.30353 1.18799
-7.10989 -2.02255 1.20256
7.0388 4.74229 1.38539
-7.11362 -1.94886 1.21211
6.97833 4.84333 1.41088
6.5861 4.83075 1.36298
5.17812 6.20923 1.34677
4.64201 7.12418 1.41995
3.79027 7.86665 1.45122
-7.26271 -1.37606 1.2345
2.79387 -5.77983 1.08209
7.11213 4.41009 1.40971
6.48318 5.21383 1.40346
3.87407 -5.36582 1.11575
3.93742 -5.02193 1.08019
-7.28606 -1.25479 1.25473
-6.60809 -2.62914 1.2071
7.39186 2.83832 1.34292
7.00313 3.87629 1.36398
-6.42338 -2.75691 1.18972
6.74795 4.0825 1.35387
5.67926 -3.51764 1.14975
-7.41063 -1.04164 1.29471
-6.36594 -2.28369 1.16321
5.53255 -3.64609 1.14204
5.31685 -3.77251 1.14263
3.56926 7.10701 1.39873
-6.8107 -1.73803 1.23495
4.48007 -4.46746 1.11335
-7.10549 -0.916338 1.27682
4.72467 -4.45724 1.14937
4.30202 6.45283 1.38371
6.56292 3.46163 1.33989
6.60141 3.66902 1.3567
-6.45128 -1.50286 1.19192
3.60983 -5.32773 1.17059
5.05205 5.58444 1.37873
-6.16349 -2.18624 1.19906
3.41467 -5.16084 1.15074
3.36289 6.72135 1.40582
-1.69653 -5.77818 1.14413
6.42499 2.72352 1.32792
-2.14214 -5.72489 1.17532
6.28962 2.78736 1.32438
-2.78681 -5.37533 1.18676
-3.54653 5.3862 1.39836
4.45473 3.87945 1.34801
4.15241 -2.87961 1.17727
4.62852 -2.18622 1.23675
4.1867 3.28162 1.31752
3.70969 -2.93201 1.22446
4.00857 2.56827 1.32983
-1.44166 -4.11396 1.22094
-2.31973 -3.5778 1.21219
3.85141 2.35904 1.3083
-2.87226 3.54045 1.36791
-2.47953 -2.91532 1.18929
-2.37697 -2.93638 1.19419
1.84586 -2.81589 1.18352
1.86881 -2.79395 1.21353
1.9948 -2.52974 1.19969
-2.04886 2.81539 1.3253
2.80444 -0.555797 1.25916
2.78347 -0.336876 1.24074
-2.08832 -1.61854 1.21294
-2.07618 -1.45078 1.23809
-1.86108 -1.795 1.2832
-1.99388 -1.13105 1.20465
-1.98543 -1.07004 1.23151
-1.94535 -0.88013 1.23184
-1.92984 -0.708245 1.22223
-1.92872 -0.701354 1.24946
-1.90524 -0.469597 1.22242
-1.87071 -0.34563 1.2197
-1.85551 -0.401083 1.22638
2.37842 -19.7084 -10.0172
-7.62123 -8.99787 0.466347
8.00697 -8.78758 -10.4533
8.25354 -8.61892 -10.4906
8.20525 -8.28013 -9.87385
6.94891 -11.9425 -11.3962
8.50398 -8.96085 -9.72768
7.84032 -8.92607 -9.1241
5.84391 -12.7861 -10.7193
9.41175 -8.81984 -9.72918
6.14104 -14.0814 -11.5653
8.27569 -8.66705 -9.01011
8.00672 -9.15654 -9.09626
7.28251 -9.23398 -8.76218
5.90299 -14.1372 -11.1784
7.70759 -9.29325 -8.71247
7.8449 -9.1046 -8.65757
7.11936 -10.5672 -9.0722
6.81068 -11.0583 -9.20748
10.0334 -9.17486 -9.54921
6.53047 -11.1606 -8.85294
8.02216 -8.61629 -7.83974
7.35009 -9.26783 -7.86103
8.5035 -8.66871 -8.07185
7.70848 -9.45854 -8.01657
6.47746 -12.7564 -9.34287
7.92152 -9.1674 -7.90244
4.99849 -16.03 -10.8003
-0.471394 13.9444 -8.92125
7.71656 -9.23141 -7.71574
7.32338 -10.8466 -8.33348
8.365 -8.55313 -7.62228
10.8512 -9.59951 -9.19
8.97521 -8.80513 -7.88576
11.7345 -10.0067 -9.66561
8.0603 -8.5228 -7.21724
4.03985 -16.8423 -10.6155
4.24628 -15.3714 -9.79219
7.83247 -9.34475 -7.30753
3.95127 -15.6283 -9.61293
11.4503 -9.80279 -9.02831
6.8531 -11.0597 -7.72617
7.76161 -8.80786 -6.95472
5.4804 -13.9815 -8.8733
6.47858 -12.6882 -8.33808
8.34956 -8.58181 -6.97793
9.66902 -9.06366 -7.72808
2.78771 -11.785 -6.94216
5.46838 -13.8734 -8.44422
9.57587 -9.08754 -7.46319
6.60768 -11.054 -7.25184
3.35154 -20.7326 -11.7702
8.86393 -8.92432 -7.05146
12.1562 -10.199 -8.89022
6.81324 -10.9899 -7.20403
4.67656 -14.5942 -8.47024
6.21187 -12.6029 -7.73002
0.897748 18.5501 -10.1083
14.5607 7.6937 -8.94607
4.19814 -14.2265 -8.01179
14.6694 -11.6084 -10.0848
14.9124 7.41008 -8.86816
13.9553 7.6887 -8.46418
4.76006 -14.8344 -8.27862
12.0483 -10.1211 -8.28116
1.81478 -20.5205 -10.5984
11.3843 -9.82491 -7.7046
2.08228 -20.2417 -10.3259
0.007191 14.2787 -7.16632
-7.35408 15.2908 -8.50591
10.5673 -9.57628 -7.16622
7.50103 -9.40861 -5.99542
-8.57751 16.2649 -8.88967
11.6071 -9.74816 -7.33702
10.4683 -9.56121 -6.80834
14.7259 -11.2899 -8.95083
16.5903 15.7148 -10.8536
7.46761 -11.0378 -6.34998
14.9463 7.38475 -7.82053
13.8777 -10.9893 -8.27412
-12.0641 17.2779 -9.65796
15.7705 -11.9499 -9.04031
9.75982 -2.44702 -4.62158
-9.13252 -1.66028 -4.22134
18.5751 17.9236 -11.644
3.9095 -9.09064 -4.49171
-10.3036 16.8349 -8.86662
-5.36367 4.46079 -3.13815
6.84318 -11.2666 -5.93502
9.40809 -9.06774 -5.76337
15.9436 7.27303 -7.72964
-6.68522 15.1882 -7.25065
1.49949 -18.7532 -8.1372
-11.2799 17.1652 -8.8465
9.56672 -3.365 -4.34342
7.00261 -11.0227 -5.52105
15.7562 -11.911 -8.26881
14.5838 7.70902 -6.91764
18.6002 19.3506 -11.2143
1.02116 -22.6874 -9.45454
-4.55886 13.9525 -6.04998
-9.9608 -1.11409 -4.15415
14.0255 7.74428 -6.54013
20.2564 22.0332 -12.1961
-13.1248 2.45968 -5.44018
15.0459 7.14859 -6.73557
-5.25891 14.4181 -6.17499
3.63413 -8.79845 -3.78934
13.8867 -10.9649 -6.91547
19.134 21.4133 -11.1362
18.7145 5.77085 -7.59288
1.53642 19.1738 -7.45585
-8.80952 15.8767 -7.00272
11.3681 -10.0235 -5.83018
19.0627 22.0993 -11.2386
0.684131 15.3474 -5.88184
-1.66538 12.8044 -4.96854
2.71263 -12.243 -4.81147
-8.79036 -1.25547 -3.37535
0.703984 -23.766 -8.97126
15.1145 -11.583 -7.18243
9.47599 -3.45763 -3.80484
-7.90686 -3.51239 -3.1734
1.09706 -10.4735 -3.87291
7.01341 -11.2134 -4.83728
14.1309 7.88999 -5.84161
-8.31078 -2.85339 -3.15986
0.790291 15.2503 -5.44361
-3.98327 13.4791 -4.97516
5.72622 -10.9661 -4.35415
15.76 -11.9106 -6.99755
18.9843 5.86327 -6.98917
2.09743 20.4494 -7.20544
21.387 25.8537 -11.6568
-15.0338 18.5595 -8.20124
2.96427 -13.3104 -4.69421
-8.97596 16.2176 -6.33755
18.3714 -13.0122 -7.71712
-5.07848 14.598 -5.2585
1.36406 -22.3451 -7.41816
1.75335 19.5138 -6.46989
1.44843 -10.3235 -3.44534
38.6666 -19.7658 -14.2535
6.15804 -10.0299 -3.76775
17.4698 -12.3354 -6.85056
2.10951 20.5607 -6.57538
-13.4899 18.0113 -7.09796
1.45759 -22.863 -7.13757
-4.33649 14.8532 -4.81107
-11.0616 16.7623 -6.08961
-2.79187 -28.3918 -8.6655
3.06025 -9.45796 -3.02144
0.797598 -24.4525 -7.3569
19.0006 -13.4866 -6.91507
17.5159 5.54129 -5.38985
-7.96345 15.4193 -5.05513
4.22012 -10.4729 -3.282
3.61291 -10.5465 -3.17341
4.23107 -10.9196 -3.28789
-13.4518 17.9814 -6.2494
-9.38161 16.0398 -5.05803
-13.298 1.99343 -3.68718
-17.1098 19.6589 -7.07924
26.0748 -17.1657 -8.46038
-3.99253 -28.4591 -7.70549
3.77793 -9.13378 -2.64489
-9.8997 16.4588 -5.11517
46.6541 -13.6222 -12.8894
10.5018 -9.36661 -3.72537
-6.51454 15.0875 -4.29608
-14.5689 18.2672 -6.13397
-8.17079 -38.6498 -10.2879
4.9477 -9.55153 -2.78471
6.54197 -10.4702 -3.18557
-7.28771 15.4703 -4.34995
-10.6627 16.6094 -5.04579
-10.122 -40.1061 -10.2843
-9.26434 -39.9888 -10.0211
10.9061 -9.61412 -3.57546
-8.05029 15.6269 -4.26531
-11.8516 17.2276 -5.06437
14.5397 7.68027 -3.90209
4.03961 -9.23675 -2.38633
15.1409 7.49838 -3.98108
3.74055 -8.8941 -2.26842
-6.64223 -33.0862 -7.81288
5.61262 -9.86063 -2.63014
44.2078 -10.6981 -10.5727
-12.9475 17.6374 -5.03867
14.7952 7.57703 -3.75999
43.2699 -9.36031 -10.0298
-9.89653 16.4866 -4.30641
3.70557 -9.23085 -2.16442
42.4453 -10.8887 -9.56508
15.0522 7.46729 -3.59748
-10.7556 16.7908 -4.27338
-22.2829 -35.0305 -8.91829
4.80848 -9.72603 -2.3411
44.4919 -10.4175 -9.77786
-14.9559 18.5305 -5.01209
-32.6229 -24.0785 -8.59369
41.2032 -13.7865 -9.19309
14.778 7.80892 -3.48514
-36.0495 24.3785 -8.90003
-8.55864 -35.0046 -7.29587
3.93798 -11.4664 -2.43766
44.0306 -9.49978 -9.16264
11.736 -9.71453 -3.05579
42.4666 -10.9322 -8.73943
-27.3337 20.6267 -6.79805
6.12435 -10.2508 -2.37784
45.3578 -10.6067 -9.099
-12.9405 17.6571 -4.23246
-27.2171 21.3297 -6.72057
15.9428 12.0591 -3.81981
-6.96943 15.3443 -3.23764
-33.5416 -24.2609 -7.92296
-32.0289 -25.0808 -7.81733
-36.2786 24.1745 -8.21034
-34.0434 -22.4571 -7.7065
17.9306 5.63724 -3.50778
-34.5668 -20.8566 -7.53901
-15.4586 -44.5671 -8.78614
3.76038 -9.79473 -1.9759
-25.4736 -63.4177 -12.7082
-17.2486 -46.4665 -9.06437
3.96659 -9.61446 -1.87634
13.0185 -10.1727 -2.98004
44.8548 -9.9814 -8.25509
-14.9217 18.5071 -4.24939
-27.3742 21.4699 -6.14304
15.0124 7.94677 -2.95792
-30.6894 -26.7435 -7.09464
42.3258 -10.8415 -7.50249
-8.03501 15.4801 -2.95638
-9.88983 18.2151 -3.50342
44.138 -10.3901 -7.66867
-31.2075 22.7315 -6.50081
-30.6372 -23.5706 -6.46034
-21.0837 20.1595 -4.85423
-32.8603 23.2067 -6.71198
15.8444 -11.8221 -3.24017
-10.4628 16.6116 -3.1248
-44.192 26.0039 -8.13537
-32.0422 -24.0713 -6.41549
-33.9098 -23.3899 -6.4877
3.42552 -9.47421 -1.57584
-24.093 20.5813 -4.89439
16.8244 -11.8937 -3.19219
-11.3121 16.9307 -3.09488
45.4886 -10.6608 -7.09236
-23.6287 -54.7573 -9.01014
-29.9401 22.4544 -5.59645
-39.0636 24.357 -6.83335
-32.0714 -24.8951 -6.0567
44.1453 -9.46004 -6.72331
-34.2061 -24.7382 -6.16776
-51.0261 28.4899 -8.40334
-36.0385 -24.0382 -6.2352
6.7003 -12.8583 -2.10603
-7.05062 15.5461 -2.37247
-13.2874 17.9373 -3.10698
-32.696 23.5396 -5.63176
-25.4567 -56.6928 -8.56838
-16.6536 -48.6833 -7.07507
36.3458 -12.0872 -5.25397
-23.5028 20.6532 -4.16368
-32.7089 -24.4953 -5.33475
-31.0488 -25.4715 -5.30933
-34.3639 -23.6665 -5.34443
7.42802 -9.40845 -1.55031
42.3781 -10.8478 -5.61397
-34.0669 23.1817 -5.23911
-30.095 -16.059 -4.34796
6.032 -7.81181 -1.26084
44.2771 -10.4068 -5.76733
-31.5962 23.2213 -4.89326
14.4424 -11.2518 -2.24977
-30.4967 22.9692 -4.61878
-33.1494 23.4335 -4.88793
-10.5019 16.7032 -2.28053
-31.9188 -22.9564 -4.62541
12.9431 -10.4683 -1.94909
35.4667 -11.7197 -4.32295
6.32559 -10.3155 -1.39118
11.1589 -9.66994 -1.66398
16.362 -12.1823 -2.29926
-11.2196 16.8236 -2.23985
6.73095 -12.5414 -1.56026
11.5635 -9.65664 -1.66874
42.2194 -10.8263 -4.78602
-39.7582 24.7896 -5.02853
44.3358 -10.3599 -4.9031
14.8503 -11.4033 -1.99243
-13.1369 17.7482 -2.2686
14.6994 7.78015 -1.66167
13.9467 -11.0022 -1.77493
-14.2016 18.1633 -2.2367
6.37459 -12.2162 -1.3269
9.38101 -8.89825 -1.24998
16.9273 -12.3773 -2.04711
-29.1701 -13.939 -3.04537
-15.1938 18.6056 -2.23961
-38.7064 -75.4068 -7.88948
-34.4163 -21.5358 -3.59467
16.0578 -12.0326 -1.80618
38.1038 -12.6784 -3.59494
11.0778 -9.84724 -1.22518
42.6142 -10.8915 -3.66922
-16.6604 -43.3547 -3.73056
-41.9537 -82.0348 -7.17745
17.5185 -12.7656 -1.71244
-30.7068 23.2397 -2.94536
7.42928 -9.15153 -0.912634
-33.4425 23.6728 -3.04342
-17.0351 -42.1419 -3.39713
-38.3641 -72.1917 -5.81415
-37.3042 -74.7144 -5.72095
12.5255 -10.4239 -1.09719
16.9806 -12.3677 -1.42056
-40.225 25.0412 -3.09762
42.8619 -10.9735 -2.90498
-28.9619 -13.6186 -1.91642
-42.3133 -81.7473 -5.57498
14.4457 -11.2618 -1.10407
30.8155 -20.2997 -2.01742
30.7985 -19.4111 -1.99076
15.2676 7.54035 -0.883257
14.7093 7.79973 -0.85577
-13.0633 17.8266 -1.12147
-25.5708 -56.4273 -3.18339
-44.3961 -83.6719 -4.62638
9.63009 -9.06962 -0.661875
13.3976 -10.6544 -0.841078
15.8703 10.0959 -0.888298
16.156 11.3238 -0.918236
6.7982 -12.4684 -0.675646
-20.1668 -5.95056 -0.902561
-30.8383 -54.9568 -2.78098
10.178 -13.7407 -0.699285
17.9494 -12.944 -0.904842
42.1007 -10.754 -1.72981
-9.43736 -12.4821 -0.603655
43.5926 -10.2078 -1.76116
21.8504 26.2687 -1.16473
-33.3272 22.7821 -1.39855
-37.0117 -20.7546 -1.38123
-18.7861 -46.8191 -1.62158
16.3974 -12.2333 -0.667873
14.3309 3.88179 -0.437787
-26.9491 -61.9259 -2.02604
-23.185 20.6529 -0.886511
-12.6758 -38.4363 -1.08892
42.513 -9.03094 -1.21588
-42.977 26.7317 -1.36748
-55.7037 20.03 -1.41715
43.1773 -10.0261 -0.95398
-31.6141 23.892 -0.791297
-30.8355 9.80785 -0.675968
30.3556 53.1473 -1.1235
-30.8424 22.7624 -0.733439
12.9206 -10.5868 -0.289672
-35.149 -21.8742 -0.641636
-31.8259 -64.0055 -1.06512
17.3933 -12.5436 -0.311904
-12.9586 -39.1766 -0.533317
-14.4882 18.392 -0.238166
-20.7079 -47.5912 -0.564991
29.9375 -18.7508 -0.319175
-23.1732 20.6755 -0.20999
-9.97783 -12.8062 -0.0490773
6.99031 -11.6605 -0.0236513
14.5372 7.60217 0.00070663
-36.1848 -22.344 0.226711
-24.4654 -41.8149 0.356209
-54.9563 30.1056 0.642285
6.66146 -11.8193 0.140458
7.98615 -9.08016 0.120766
-41.8818 -22.2666 0.521585
-11.7388 -33.2433 0.392359
11.0623 -9.64314 0.192281
-23.5575 20.1285 0.408904
-12.5116 -19.4121 0.335552
-31.8576 22.6696 0.697873
-35.8522 -24.036 0.772534
-35.3668 -26.127 0.767218
10.5985 -9.52444 0.232409
7.76728 -9.5743 0.264865
7.87457 -9.19098 0.26109
-73.4082 25.4192 1.81801
17.9886 -13.058 0.541046
-29.0617 -8.73095 0.812606
-28.5649 22.4005 1.04716
11.5392 -9.88631 0.414361
17.182 -7.44785 0.533119
-25.5143 21.6391 0.997552
-7.94113 -9.31223 0.389609
12.5745 13.6714 0.660878
6.10763 -12.5842 0.492195
8.88363 -8.74165 0.425843
24.3557 -4.31585 0.827168
18.2915 17.4681 0.913622
13.583 23.5137 1.02167
-58.3806 19.1896 2.21429
24.1667 -4.69454 0.932559
-25.9849 21.2266 1.26992
9.3497 -8.89454 0.498866
22.2208 -3.06133 0.84735
12.0784 13.9894 0.756934
14.5531 18.8041 0.974132
6.48266 -12.291 0.570428
17.285 39.9505 1.81811
7.61653 -10.9755 0.563165
-7.58124 -7.46278 0.47021
-8.32957 -11.5242 0.6354
-29.9692 -11.8639 1.53554
16.2361 10.5401 0.964931
-7.75832 -7.21876 0.507731
14.991 23.2899 1.4316
-6.98381 -8.22141 0.593168
14.3112 19.5971 1.33019
-26.6222 20.4998 1.85964
14.1298 23.0114 1.56407
-7.15956 -9.22917 0.667612
6.7709 -13.4177 0.862814
9.79201 12.317 0.931633
14.4677 19.2221 1.50871
14.6627 26.0958 1.84354
10.0062 28.0618 1.8952
-7.34436 -10.0242 0.795071
9.28179 21.1522 1.55079
11.3177 9.95543 1.07461
11.33 11.9811 1.16432
13.5129 15.6144 1.47806
8.13993 -12.5476 1.05591
10.6701 8.90682 1.02287
12.7245 14.2718 1.431
-14.5239 8.56504 1.27606
-11.1973 2.10943 0.862619
12.2487 15.9443 1.56067
11.3752 18.1285 1.66235
10.0568 -6.88232 0.951519
-7.70763 -8.15358 0.897789
12.6116 11.4161 1.3878
11.7216 11.4672 1.36144
-7.0333 -6.18826 0.761517
-7.08714 -6.9301 0.822441
11.3328 11.8296 1.41288
10.5345 9.27987 1.27644
-11.4756 2.93851 1.08934
-7.65386 -7.12889 0.939941
11.5297 8.89639 1.39464
9.08574 12.8482 1.51126
7.07354 13.0156 1.45204
8.293 12.8939 1.53757
-6.76986 -6.74613 0.950248
7.84111 -6.51772 0.998002
9.55519 11.9681 1.53506
9.8257 10.037 1.45084
-6.90567 -5.42092 0.91392
9.5162 9.06162 1.40102
8.08863 10.997 1.43111
6.64624 12.8871 1.54495
9.49731 8.28744 1.33439
9.07661 10.1094 1.48017
5.58904 12.3112 1.46365
-6.41329 -7.55304 1.07097
6.5899 11.2158 1.43134
5.14149 12.8824 1.53026
-6.8469 -3.99331 0.875677
-6.72006 -6.09899 1.00015
3.91303 -7.75497 0.961654
5.43117 -6.08479 0.916399
9.27161 7.46387 1.33789
8.96297 9.5385 1.47612
7.81289 11.128 1.52002
6.68269 10.5464 1.42385
-6.90092 -4.58375 0.939939
4.69734 -7.66413 1.03868
-10.7322 7.19468 1.50068
-7.11124 -2.13953 0.864671
8.93903 6.0386 1.28354
5.79068 11.8185 1.55537
4.88999 11.3084 1.45306
4.76662 -5.85473 0.888632
4.10417 -7.86904 1.07921
8.28482 3.83735 1.14452
10.8724 5.42299 1.49336
4.46625 12.426 1.64344
-6.17654 -5.40396 1.00692
-9.1862 1.30946 1.15724
8.17663 7.47836 1.40249
-6.4569 -5.3364 1.05987
7.70915 8.09696 1.43741
-6.90763 -3.58374 1.00806
4.96054 -5.95737 1.00085
5.01637 -5.41961 0.962907
8.3244 6.84887 1.42802
7.86123 7.77332 1.47097
-7.22655 -1.72949 1.00174
-7.05287 -2.21628 0.991176
-6.50503 -4.38601 1.04265
4.82287 -6.07932 1.03267
8.31303 6.30034 1.41881
-6.8709 -4.231 1.0877
-6.06531 -4.45671 1.01267
4.94305 -5.53008 1.01851
7.39384 -3.51184 1.13928
8.30457 4.21621 1.32292
8.26621 4.54232 1.33841
-6.96086 -2.91591 1.0796
7.46065 -3.72361 1.19064
7.00247 -3.04885 1.07737
4.93372 -5.78025 1.097
8.16671 -1.72804 1.20892
-6.98025 -3.26764 1.14361
7.32794 5.52174 1.37813
5.68919 7.34517 1.40325
7.93178 3.88662 1.34968
7.85202 4.1641 1.35133
5.36806 7.70812 1.42805
5.0084 8.55508 1.49771
3.43321 9.39064 1.50815
-7.02972 -2.8354 1.15613
7.66046 -2.78679 1.24864
7.82354 -2.22954 1.25543
7.7735 -2.01105 1.2407
7.41146 4.17444 1.37162
7.01491 4.71691 1.38908
6.68994 4.87589 1.3765
5.32913 6.386 1.38409
-7.23075 -1.36551 1.21905
4.93212 7.243 1.46238
4.66693 7.14277 1.43219
-7.24654 -0.807206 1.22158
2.86737 -5.93264 1.11081
6.65438 4.06059 1.33191
6.45431 5.18458 1.4059
3.77914 7.82079 1.4576
-6.39727 -2.30726 1.15438
-6.30249 -2.68933 1.16918
3.77282 -5.24089 1.09945
-6.99662 -1.80173 1.26316
4.23494 -4.64175 1.10421
6.62547 3.48881 1.35226
5.01516 5.5472 1.36663
3.63285 -5.36146 1.17938
3.31756 6.65212 1.38563
6.46106 3.03183 1.35586
6.39633 2.70084 1.32557
-1.64917 -5.70808 1.14086
-2.17163 -5.76536 1.20143
6.22518 2.36669 1.33117
3.93963 -4.58107 1.20178
-3.01489 5.62929 1.36308
-3.63864 5.23491 1.39076
4.20955 -2.92816 1.20528
-4.29171 3.94224 1.42102
4.58698 -2.18721 1.23331
4.47815 -1.26914 1.15729
3.71069 -2.9371 1.23273
3.68051 -2.58595 1.19333
3.42767 -2.98012 1.22575
-2.31915 -3.61382 1.2066
-2.49727 -2.92496 1.19696
1.87556 -2.49581 1.13328
1.93711 -2.65387 1.19796
-2.04539 2.80833 1.31782
-2.07007 -1.46285 1.19692
-1.82277 -1.82892 1.30195
-1.97466 -1.17105 1.20949
9.64303 -9.02033 -9.34725
9.20798 -8.89549 -7.63018
2.44711 -20.0838 -10.7448
3.66666 -9.28699 -4.50259
26.1295 32.4606 -13.9907
2.06429 20.4197 -6.08366
9.47806 -8.74453 -1.61226
8.73154 -8.60356 -1.22933
8.88091 -8.75925 -0.924881
19.0146 -13.4632 -1.27449
42.8778 -11.5167 -2.29937
9.9959 6.87966 1.28849
-3.51303 5.34596 1.37526
7.95895 -8.21703 -10.2634
7.82011 -8.24295 -10.0031
8.34856 -8.43842 -9.83143
6.81786 -11.7728 -11.1784
7.94962 -8.20916 -9.04046
7.98928 -8.68698 -9.071
6.19811 -14.1149 -11.5997
5.84828 -14.1334 -11.2012
9.05443 -8.8023 -9.2585
7.60605 -9.18045 -8.64167
7.83416 -9.08409 -8.57651
7.19294 -10.6588 -9.15094
10.1872 -9.27441 -9.65844
6.40473 -11.0403 -8.72186
8.14367 -9.04301 -8.16129
7.31457 -9.29761 -7.89696
7.93408 -9.17456 -7.97535
5.02225 -15.9355 -10.7792
-0.521778 14.3564 -9.22091
7.2794 -10.7539 -8.3313
7.58557 -9.10894 -7.58523
10.9521 -9.77291 -9.31999
7.03099 -10.89 -8.08041
8.16741 -8.57435 -7.35737
0.114436 14.3667 -8.75498
7.7412 -8.7068 -7.02001
11.4416 -9.7138 -9.05799
8.94982 -8.87877 -7.45132
6.5568 -12.8058 -8.48806
5.50033 -13.9474 -8.81198
7.02882 -11.0611 -7.52367
5.10276 -12.8147 -7.74622
3.1587 -19.3073 -10.9705
6.59216 -11.0636 -7.21754
7.83173 -9.02778 -6.70268
12.1352 -10.165 -8.85347
9.66679 -9.46997 -7.42153
13.2145 -10.5937 -9.13653
14.9927 10.2684 -9.76164
14.9769 7.35853 -8.91645
13.8066 7.61191 -8.33756
11.3709 -9.81332 -7.71851
2.36492 -19.4978 -9.92207
10.6383 -9.53715 -7.18852
7.3243 -9.25109 -5.92018
14.0503 -11.1443 -9.03106
17.9534 -12.8379 -10.7396
18.5276 5.72074 -9.42107
2.66295 -19.5665 -9.58997
12.8039 -10.5779 -8.03099
15.3263 -11.6692 -9.34595
7.28097 -10.7339 -6.24765
14.9424 7.32462 -7.74375
7.06892 -10.8751 -6.04626
6.20595 -10.6012 -5.68989
9.98074 -2.50441 -4.73073
17.285 -12.63 -9.83764
-11.8823 17.0579 -9.47653
3.53777 -9.02363 -4.39127
-10.2958 16.8342 -8.86922
15.9199 7.20033 -7.81771
-11.3322 17.2422 -8.89989
-7.07944 6.86663 -4.24817
-6.49591 6.48024 -3.90641
1.1964 -15.436 -6.58192
19.7991 20.512 -11.9631
16.1489 -12.2052 -8.51263
15.0949 7.41801 -7.02795
-10.0906 -1.10111 -4.21534
19.7687 21.518 -11.9971
14.0393 7.75699 -6.52807
16.3334 7.35665 -7.19618
14.943 7.68908 -6.74057
1.48599 -17.9131 -7.01965
18.5872 5.73502 -7.528
19.3006 21.5374 -11.1841
0.769914 16.2543 -6.2512
0.710866 -24.2167 -9.21424
16.8315 -12.4498 -7.83204
14.0996 7.87309 -5.83715
0.537394 -22.6939 -8.00065
-4.08466 13.7416 -5.03187
-10.6933 16.4351 -6.86393
-0.868658 -22.9966 -8.08928
-15.1461 18.6917 -8.3213
-8.98249 16.2276 -6.36628
-5.06157 14.4219 -5.15392
1.27161 17.5708 -5.86932
-5.39039 14.366 -5.05972
38.1929 -19.6242 -14.1778
12.4348 -10.2857 -5.20126
8.00012 -9.16591 -3.89856
7.38714 -8.77434 -3.55087
-4.27743 14.4023 -4.52234
11.501 -9.75443 -4.55243
15.0373 9.46443 -5.08788
13.6025 -10.6215 -4.95258
-5.56103 14.8287 -4.45884
-13.5764 18.2212 -6.41335
15.5901 10.5377 -5.1824
-9.70468 16.3092 -5.04465
-27.3842 21.2094 -9.0454
-24.1179 20.2599 -8.14853
-7.21302 15.3129 -4.32918
-8.01162 15.546 -4.2657
-26.3359 20.7835 -8.17579
-3.32083 13.5927 -3.35161
-11.8492 17.1927 -4.99109
3.10151 -9.52582 -2.36953
14.7027 7.84287 -3.93323
-33.7004 -26.4566 -10.0467
5.37829 -11.5971 -3.01244
48.8274 -11.7765 -11.6744
-7.37044 -36.048 -8.45401
-9.83248 16.491 -4.38974
15.0044 7.35205 -3.78483
-30.4915 22.1686 -8.36933
-12.5765 -45.0057 -10.2616
3.71736 -9.39211 -2.22505
42.1356 -10.6765 -9.39114
-35.1987 -23.1182 -8.97524
-14.9439 18.5438 -4.94621
14.5817 7.78811 -3.43299
-32.2756 -24.4225 -8.33165
9.27134 -9.17819 -2.70587
42.8457 -10.8923 -9.06957
45.5354 -9.65694 -9.39532
-28.8285 21.6374 -7.10976
-21.4496 -34.866 -8.04693
-33.5306 -24.2253 -7.82097
-34.9985 -23.0941 -7.83033
-14.9285 18.5576 -4.32608
15.2541 7.47958 -2.99307
-5.33656 14.2413 -2.67716
-18.7628 20.0761 -4.8585
-22.502 -53.5768 -10.1318
-22.7403 -36.6841 -7.44787
-34.3825 23.2937 -7.04464
9.10394 -8.95429 -2.16748
-31.5303 22.968 -6.34857
-32.386 -24.3332 -6.46867
-20.7172 -55.1365 -9.4061
42.2112 -10.7173 -6.94769
-45.1645 26.6755 -8.26564
-37.4583 -23.4512 -6.85276
6.42033 -10.8363 -1.96813
-29.5293 -26.3228 -5.97636
-30.9135 -25.3645 -5.99358
-20.7552 -51.1335 -8.19717
6.45357 -12.3607 -2.08289
-33.4446 -24.0528 -5.89606
-31.4127 -24.7282 -5.67313
-32.6307 23.3615 -5.61272
-13.1776 17.7913 -3.01389
-33.2015 -24.8222 -5.61288
-30.5256 -26.2618 -5.46582
-32.0818 -19.9519 -4.96078
-34.09 -23.4985 -5.46133
-33.8787 22.9788 -5.15847
-30.982 23.0591 -4.72273
-41.3079 24.3992 -5.89671
12.9081 -10.4366 -1.94703
9.68292 -9.06599 -1.52578
10.5228 -9.2062 -1.54038
-13.2197 17.8738 -2.3419
15.0455 -11.5697 -2.02668
-31.2428 -24.7082 -4.03935
45.3768 -9.64396 -4.63817
17.0504 -12.4408 -2.0784
41.928 -11.269 -4.09513
-34.6891 -71.1623 -7.02141
-23.6044 20.6533 -2.7481
-29.1731 -13.0923 -2.77816
6.92815 -10.6489 -1.11613
16.9675 -12.2603 -1.81344
-29.6326 -26.439 -3.35052
9.82228 -8.9183 -1.09541
13.6696 -10.8685 -1.40575
-34.7865 23.5836 -3.21384
-30.3584 22.7462 -2.80565
16.6749 -12.1633 -1.50889
-17.7694 -43.5687 -3.37462
7.33072 -9.09466 -0.852017
-26.5125 -60.8518 -4.5697
9.54971 -8.99559 -0.870996
9.7019 -4.72455 -0.680924
11.2758 -9.76918 -0.940063
-15.2147 -41.773 -2.61761
15.1532 7.44312 -0.9245
14.5906 7.81198 -0.899804
11.75 -9.97657 -0.796221
16.8173 -12.5955 -1.00514
-12.7002 17.3971 -1.03628
-37.5226 -67.0429 -3.69158
-27.7386 -55.5361 -2.97648
-35.3927 -19.9713 -1.36681
-18.5518 -45.916 -1.65268
-25.8108 -59.6914 -1.88327
-22.8595 -61.6598 -1.90922
15.3386 13.3822 -0.392617
11.4808 11.1698 -0.300189
23.421 28.5977 -0.629879
13.1867 -10.8506 -0.315301
-22.5086 -49.4311 -0.892839
-19.6206 5.68686 -0.106789
-35.8243 -68.7608 -0.417227
29.5383 -18.6326 -0.232527
18.5036 -12.858 -0.0244788
14.7273 7.62059 0.0338054
6.49378 -12.1326 0.157228
11.3475 -9.91572 0.164576
-12.3783 -19.1173 0.301091
25.8682 -5.02059 0.746925
21.0195 43.0664 1.50491
-7.87474 -9.29147 0.4211
-30.8863 -14.7246 1.28836
15.8124 28.5325 1.41014
-10.8774 -16.9899 0.851785
14.6014 19.3774 1.1117
18.3937 35.9492 1.82647
16.3783 31.4019 1.66141
6.5312 -12.3664 0.659853
-6.97855 -8.48128 0.564219
15.2692 25.2545 1.57914
6.26654 -13.6496 0.778646
-6.74905 -4.55641 0.482012
-11.6686 -8.9076 0.868877
-7.55933 -10.4375 0.857297
10.9023 9.03219 1.00785
6.21487 -12.8919 1.00551
-7.17835 -6.36033 0.683454
7.0493 -10.7768 0.917388
12.7154 19.8438 1.80681
-15.1175 8.44991 1.33275
10.9662 -4.90504 0.913368
9.43805 -8.85772 1.0333
10.3019 12.4 1.45391
6.50023 -6.18479 0.831137
10.944 9.04491 1.3343
6.3776 13.2708 1.40427
4.5221 12.5122 1.2998
9.65003 12.1156 1.55836
7.56655 10.3576 1.33767
6.53684 12.6682 1.518
8.1973 -6.61627 1.10741
10.052 9.50643 1.47867
7.05506 10.644 1.37485
8.72689 9.27326 1.44014
4.73888 -5.85053 0.848013
9.85421 5.43461 1.28551
6.96179 11.0571 1.52343
5.8707 10.5449 1.42987
-7.03616 -2.10022 0.853176
8.40708 8.54285 1.42124
-7.20512 -0.819221 0.868488
-6.88834 -3.97074 0.945647
4.36982 12.0679 1.56217
-7.04033 -2.33545 0.894427
-7.47026 -0.988581 0.927745
-9.19514 1.34499 1.16255
8.28574 7.5643 1.42489
4.84008 -5.2647 0.934056
7.70708 8.13754 1.4746
-7.27483 -4.51666 1.15615
7.25632 -3.86623 1.14053
7.4563 -3.53577 1.15089
7.45975 -3.26709 1.1374
8.11514 4.12772 1.30111
7.41403 -3.70174 1.18357
8.30522 4.56281 1.35672
7.69803 -3.01649 1.1995
7.91351 -1.91752 1.17102
5.66696 7.32577 1.39692
5.20319 -5.6079 1.17162
-7.1529 -1.832 1.15704
-7.19647 -1.3322 1.16465
5.26623 6.32761 1.36323
-6.42112 -2.31812 1.14013
6.79578 4.17588 1.35704
-7.34736 -0.958699 1.2573
2.98697 -6.17225 1.15414
-6.97487 -1.77042 1.26548
3.99937 -5.1124 1.12932
4.70504 -4.47715 1.1509
3.55002 -5.23328 1.16088
4.99101 5.52355 1.36006
-7.26167 -1.15966 1.34292
3.84641 -5.22425 1.20825
-7.06729 -0.81078 1.35025
6.31246 2.824 1.33042
3.69499 -4.57489 1.13632
-2.24933 -5.37545 1.17094
4.93863 -6.43274 1.59756
3.81335 -4.42322 1.15573
4.16008 -4.32932 1.2296
-6.42755 1.48286 1.36968
-2.90639 4.86624 1.19036
-1.34069 -4.98329 1.14428
4.03945 -3.76117 1.22245
4.46366 -2.75788 1.21376
-4.47485 3.93929 1.38754
4.79939 -1.93884 1.24561
-2.74979 4.72692 1.29141
4.34288 -2.67932 1.23107
-1.01437 -4.20721 1.16524
-1.42538 -4.00231 1.17954
-2.14635 -3.81179 1.2158
3.99023 2.54995 1.32909
1.84769 -3.18752 1.2213
-2.04212 -2.42955 1.27251
2.58072 -1.81887 1.32259
2.47775 -1.9193 1.32361
-2.16708 -1.7773 1.21315
2.36492 -1.3024 1.19715
-2.00248 -1.4882 1.20286
7.73163 -8.27691 -9.97901
8.14006 -8.16668 -9.5348
6.7289 -11.757 -11.0673
7.98523 -8.33888 -9.10662
8.02889 -8.89707 -9.06457
6.25111 -13.8987 -11.4653
9.01068 -8.85029 -9.26551
7.24113 -9.42639 -8.71834
7.35576 -10.8304 -9.30905
8.14571 -8.87297 -8.16945
8.89748 -8.91227 -8.35763
6.36773 -12.4841 -9.13027
5.23251 -16.0862 -10.9633
7.25859 -10.5798 -8.26361
10.577 -9.61364 -9.1756
7.87211 -8.32577 -6.99096
0.115329 15.6592 -9.43269
12.1093 -10.2309 -9.56228
8.24579 -9.11837 -7.34906
-0.321343 13.2555 -7.71892
7.40572 -10.8282 -7.2275
7.80655 -8.97978 -6.57665
5.82551 -12.624 -7.57956
