ply
format ascii 1.0 
element vertex 1861
comment /media/mkaihara/Seagate Backup Plus Drive/model_iterations/model_9.ply
property float32 x 
property float32 y 
property float32 z 
end_header 
9.27755 -9.31027 -4.92343
19.6104 -14.2447 -9.08283
21.8623 25.9305 -12.6856
20.881 5.67181 -8.07911
22.124 25.7998 -12.6835
3.43763 -11.3908 -4.43115
-12.1802 16.3977 -7.52839
12.5113 -10.6157 -6.02751
21.3091 5.44061 -8.06814
18.7756 18.5554 -9.63877
22.895 27.3841 -12.9865
-7.98775 -2.75416 -3.06289
20.1519 5.97932 -7.57377
2.3323 -13.431 -4.90202
0.797305 15.838 -5.68876
-4.06778 13.2308 -4.92862
-8.0399 -2.73753 -3.03218
7.0928 -11.0674 -4.66001
-14.8271 17.1282 -8.00035
16.9816 -12.8214 -7.5323
-10.3764 15.6362 -6.55249
20.1977 -14.6515 -8.75814
20.2063 6.16128 -7.34149
3.89723 -9.07464 -3.39992
-8.2505 14.9945 -5.81575
3.14746 -14.1326 -4.93086
20.3482 -14.5547 -8.55221
38.2215 -23.6775 -15.2715
-13.8684 16.9848 -7.39352
21.0127 5.70998 -7.30583
41.5747 -23.4742 -15.9352
45.9393 -22.607 -17.0559
17.1188 7.67964 -6.25669
3.63654 -10.7933 -3.79034
1.36245 -10.9207 -3.63781
-5.89786 14.0551 -4.96408
-11.8271 16.2167 -6.52542
16.7994 -12.9092 -6.88699
6.35155 -10.3399 -3.89432
3.50197 -10.5959 -3.57248
3.60834 -8.78839 -3.04338
-0.989986 -21.143 -6.77457
2.38031 -11.2267 -3.6533
3.40976 -10.5844 -3.51698
2.9487 -9.40201 -3.10225
14.4247 -11.4049 -5.77479
-16.5478 17.8844 -7.62187
-8.49958 -2.58872 -2.78435
31.4602 -17.2567 -11.2509
1.30235 -20.0582 -6.21448
-2.13705 -23.1618 -7.18007
21.5413 27.9028 -10.643
3.40719 -10.4029 -3.29358
3.5877 -9.31288 -2.99934
-13.3199 16.6557 -6.37322
0.764104 -21.9615 -6.58974
-19.6306 18.3048 -7.94279
-7.43565 14.4512 -4.77496
5.08174 -12.7428 -4.01104
4.37901 -9.40296 -3.04326
2.08507 20.8308 -6.15438
-4.08616 13.714 -4.18547
4.27197 -9.41972 -3.01831
21.2922 -15.2619 -7.71659
-14.1501 17.0209 -6.37638
-26.8639 -38.3938 -13.4155
7.59138 -11.8149 -3.99971
2.64852 -9.82264 -2.88001
-8.21785 -2.15244 -2.39625
4.74813 -11.7686 -3.5699
-2.09415 -21.2599 -6.00239
-8.64931 14.9091 -4.74072
4.65157 -11.9825 -3.53639
8.97796 -8.75598 -3.44225
-12.1426 16.1753 -5.53002
51.5365 -17.0862 -14.7972
-8.52065 -2.38314 -2.397
-23.1499 -32.107 -10.7608
21.0837 27.1418 -9.3437
-22.3294 18.7395 -7.87868
3.45574 -10.5977 -3.00552
3.62489 -10.6271 -3.02557
-3.5131 -25.3489 -6.88879
-24.4261 18.7323 -8.19911
47.8345 -15.7814 -13.3095
51.876 -15.0168 -14.2865
-6.9551 -31.359 -8.4805
-6.6349 -31.3377 -8.46295
-13.3534 16.7317 -5.5493
10.3375 -9.40043 -3.64828
11.9273 -10.5894 -4.13945
-9.88943 15.4269 -4.73467
-12.82 1.98088 -3.39247
-3.54203 -23.2824 -6.13558
3.46875 -10.4634 -2.84326
3.75357 -10.9608 -2.99138
-23.9047 18.9495 -7.81814
4.57497 -11.8045 -3.19602
4.69714 -10.3172 -2.85292
9.94997 -9.62114 -3.48548
7.36775 -12.0995 -3.54917
-24.7625 19.1055 -7.80852
49.3463 -14.3639 -12.8223
-10.692 15.7497 -4.71869
-22.0277 -32.1139 -9.61551
12.4571 -10.726 -4.05949
3.60587 -10.9456 -2.8287
-22.3841 18.802 -7.14561
10.4633 -9.44839 -3.38862
-7.30866 14.2522 -3.83924
4.43578 -13.0855 -3.31971
15.6537 7.86324 -4.19714
3.65565 -11.9878 -2.9968
3.37782 -10.5111 -2.62508
5.26319 -13.7049 -3.52482
-5.38108 -30.8512 -7.47087
46.6346 -12.6108 -11.4421
-8.86839 -34.1011 -8.37113
4.21315 -9.64164 -2.48327
-26.1823 19.5658 -7.71597
15.4591 7.91301 -4.07245
-8.74988 15.1107 -4.09519
4.28724 -12.3436 -3.06701
-11.8841 16.2001 -4.69013
-24.0356 19.0716 -7.12007
3.69327 -10.916 -2.63703
39.6219 -9.39795 -9.4392
11.6212 -9.97635 -3.5313
16.6756 -12.5705 -4.78011
-33.1166 23.4304 -9.26987
-9.89533 -34.4715 -8.19042
11.4802 -10.037 -3.48537
-9.28593 -33.3948 -7.8803
-5.04591 -25.6291 -5.95932
45.385 -14.0311 -10.7633
-24.6098 19.0109 -7.01141
15.6205 -12.1211 -4.44239
-27.7705 20.1713 -7.69647
4.6133 -6.0177 -1.69975
5.61156 -9.72336 -2.50715
-20.2943 -52.3701 -12.4369
-8.95579 14.989 -3.84087
-10.4266 -35.8407 -8.22683
4.40403 -10.4747 -2.49448
14.265 -11.5068 -4.03745
4.30058 -9.84056 -2.35561
45.805 -13.5458 -10.4597
-21.4634 18.7085 -6.20426
-16.8274 -26.1093 -6.73942
3.63463 -10.7944 -2.43811
4.7217 -10.6205 -2.50877
15.5382 7.81129 -3.741
-26.182 19.5905 -7.02419
-18.3998 -29.1748 -7.41699
-6.83155 -28.9709 -6.37966
-22.2817 18.7921 -6.20614
-27.9773 20.3202 -7.35357
3.52389 -10.756 -2.4083
5.16582 -9.39023 -2.26822
15.3361 8.00897 -3.66679
4.59337 -11.3803 -2.60443
14.472 -11.7853 -3.91971
46.5469 -12.1305 -10.1932
-9.76982 15.3016 -3.82538
4.62931 -9.75567 -2.25973
3.32606 -9.60757 -2.10246
5.47802 -9.60703 -2.31237
15.3281 7.71403 -3.58001
-33.797 22.2542 -8.41734
-24.4538 -22.6746 -6.89569
-10.4649 -30.7857 -6.75962
3.20869 -10.0163 -2.18152
-25.3396 -26.7217 -7.59074
-17.3651 -27.1176 -6.63623
-24.0421 -59.1728 -13.175
-23.6688 -60.5557 -13.4338
4.13329 -9.9965 -2.22637
3.98906 -9.31636 -2.0749
-14.4052 17.033 -4.56162
-18.2087 -48.2775 -10.6064
4.25446 -9.36111 -2.09763
13.3943 -10.8112 -3.57484
-31.6385 21.188 -7.73654
-13.5098 2.95567 -2.82547
-30.0714 -21.2526 -7.51031
-19.232 -53.1369 -11.5208
-9.31664 -30.0223 -6.404
49.1173 -10.7272 -10.2129
15.5098 7.92442 -3.49488
-16.0556 -21.2703 -5.35907
13.0444 -10.6595 -3.38493
-14.421 -41.2684 -8.73871
4.53781 -11.6626 -2.4892
-11.1311 15.9594 -3.86091
-23.8032 18.7293 -5.99941
-31.9389 -18.9074 -7.37916
-28.8006 -22.4926 -7.24368
-10.8281 -33.6418 -7.01156
-7.38203 -28.633 -5.90124
15.4655 -12.1926 -3.89883
4.3435 -10.5798 -2.24859
-24.5882 -25.8889 -6.96841
3.49403 -10.6628 -2.19329
-31.7721 20.9933 -7.39539
-17.8518 -42.9932 -9.00948
-32.5752 -19.8339 -7.26177
-12.5604 -36.2787 -7.33369
3.76366 -9.60135 -1.96929
-17.539 -28.4082 -6.34392
-28.6387 -22.3506 -6.85102
-25.9906 -23.0791 -6.54461
-16.9762 -41.9595 -8.57452
4.20853 -9.84253 -2.03268
-31.7806 21.4164 -7.13048
-13.2163 -36.0558 -7.19789
-19.8698 -45.157 -9.08455
3.71782 -9.95002 -1.95554
-29.1085 -21.7262 -6.61306
-27.854 -23.8826 -6.68832
-29.5272 20.7879 -6.50486
-15.879 -39.2946 -7.57191
-27.9759 -22.536 -6.31929
-18.0258 -46.6832 -8.82716
-30.6489 20.3962 -6.4419
-12.9622 -36.5606 -6.81229
3.69646 -10.3789 -1.91996
14.6202 8.11494 -2.90462
-31.1699 21.3594 -6.54914
-25.8856 -22.6877 -5.98771
3.78229 -10.3495 -1.90502
5.11135 -9.22026 -1.82308
-24.372 19.1343 -5.35088
-27.6552 20.1139 -5.89402
-27.5008 -25.3307 -6.45271
4.23 -10.8766 -2.00782
14.454 7.79269 -2.82624
-18.3258 -42.1135 -7.81968
-18.8976 17.9802 -4.3981
-28.2058 -22.4187 -6.11031
-15.5303 -38.5107 -7.05013
6.09531 -12.7647 -2.38279
47.366 -13.3779 -8.34418
-14.334 -38.2678 -6.88913
46.1908 -12.0183 -8.02916
5.42369 -11.6332 -2.13142
7.22131 -11.9978 -2.36089
-9.55328 15.1874 -2.90752
-27.3068 -21.138 -5.62784
47.806 -12.8386 -8.05581
-20.2037 18.3528 -4.42403
8.02269 -9.66717 -1.98758
-33.0331 -22.8693 -6.3315
-15.9347 -39.4281 -6.76216
-20.9086 18.3838 -4.38828
9.76294 -9.22876 -2.10191
-21.9617 18.7219 -4.48681
-29.4807 20.7664 -5.57557
4.18204 -11.0703 -1.81291
-28.7371 -22.2195 -5.55248
-10.9772 -33.126 -5.36909
-27.9318 20.3274 -5.24808
-15.6624 -36.3652 -6.0505
-17.5049 -42.1354 -6.95629
-7.02133 14.2157 -2.38686
-29.9305 -21.0337 -5.51133
-29.2587 -21.5103 -5.50243
-24.8495 -23.3154 -5.12872
-29.7723 -21.4278 -5.50158
-28.0784 -22.4761 -5.37658
-24.6471 -21.8967 -4.91296
-31.1959 -20.8363 -5.5683
-22.5659 18.9431 -4.34043
-29.6299 -22.1728 -5.45361
-28.7805 -21.7945 -5.3311
-23.1525 19.0784 -4.38594
-28.19 -23.3887 -5.36308
-9.88063 -32.7553 -5.02357
-11.6136 15.886 -2.83217
-7.04734 14.0972 -2.24414
-44.8334 24.8548 -7.324
3.83272 -10.4355 -1.57697
42.8642 -14.0976 -6.41796
-29.9334 -22.0496 -5.25883
-27.4821 -21.8416 -4.94034
-24.9921 -23.0503 -4.81631
-21.0534 -44.4991 -6.99393
-26.9479 -22.7287 -4.96428
-18.6887 -43.0894 -6.56441
-16.1132 -38.8297 -5.86477
-6.25408 13.8552 -2.06021
-12.865 16.4367 -2.82902
-9.18349 -32.1584 -4.56206
-6.8092 13.7991 -2.06319
-17.796 -46.3323 -6.72277
-20.3926 18.5455 -3.66858
-18.9518 -42.96 -6.24476
-28.1268 -21.7123 -4.68976
51.2198 -11.803 -6.9139
50.3811 -11.0757 -6.79715
-10.5748 -32.8693 -4.54504
7.15475 -11.7907 -1.81041
-13.7693 16.8653 -2.83125
-20.7839 18.3058 -3.58809
-29.8339 -16.0127 -4.36867
-29.2426 -21.8306 -4.69738
11.0822 9.09089 -1.85505
-30.0744 20.6788 -4.68326
-26.6732 20.2975 -4.22259
-27.788 -21.7556 -4.45169
-10.4488 -29.7346 -3.9906
-24.8799 -50.7261 -7.07946
10.1722 -9.52017 -1.73733
13.5511 -11.0747 -2.20194
-30.1269 21.1345 -4.5989
-32.3674 -20.1647 -4.74829
-27.4032 -22.6498 -4.41711
7.2542 -11.032 -1.64508
-29.5961 -20.9192 -4.49026
-10.651 -33.2348 -4.2992
14.0005 -11.6712 -2.23607
46.827 -12.1707 -5.97541
-14.8394 17.0836 -2.76395
-13.0943 -31.7435 -4.2019
-8.0563 14.4015 -2.00752
49.088 -11.3081 -6.10132
15.6018 8.14517 -2.11847
9.89648 -9.39019 -1.62754
-30.2684 -21.1183 -4.37539
-16.3168 17.7344 -2.81795
-19.6268 8.68569 -2.5427
-28.4485 -22.0241 -4.24237
-19.5645 -44.3311 -5.69754
11.9096 -10.2451 -1.8383
47.2884 -12.6595 -5.76547
15.6623 -12.1611 -2.278
15.5178 7.97707 -1.98819
-26.8605 20.4276 -3.84748
7.81079 -11.8604 -1.60896
-9.43382 15.0619 -1.98856
9.95901 -9.81829 -1.55568
13.533 -11.1151 -1.95173
14.8459 -11.7178 -2.10276
9.95 -9.59549 -1.53319
7.54877 -11.1782 -1.47535
50.2954 -10.985 -5.60575
-10.0457 15.0905 -1.95328
-29.6284 20.8927 -3.9351
12.3738 -10.3963 -1.74423
6.82426 -14.0308 -1.63728
8.1403 -12.4593 -1.54633
10.3492 -9.35897 -1.4673
-11.9959 -34.6676 -3.85061
17.7231 -13.1249 -2.31197
-23.1893 -46.59 -5.40057
15.4547 7.78273 -1.77287
-27.8287 -22.1782 -3.65419
14.687 -11.6207 -1.91853
-28.5033 -22.0479 -3.64485
15.4468 8.07127 -1.75547
-11.6748 15.6135 -1.91468
-26.8067 -16.4797 -3.15635
-15.6517 -39.6865 -4.1371
9.73179 -9.16519 -1.26528
-49.2486 27.3139 -5.4129
-24.3702 -49.2319 -5.26079
-21.2905 18.6247 -2.67138
-27.6577 -22.6573 -3.39737
-27.6068 -22.9313 -3.41922
-16.2251 -42.4595 -4.28909
-12.9258 16.5403 -1.96389
-27.983 -21.8926 -3.31445
-12.4425 -33.8936 -3.36646
-10.8129 -33.6117 -3.2973
10.3323 -9.57694 -1.30856
-25.0278 -48.7547 -5.04997
8.99441 -9.09659 -1.16099
17.654 -13.154 -2.0135
-13.7329 16.8468 -1.94898
-32.1264 -19.9816 -3.42185
-29.5836 20.8878 -3.18826
-27.7387 -22.3785 -3.14813
14.9322 -11.8766 -1.69314
-29.1406 -17.7575 -2.90999
11.6576 -10.2306 -1.32029
-24.0917 19.5425 -2.60461
-9.17348 -28.5543 -2.53734
9.88715 -9.48033 -1.14969
-30.2243 20.7806 -3.0463
-38.1023 -70.799 -6.69415
9.12657 -9.12838 -1.0599
17.9351 -13.0803 -1.81295
-13.2495 -34.4303 -2.96656
-16.8497 -38.5464 -3.29371
-12.51 -30.8852 -2.64262
-10.7696 -30.2192 -2.55074
9.67835 -9.40565 -1.06004
11.9119 -10.3263 -1.23566
15.8422 -12.3915 -1.59196
-26.8653 20.4875 -2.62819
-26.9848 -12.5957 -2.31208
12.5343 -10.6191 -1.27308
-18.0656 -40.2357 -3.37858
13.544 -11.2422 -1.33327
-29.5141 -55.9954 -4.57932
10.4697 -9.60907 -1.02979
11.5112 -10.2753 -1.07535
-30.02 -18.6361 -2.44226
12.635 -10.6193 -1.14272
15.6778 -12.3442 -1.38669
-12.5883 -31.8099 -2.32868
-12.1644 -32.1818 -2.35916
10.4729 -9.89546 -1.02686
19.999 -14.4532 -1.63794
-21.2041 18.566 -1.8702
-18.8869 -43.5717 -3.13974
-13.1984 -38.9249 -2.70716
13.6456 -11.2253 -1.18116
-11.677 -32.3976 -2.23862
16.28 -12.2924 -1.32557
-24.1751 -48.9479 -3.42653
-11.452 -35.4989 -2.31846
-29.3619 20.7428 -2.19958
-24.6317 -48.7112 -3.32019
-13.694 -33.3583 -2.19842
34.7567 -23.044 -2.53804
47.0172 -12.2613 -2.9525
40.1383 -9.67735 -2.50417
-12.1227 -32.5486 -2.09856
-12.877 -17.6602 -1.28437
-24.357 19.7685 -1.7783
-26.7229 -13.1562 -1.71947
-29.7115 -57.4134 -3.67532
-12.6867 -33.052 -1.97419
18.1146 -13.5168 -1.26626
-24.9899 -15.0379 -1.56825
47.6214 -10.6078 -2.51225
-8.84335 -11.816 -0.749093
-12.3287 -32.8114 -1.74492
6.38246 -13.9302 -0.759708
-13.0322 16.5215 -1.0265
-11.4727 -36.0628 -1.85782
15.4743 8.11869 -0.845978
-31.0899 21.0763 -1.80401
-13.0964 -33.5714 -1.7113
-10.998 -35.771 -1.76494
20.1586 -14.3029 -1.1849
-13.1071 -38.0153 -1.87428
40.5034 -9.9479 -1.95706
-26.6019 -13.6025 -1.33487
-18.62 -42.6667 -2.0616
-13.3642 -32.8828 -1.5784
10.1683 -9.59551 -0.623645
13.347 -10.9551 -0.775353
49.6991 -11.3719 -2.27058
-10.9885 -33.428 -1.49634
-29.3036 20.7159 -1.49439
-45.9588 24.9608 -2.08504
-30.1979 20.7825 -1.34503
-14.5616 -38.0812 -1.52746
-31.1404 -19.6095 -1.31227
10.2574 -9.54615 -0.515659
7.13908 -11.707 -0.475581
-10.4104 -31.0355 -1.0814
8.21972 -14.4284 -0.566517
20.038 -14.1927 -0.829984
-20.297 -44.4555 -1.60464
-10.7779 -30.5789 -1.04827
23.3551 26.9376 -1.15351
-21.035 18.6751 -0.886494
-17.7545 -44.4826 -1.52843
-34.528 -65.8557 -2.29912
-15.959 -40.8691 -1.35667
22.8061 -15.5526 -0.839837
-25.5495 -13.148 -0.868863
-10.1293 -32.4185 -1.00721
-21.914 18.6209 -0.826596
-18.1873 -41.8569 -1.29362
-13.5869 -36.7729 -1.12734
24.1421 -10.8643 -0.80056
-31.09 -18.9431 -1.00366
-9.20883 -12.082 -0.433182
-17.5902 -41.4841 -1.26739
19.4227 -14.4698 -0.617234
38.7607 64.6924 -1.97209
-26.9969 20.599 -0.873527
-28.0193 20.4947 -0.858991
-25.2537 -12.134 -0.684489
10.0654 -9.47218 -0.335257
-17.9481 -28.9094 -0.789875
-28.084 -47.1616 -1.26904
-36.357 12.6119 -0.84079
23.0136 -15.3989 -0.58887
-46.6033 16.8088 -0.913404
19.8611 -14.3191 -0.460279
13.5858 -11.1613 -0.293828
-6.56471 14.2107 -0.275136
-30.5221 9.65294 -0.528856
-26.1853 -12.4693 -0.456792
-33.3322 -18.9824 -0.578907
-14.4238 -35.3601 -0.586038
-7.11528 14.965 -0.226385
-29.1695 -21.7904 -0.500927
-12.635 -35.9561 -0.517529
-30.4495 -20.7576 -0.467767
-25.5278 -51.5807 -0.704926
18.5857 -13.8669 -0.282357
19.6148 -14.1228 -0.307533
32.1381 -19.8176 -0.505125
-16.1801 -41.4417 -0.533503
-27.1514 20.7012 -0.365158
-33.742 -18.8613 -0.422918
-21.1893 -45.2169 -0.524519
-15.041 -34.4995 -0.397763
-45.7104 25.0516 -0.433789
-26.1533 -46.1368 -0.480967
-15.3056 -40.1441 -0.401897
41.3751 -9.99589 -0.394604
-13.1219 16.6559 -0.150619
-24.7696 -55.1603 -0.404269
-14.3539 -34.8165 -0.250953
-21.5927 -41.6165 -0.229209
20.0676 -14.2329 -0.123061
-27.3114 -8.49272 -0.163557
10.0748 -9.48026 -0.0441976
13.781 15.7723 -0.0478508
15.3713 8.0922 -0.0332963
-27.2049 -12.1363 -0.0512939
-25.8654 -18.9224 0.00989178
-10.7942 -15.7167 0.0253385
-27.0015 -8.16965 0.0755391
-11.769 -17.7146 0.0430719
-15.0783 -34.613 0.162279
9.93372 -9.45787 0.0612403
-29.3439 20.7675 0.185422
-16.4743 -41.5907 0.224756
-27.841 -12.9213 0.187211
18.0216 -13.1494 0.123223
-11.9487 -18.3207 0.145601
15.6674 -12.2046 0.154794
-46.5634 16.6835 0.438113
7.74117 -13.3015 0.127913
17.0715 -12.6503 0.178849
-32.7499 -19.8178 0.40609
42.1312 -8.65951 0.443954
-31.7475 -19.8952 0.431271
-10.345 -28.5748 0.360366
-10.771 -28.9679 0.380244
-9.29511 -26.7682 0.350139
-8.02284 -24.8248 0.320705
34.1661 69.1846 0.99126
10.0873 -9.48809 0.177589
-11.6707 -18.085 0.296122
-8.93251 -27.117 0.396728
8.99556 -8.93651 0.190749
6.99715 -14.3152 0.230342
7.70069 -11.8666 0.214451
9.83469 -9.53414 0.196367
8.47173 -9.61277 0.203448
10.2281 -9.47066 0.228084
41.5092 -8.89326 0.692612
-21.8008 18.696 0.512388
-29.9378 -20.1419 0.625433
-30.8111 -22.6056 0.674356
13.6822 -11.24 0.28852
14.0209 -11.3091 0.335879
-9.34535 -11.8492 0.286617
7.38689 -12.1067 0.274856
8.44398 -9.92405 0.25466
34.851 71.7203 1.58498
7.51793 -11.8171 0.279913
9.6368 -9.11822 0.280252
12.1716 -10.4619 0.350014
18.1383 -8.10139 0.39777
7.75711 -11.7696 0.317295
-8.91122 -11.5037 0.369852
-11.6882 -17.9431 0.514954
8.08306 -9.84098 0.288483
8.27926 -9.90124 0.298005
-23.3006 19.5844 0.788322
-26.9698 -8.64857 0.71309
10.1125 -9.40917 0.353627
18.7548 -13.7009 0.583566
19.6925 -14.1798 0.601501
-21.0215 18.4054 0.725631
-25.1306 19.8618 0.834
-26.9971 -8.1025 0.740203
-30.2375 -16.1224 0.934678
-12.1878 -18.4048 0.590288
15.7037 -12.2017 0.528729
23.9894 -3.4904 0.679127
-25.3251 -18.0128 0.887082
-11.1712 -17.4197 0.602084
26.5252 -5.02486 0.782616
18.1573 28.1796 0.998967
-25.5521 -18.8237 0.943409
7.79908 -12.2169 0.43318
7.48354 -11.4924 0.415705
16.2881 26.5345 0.950519
-7.29996 -8.43525 0.342176
13.8029 -11.2943 0.542706
-6.98355 -9.07676 0.351976
-26.6921 -7.53377 0.925204
-10.9723 -16.0392 0.65396
8.31897 -9.88145 0.425541
16.9024 11.5481 0.729255
11.4315 -9.95397 0.548719
12.5584 -10.6107 0.597082
28.8406 58.0766 2.42665
-56.4155 20.5987 2.23491
-7.15498 -7.81143 0.396948
10.1393 -9.41226 0.514583
24.0624 -3.37834 0.929674
35.6159 73.6298 3.15663
-7.09057 -9.41132 0.462377
10.9848 -10.0186 0.581245
13.4703 -11.1252 0.703761
22.6641 -2.77755 0.927832
14.7988 20.0997 1.05849
-26.7586 -16.2338 1.28382
-11.5499 -18.3435 0.920697
9.17497 -9.13373 0.533092
-6.63515 -8.11289 0.451689
9.91326 -9.37763 0.568504
13.3729 15.3514 0.895416
-26.982 -7.91859 1.23815
15.855 20.6514 1.16582
16.7857 28.902 1.48439
26.5934 52.297 2.58744
6.97473 -15.5402 0.755875
11.4199 -10.0188 0.684954
19.2728 -1.71035 0.882287
23.1318 44.0452 2.32714
16.7599 29.5308 1.5873
-10.9016 2.70423 0.540072
-6.90634 -9.10328 0.552614
9.63515 -9.4437 0.636892
11.9508 -9.16875 0.703279
21.0563 -2.4129 1.01794
12.136 12.3684 0.857203
19.7652 47.5351 2.5253
8.13336 -9.63556 0.60667
8.20629 -10.0016 0.634574
10.714 -9.75799 0.715474
16.1688 27.4186 1.58944
24.1536 46.8412 2.66895
22.0433 -2.74596 1.12644
-7.10257 -8.15991 0.562574
9.86056 -9.38837 0.706781
18.4416 27.0439 1.71494
18.8551 34.1829 2.03263
13.7769 -11.3558 0.94625
11.0283 12.8924 0.904217
15.3113 20.7843 1.38278
11.6657 -10.1153 0.832633
16.1746 21.0743 1.46102
-24.0046 18.4016 1.6501
-6.69083 -7.8497 0.571901
10.7122 12.9511 0.938139
-6.93401 -8.95142 0.635825
10.4427 13.0089 0.964457
-25.3511 17.8486 1.75794
6.77744 -14.3118 0.902869
11.6723 12.6183 0.98479
-6.65168 -6.5646 0.542942
11.7665 12.5473 1.0097
-6.52868 -8.06738 0.62257
6.89356 -13.8557 0.900651
15.7783 20.9935 1.57527
15.5258 25.385 1.77116
15.6285 36.1204 2.35814
-5.98493 6.37465 0.534863
-7.86708 -7.45435 0.656798
-6.83665 -7.84287 0.64036
6.3457 -13.7987 0.914471
-7.22956 -6.65605 0.612369
7.54658 -12.0233 0.874746
7.48191 -11.307 0.843368
11.9535 -10.3182 0.972809
12.8093 -10.7155 1.03243
16.8541 7.46445 1.17117
16.0233 20.7576 1.65524
-7.00968 -6.10882 0.603957
10.8023 -9.86583 0.941696
-7.14851 -6.06442 0.615812
11.9871 12.6489 1.18434
10.539 23.7259 1.76507
-6.93643 -9.20759 0.77213
12.1731 13.2031 1.22887
-6.7826 -4.34639 0.554516
-6.48381 -7.87488 0.697154
-6.53558 -4.32494 0.540957
9.73884 -9.31082 0.935493
10.4423 -8.19263 0.932547
13.4861 16.9976 1.5656
-6.45556 -6.44858 0.634997
10.2698 -8.67225 0.980401
12.2413 18.3039 1.65244
12.2332 19.5037 1.71684
10.3514 19.7021 1.67572
9.82715 21.2383 1.75767
8.25505 24.6047 1.94942
11.6055 20.0322 1.76094
10.4481 -7.92697 1.0003
-6.7828 -6.93817 0.744781
-16.4607 -5.97023 1.37068
9.88604 -8.0145 0.995145
10.102 20.177 1.77855
-6.2294 -4.1593 0.594247
-6.5594 -7.89465 0.815366
5.0175 -5.94975 0.616433
9.84794 21.6669 1.88548
8.4843 20.7449 1.80023
5.21743 -6.01302 0.639039
13.3364 12.0343 1.45255
12.2956 12.3509 1.42416
7.1407 -9.96114 0.993162
12.7695 12.2138 1.44954
7.39505 21.71 1.87602
-6.20403 -4.28262 0.614844
-6.83722 -9.04921 0.933067
12.0606 12.6356 1.44238
10.8286 9.47309 1.22242
-4.71003 -10.7472 0.994622
5.57546 -5.98506 0.724794
6.35338 -6.27035 0.776736
9.59626 -7.47562 1.04367
-6.57509 -6.47624 0.785287
10.9028 12.9209 1.47321
9.16425 -7.63588 1.03435
11.3099 12.7496 1.48886
-7.04058 -7.47879 0.902094
8.53337 -7.59658 1.01177
10.6751 13.0482 1.51301
-6.81105 -7.45676 0.897073
-6.66108 -8.00757 0.93667
11.0777 12.8772 1.53985
11.0332 14.2322 1.62897
-6.83447 -7.99781 0.960202
11.6683 11.2709 1.48949
-6.16629 -4.1317 0.68302
-6.5782 -8.23911 0.966626
-6.17659 -4.28881 0.693692
11.4499 8.83641 1.35456
11.01 9.65205 1.36258
6.95214 16.5151 1.68399
11.509 11.4424 1.51209
10.9425 11.7722 1.5183
-10.9459 2.80514 1.06676
6.38127 -6.18181 0.844488
8.31399 -6.89214 1.03465
11.1117 9.51541 1.41759
9.96995 13.1185 1.59312
10.1579 13.036 1.62588
8.02142 12.8287 1.50102
8.31902 13.9071 1.61119
11.5876 8.32117 1.4513
7.49552 13.3383 1.54239
9.43419 11.8231 1.53684
7.38705 14.3014 1.6458
6.2384 14.8239 1.65
9.54442 10.8812 1.49369
9.44612 12.8689 1.65653
11.7506 7.9017 1.47459
9.58323 10.3641 1.46738
5.16397 -6.04249 0.850502
-6.67449 -4.53936 0.852221
5.93529 14.7876 1.69042
-6.88431 -4.39494 0.871764
9.27219 11.1101 1.55159
-6.54488 -6.55433 0.992315
6.12041 -6.04067 0.926218
9.99595 8.80098 1.43319
9.25895 9.67089 1.43777
9.60128 10.7033 1.55674
5.11543 14.8262 1.69229
4.50895 -8.57316 1.04524
6.72853 11.2568 1.44155
-6.64637 -3.83524 0.845216
6.64699 12.4634 1.56584
-6.73879 -3.77525 0.856278
9.98366 7.40787 1.38785
6.95961 11.8779 1.53167
10.079 7.22656 1.39088
5.69596 12.1428 1.51545
5.72063 12.7205 1.57437
4.96781 12.9288 1.56651
10.1024 6.86642 1.38974
-6.72123 -4.45049 0.924039
7.67377 -6.45406 1.14021
-7.20331 -0.771565 0.830421
-6.10374 -5.24348 0.927861
5.43408 -5.76374 0.911305
9.13313 8.11959 1.42154
4.65071 -7.55987 1.02461
10.6811 5.28794 1.3933
9.21797 8.01919 1.43402
5.3866 -5.81201 0.933385
8.85045 8.14679 1.4252
9.19163 9.35115 1.53195
-6.84793 -5.49074 1.03982
10.3904 4.86541 1.36454
-6.76216 -3.76447 0.933167
9.37027 6.29915 1.36713
5.46211 11.9731 1.59445
-6.75145 -3.00231 0.898196
-6.73317 -3.18309 0.901105
5.07226 -6.18523 0.973294
6.19807 -6.35848 1.07821
9.60389 5.76063 1.38211
8.68874 7.41799 1.41041
-6.78404 -4.2072 0.984188
-6.71253 -4.42328 0.991687
8.51277 8.84953 1.52143
5.27433 11.862 1.61121
-6.3665 -5.46013 1.04511
3.94236 -8.04823 1.11242
8.74393 7.96209 1.47766
6.28448 -5.80781 1.07007
9.39649 6.21304 1.42529
-5.96779 -5.26591 1.00554
8.76593 6.78145 1.41122
8.30786 7.71359 1.44008
-6.97075 -1.74998 0.919348
-6.87951 -2.26173 0.925103
-6.27222 -5.17572 1.03876
9.03809 5.7945 1.37413
8.39135 8.27872 1.5173
-7.13383 -1.23063 0.928234
-6.73701 -4.02271 1.01527
7.59973 6.36189 1.28163
8.28718 7.22301 1.42344
8.20039 8.3614 1.51568
-6.77179 -2.76933 0.952898
-6.77099 -2.90554 0.95302
4.74176 10.5009 1.51348
9.191 4.19933 1.32779
-7.11471 -1.57645 0.957744
7.02473 -4.37416 1.09725
5.11619 -6.16929 1.05948
-7.2021 -1.09695 0.97511
-6.88135 -2.15745 0.964933
-6.91642 -2.22497 0.970925
-5.8536 -4.29441 0.971181
5.40549 -6.83823 1.15839
7.09538 -4.28756 1.11352
8.2845 7.35769 1.49906
-7.01996 -1.68643 0.970727
-6.95061 -1.91902 0.970002
8.98854 4.96251 1.3923
8.52519 6.00944 1.41603
-6.76917 -3.53945 1.04159
9.05599 4.25033 1.3699
3.51875 11.0602 1.58913
-7.1815 -1.17816 0.9962
-5.8677 -4.3361 1.00444
-5.8466 -4.43102 1.00534
7.33385 -4.03617 1.14802
8.26759 6.64317 1.46478
5.53422 9.35395 1.50385
-6.23271 -4.22012 1.03284
5.10673 -5.71971 1.06213
7.37016 -3.92798 1.15977
7.75317 -3.78042 1.19097
3.7842 10.499 1.55387
3.60416 10.8456 1.59349
-7.23717 -1.06249 1.02117
-6.94115 -1.96602 1.00557
5.13861 -5.46374 1.04556
7.43131 -3.83252 1.17213
7.54986 -3.76514 1.19403
8.06966 -3.44032 1.24456
-7.02117 -1.83948 1.03244
-6.8641 -2.88509 1.07958
-5.86692 -4.27065 1.04471
8.09232 -2.84789 1.25268
8.4048 4.71744 1.41
5.14946 8.82156 1.49605
8.54567 4.602 1.43235
8.00575 -2.3929 1.22928
7.29831 5.80987 1.39504
3.09548 9.88193 1.54862
-6.96037 -1.98127 1.08491
7.6637 -3.18416 1.24855
8.39992 4.64238 1.45268
5.93549 7.63349 1.46689
5.43271 7.83763 1.4519
5.27219 8.16838 1.47558
5.22717 8.28468 1.48147
7.50979 -3.24559 1.247
7.85884 -2.82028 1.26897
-6.63721 -1.65299 1.03044
8.00688 -2.30708 1.27533
7.38645 5.53982 1.41586
-6.97044 -1.91561 1.12209
-6.78133 -2.7299 1.13677
6.95521 5.64154 1.4029
-7.22349 -1.07586 1.14077
-7.01143 -1.78999 1.13359
-6.91379 -2.02834 1.1293
-6.98833 -1.83738 1.13423
-6.75495 -2.87443 1.15308
4.93776 7.6563 1.4478
3.60196 -6.30162 1.15493
-7.1446 -1.27576 1.16278
3.67529 -5.94369 1.12189
3.70944 -5.83854 1.10967
7.21676 4.86465 1.41631
4.78625 7.57533 1.45733
-6.93836 -1.98529 1.17652
-6.96069 -1.91037 1.18479
7.10995 4.92686 1.42871
3.93839 8.182 1.50288
6.19226 -3.39515 1.17378
6.76754 4.97168 1.39832
4.78365 7.35244 1.46215
3.97525 -5.49083 1.13574
7.24912 4.51417 1.43599
7.6155 2.91213 1.37581
6.45178 5.39348 1.42354
-7.1486 -1.23298 1.23549
6.88129 4.16048 1.37909
-6.32612 -2.71817 1.17547
5.6404 -3.71547 1.15753
5.82379 -3.60037 1.17286
2.85211 8.12909 1.48957
-7.24123 -1.02078 1.26793
5.46334 -3.87478 1.16478
-6.19756 -2.21887 1.14194
-6.15678 -2.37237 1.15582
4.40879 -4.80272 1.13685
4.62105 -4.60286 1.14102
4.72015 -4.57263 1.14986
-6.68034 -1.7016 1.21468
4.4346 6.6532 1.42532
-7.03591 -0.912005 1.26828
-6.03509 -2.21745 1.14574
6.76021 3.75917 1.38469
6.21214 4.44207 1.38347
3.74151 -5.52143 1.20909
5.25457 5.80328 1.43057
2.59526 7.42768 1.47821
6.59529 3.10414 1.37628
-1.63066 -5.53095 1.09498
6.54122 -1.41035 1.26722
6.37507 2.82312 1.34041
6.31623 2.41908 1.34745
-4.39617 3.88983 1.378
4.38331 3.58193 1.35246
4.26422 3.33375 1.33846
4.73528 -1.70254 1.26098
4.88814 -1.40042 1.26955
-2.11739 4.74103 1.29394
3.79834 -3.00861 1.24259
3.73483 -2.59149 1.21067
3.47099 -3.01652 1.24561
4.04573 2.59601 1.3417
-2.53882 -3.45899 1.22612
-2.27444 -3.49237 1.19156
3.78884 2.07642 1.31182
3.76481 1.99781 1.31107
-2.82055 3.4577 1.37431
-2.25988 -2.38112 1.16998
1.98968 -2.82626 1.22952
-2.11448 2.75451 1.31718
-2.02063 2.74358 1.32379
2.27841 -1.89104 1.23681
2.40565 -1.51311 1.23221
-2.00865 1.86999 1.2902
-2.04085 -1.42651 1.21553
1.46699 -2.09072 1.25557
-1.97253 -1.07679 1.20329
-1.90854 -0.701428 1.21036
-1.91034 -0.697288 1.23581
-1.94152 -0.341561 1.22041
-1.8778 -0.559944 1.22077
-1.87763 -0.526475 1.22594
8.49987 -8.98913 -7.70881
12.668 -10.7429 -9.18373
-8.25902 14.7323 -6.54518
22.1894 27.0348 -12.5828
-8.60073 -2.46298 -2.52221
-20.7687 -52.6819 -12.3932
-31.0071 -20.7127 -6.88867
-30.7218 -20.091 -5.41566
-30.4355 -20.6833 -5.46424
-28.3987 -18.2131 -2.53506
-28.5268 -55.0834 -4.01931
9.77083 -9.30665 -0.412896
-6.96059 15.0043 -0.408827
-27.3647 -10.589 0.67878
-6.6438 -7.94045 0.443408
18.4239 26.457 1.74685
12.1254 17.0532 1.72785
-6.48167 -6.45591 0.856739
4.48625 13.0186 1.58649
9.0243 9.4002 1.52206
8.19334 -8.99762 -10.6518
8.37151 -8.27372 -10.1864
9.08612 -8.77753 -10.7857
7.14311 -12.2339 -11.7957
7.05802 -11.6361 -11.1656
8.38478 -8.49268 -9.79129
7.20121 -12.3126 -11.5894
7.2637 -11.2617 -10.7267
8.23656 -8.6154 -9.46036
8.33935 -8.34447 -9.31968
6.91681 -11.5819 -10.5549
6.62456 -11.9994 -10.4722
7.98896 -9.10577 -9.22608
6.3686 -14.6541 -12.0821
8.55725 -8.96443 -9.37203
6.4745 -12.2144 -10.4315
6.31018 -12.3812 -10.3536
7.72986 -9.73575 -9.27232
8.14736 -9.31892 -9.18142
10.8597 -9.79796 -10.8685
6.26271 -14.4037 -11.6011
6.22789 -13.9143 -11.2011
6.29544 -12.8843 -10.5384
9.50834 -9.11866 -9.65545
9.5998 -9.37377 -9.77698
6.02369 -12.8137 -10.2768
9.67861 -9.28818 -9.56482
7.08707 -11.4739 -9.56123
5.76349 -13.2771 -10.2359
10.0442 -9.40533 -9.74276
7.85172 -9.63215 -8.72846
10.3646 -9.51837 -9.87712
11.321 -9.8381 -10.5154
9.77434 -9.38827 -9.38614
11.8996 -10.082 -10.4652
8.66061 -8.88436 -8.20654
7.68317 -9.60516 -8.11835
8.44858 -9.01179 -8.15666
12.6522 -10.8381 -10.893
7.88933 -9.66308 -8.15283
-8.76897 -1.95359 -5.85792
8.1058 -9.71549 -8.10105
8.60428 -8.8201 -7.86914
0.338199 15.7288 -10.0388
7.79125 -9.6416 -7.88005
11.3472 -9.98597 -9.60201
7.49659 -11.0895 -8.46214
8.43482 -8.78252 -7.67172
4.70239 -15.641 -10.266
8.99763 -8.97707 -7.85678
9.18224 -8.9632 -7.92199
10.7232 -9.85871 -9.05792
8.19544 -9.33707 -7.65537
4.10734 -18.181 -11.4771
8.47965 -8.91764 -7.51548
4.12448 -17.3771 -10.895
0.127249 14.7334 -8.96554
6.90095 -11.6622 -8.24077
8.00974 -9.57897 -7.56837
10.5488 -9.69736 -8.68579
7.07079 -11.647 -8.17041
8.35042 -9.52777 -7.59689
11.7491 -10.1054 -9.25693
5.56352 -14.2339 -9.05571
8.01176 -9.58941 -7.40255
9.7006 -9.36545 -7.98221
7.16313 -11.5196 -8.01923
8.27058 -9.44877 -7.36042
10.1386 -9.54588 -8.10758
15.3724 7.6833 -9.98826
8.99746 -9.16212 -7.4124
7.19334 -11.3612 -7.71927
2.70872 -11.4462 -6.75874
8.14779 -9.39663 -7.11542
7.6738 -9.12904 -6.76366
9.99158 -9.50312 -7.82508
11.2342 -9.87852 -8.43146
0.112333 15.1808 -8.56358
3.26372 -20.3364 -11.584
7.04901 -11.3664 -7.48959
10.5193 -9.66639 -7.99279
12.934 -10.849 -9.45818
9.598 -9.35082 -7.48031
4.75881 -14.6844 -8.59789
8.31587 -9.56897 -7.03293
6.27714 -12.7344 -7.80737
15.2953 7.82162 -9.43869
10.089 -9.47006 -7.59194
0.811665 17.3632 -9.49452
2.7169 -19.4971 -10.7366
11.6068 -10.0534 -8.32966
4.38854 -14.8945 -8.39622
15.2015 7.95172 -9.24795
15.667 10.8205 -10.2326
14.501 8.0019 -8.85694
11.4267 -10.0317 -8.07823
13.9344 -11.3436 -9.54939
3.01896 -19.0184 -10.1253
11.8649 -10.2613 -7.97434
2.15095 -19.9799 -10.1453
10.7196 -9.75621 -7.28118
15.0042 -11.863 -9.59542
14.5482 -11.7638 -9.35758
11.5152 -10.0968 -7.62246
7.81656 -9.714 -6.16701
3.67532 -8.71473 -4.65496
-8.50584 -1.86739 -4.28326
2.18619 -19.5992 -9.67693
4.66447 -9.5514 -5.19275
0.386091 13.5809 -6.65279
7.91721 -9.64046 -6.08002
-8.06283 15.3677 -8.3955
-8.98058 -2.37401 -4.47764
10.5925 -9.68489 -6.94109
15.8414 -12.2301 -9.6091
20.2306 5.78921 -10.0688
-10.0439 -2.48668 -4.8958
1.89338 -20.1121 -9.60854
18.1189 17.0346 -11.7921
1.98371 -16.6182 -7.89593
7.93093 -11.7135 -6.66604
20.9438 5.6538 -10.2216
14.7549 -11.6776 -8.74288
2.99923 -17.6192 -8.30556
20.2176 5.98261 -9.74612
18.9791 -13.8277 -10.838
10.111 -2.55379 -4.81784
21.2204 5.3792 -10.1056
18.2633 17.1818 -11.5681
1.78233 -19.6408 -9.03001
10.0736 -9.41564 -6.30778
-8.99813 -1.63307 -4.17217
9.69863 -3.55849 -4.70382
7.03997 -11.8546 -6.26199
10.1628 -2.68422 -4.76711
21.079 20.3931 -13.233
20.1063 6.13169 -9.46922
18.7508 18.6071 -11.8899
2.34276 -19.2638 -8.72207
9.60456 -3.1637 -4.55068
16.3555 -12.583 -9.25225
7.38478 -12.1201 -6.33902
7.47739 -11.4031 -6.06984
9.80894 -3.49344 -4.63887
-9.48972 15.5384 -8.09726
18.7909 -13.7108 -10.328
20.4129 5.88109 -9.42123
16.7301 7.58966 -8.14167
18.8798 19.0785 -11.8853
12.843 -10.8342 -7.38214
17.4178 -12.9508 -9.55826
-10.5626 16.051 -8.43535
-6.23772 14.234 -6.80499
-5.13824 4.81884 -3.06781
21.0648 5.72009 -9.49502
9.80834 -3.4939 -4.49236
19.3384 19.6093 -11.8521
16.7714 -12.9033 -9.09766
15.3993 7.70105 -7.35458
3.9926 -9.65493 -4.43201
-10.5158 15.9817 -8.08968
7.2758 -11.4158 -5.70009
-13.1424 3.22099 -5.69995
0.73365 -21.341 -9.00571
16.707 -12.6458 -8.75562
-5.05714 5.56765 -3.14493
0.976076 -21.1861 -8.89772
1.22443 -20.2403 -8.49806
14.6636 7.8662 -6.96641
19.7471 20.5883 -11.9349
3.92966 -9.28354 -4.19742
15.3079 8.01217 -7.19852
19.0368 20.3415 -11.5768
-9.29272 -1.0663 -3.86229
4.14151 -8.77047 -3.96849
14.5268 8.02298 -6.819
7.17956 -11.5144 -5.53948
-13.189 2.46389 -5.48802
-7.533 14.5789 -6.6596
20.6172 22.4129 -12.3542
15.6316 7.51221 -6.99393
10.0361 -8.95974 -5.43923
-5.03411 13.7212 -5.8522
19.3092 21.6109 -11.3699
14.7427 -11.6534 -7.35381
4.14565 -9.55456 -4.08029
1.53232 19.5128 -7.60925
-8.25137 14.8899 -6.60651
19.8298 6.0482 -8.03814
-1.70713 12.8319 -5.00946
5.5348 -9.8073 -4.33597
-2.31174 13.0142 -5.07196
21.0853 24.4032 -12.3839
3.48274 24.5837 -9.45862
4.8485 -8.84793 -3.8257
20.2971 5.82345 -8.04046
0.825565 -24.1557 -9.19854
15.7932 -12.1683 -7.49648
20.9014 5.66331 -8.11009
9.69291 -3.53129 -3.85608
0.50964 -20.6965 -7.72824
3.41743 -11.3207 -4.40964
21.7875 25.3602 -12.4341
0.905549 -8.56965 -3.19857
14.8193 -11.7337 -6.96376
21.3485 5.43037 -8.10444
6.68986 -10.6229 -4.58828
19.0054 18.786 -9.77908
-12.641 2.21481 -4.66539
22.5969 26.9979 -12.7879
2.36555 -13.6183 -4.97464
13.7394 -11.1087 -6.35204
0.780338 15.4632 -5.54397
-8.01561 -2.73525 -3.03108
0.400388 -20.1439 -7.21326
-4.01299 13.1395 -4.8793
0.619449 -20.4754 -7.28865
16.8535 -12.727 -7.4789
-14.6369 16.9168 -7.87512
6.20862 -11.8569 -4.69912
4.88513 -11.8342 -4.54303
-10.3329 15.5855 -6.5229
0.1059 -17.2015 -6.0568
15.0795 -11.9481 -6.72138
21.2992 5.61008 -7.69301
0.632811 -21.329 -7.37916
-9.22244 -1.18323 -3.17808
-4.74262 13.7427 -4.97312
3.80374 -8.81522 -3.29876
5.09752 -9.43157 -3.6678
-13.506 16.7629 -7.36002
2.34337 -11.1488 -3.90027
-8.34089 15.1203 -5.87798
3.20721 -14.4414 -5.0347
-13.9452 17.1103 -7.47473
21.1092 5.7399 -7.3579
24.2386 29.997 -12.9101
40.4369 -22.8241 -15.5074
-5.01381 13.2796 -4.70647
1.92938 21.1497 -7.0551
1.27822 -10.2259 -3.40758
20.5813 -14.9592 -8.44303
36.2346 -22.7765 -14.0648
-4.96805 13.6575 -4.71274
-11.7548 16.0869 -6.45551
19.9183 -14.1927 -7.93581
3.70003 -8.99514 -3.11361
6.53885 -10.6228 -3.99128
12.9888 -10.585 -5.37779
2.37027 -11.212 -3.64399
-3.86581 -29.1938 -9.37812
-0.994221 -21.2407 -6.78265
15.6736 10.7961 -6.01397
1.98599 19.986 -6.38235
-12.3232 16.3928 -6.47465
-16.6219 17.9249 -7.67654
3.20775 -10.3226 -3.40134
14.0078 -11.0448 -5.60806
7.37156 -11.7399 -4.27858
1.31843 -20.4512 -6.34732
-2.22337 -23.8794 -7.3773
7.637 35.4178 -11.0745
0.753782 15.0137 -4.56954
-10.3941 15.6772 -5.6619
-2.31809 -22.9224 -6.95474
-13.3413 16.6767 -6.36506
-4.51538 -29.7428 -8.9735
0.774757 -22.4113 -6.71744
-5.06434 13.9091 -4.39538
2.09757 21.0884 -6.25163
-19.5917 18.2652 -7.89526
18.999 6.04652 -5.87368
-4.05736 13.5976 -4.16522
-7.43574 14.4163 -4.75182
3.56757 -10.4668 -3.22883
4.48808 -9.63079 -3.11661
4.92214 -12.3108 -3.86916
21.1116 -15.0885 -7.64327
-12.2471 2.15779 -3.57396
-27.5178 -38.9852 -13.7421
5.48092 -14.6012 -4.48134
-14.1164 16.9781 -6.34041
7.4043 -11.7869 -4.00014
2.68017 -9.94144 -2.92051
13.6448 -11.0427 -4.991
-8.26086 -2.40399 -2.44087
23.0748 29.7739 -10.6908
-8.38606 -2.21008 -2.45186
-2.15447 -22.1324 -6.2575
-12.6332 1.93613 -3.55906
53.6174 -17.2457 -15.6673
4.68861 -12.0857 -3.59005
-8.69901 14.9537 -4.74268
-12.1543 16.2062 -5.55745
-5.05856 13.4843 -3.92924
-6.93737 -33.7702 -9.45095
10.2198 -9.31399 -3.75915
-19.727 18.407 -7.24671
-9.08841 15.0648 -4.70843
33.8462 -17.5559 -10.2634
-24.3853 18.731 -8.17375
47.9704 -15.7764 -13.3859
11.9043 11.9842 -4.46488
4.63779 -12.0875 -3.42183
53.3843 -15.5187 -14.7249
-6.60602 -31.2287 -8.40882
2.59674 -9.50193 -2.56368
4.34296 -9.18696 -2.66939
11.769 -10.4666 -4.11614
-13.3984 16.7731 -5.57571
6.90844 -11.0098 -3.35867
-25.1611 -34.3806 -11.0221
3.37162 -10.2099 -2.77336
-25.2253 -36.9486 -11.562
-3.60255 -23.696 -6.21886
3.78138 -11.0535 -3.00515
4.32492 -9.96808 -2.78645
16.6287 -12.5029 -5.30392
-6.66388 14.1887 -3.96078
-26.6743 -35.576 -11.2838
4.62268 -11.9292 -3.23042
4.49608 -8.13807 -2.361
6.95924 -11.3465 -3.31338
50.5226 -15.2751 -13.1571
-25.6769 19.3713 -7.94572
-10.727 15.756 -4.69296
-23.5191 -34.3142 -10.2366
-8.03302 -31.6558 -8.07241
-22.3752 18.7922 -7.17455
4.63777 -11.001 -2.92671
-7.46824 -32.29 -8.14251
-11.2179 16.0644 -4.74486
-7.3299 14.2744 -3.86162
10.7919 -9.73307 -3.47639
44.9311 -14.9247 -11.327
15.7011 7.85328 -4.18474
-5.10224 -29.2926 -7.09981
4.20615 -9.62746 -2.48393
53.161 -14.2281 -13.0597
-24.2686 -36.2527 -10.3472
-9.6354 -35.5126 -8.73374
4.50945 -9.64452 -2.53306
-22.5943 -32.784 -9.34202
4.22548 -12.1039 -3.01209
5.20005 -9.20594 -2.48219
-11.8655 16.1669 -4.66149
3.45023 -10.1688 -2.46363
44.7987 -10.6327 -10.6809
-6.17123 -29.1461 -6.91005
11.588 -10.154 -3.51818
-5.15389 -26.1888 -6.10408
-24.7327 19.1012 -7.0783
-9.24902 -33.3136 -7.83052
46.1362 -10.0898 -10.7173
-27.5691 20.0155 -7.63256
-31.8137 -20.8483 -8.52387
-4.65955 -22.232 -5.0759
45.4186 -14.0403 -10.6721
5.79115 -10.0542 -2.58543
-12.0462 2.74894 -2.71108
45.234 -13.256 -10.4132
47.6458 -13.5947 -10.8995
32.1066 45.229 -12.1747
-5.00418 13.1185 -3.06376
14.2038 -11.4293 -4.00945
42.1618 -13.5492 -9.73407
-21.3893 18.6411 -6.14915
-21.4139 -52.8082 -12.3819
4.62422 -10.3999 -2.46197
13.4929 -11.1248 -3.82874
4.85 -9.80405 -2.35699
-13.4827 16.7962 -4.5946
-27.8936 20.2608 -7.35595
-28.6253 20.3142 -7.49769
-20.0148 -53.1162 -12.185
-19.2819 -52.8219 -12.0333
-9.91874 15.4958 -3.89598
-6.86741 -29.1869 -6.38984
3.45202 -10.4628 -2.3424
4.28713 -10.6155 -2.43416
51.502 -11.941 -11.2854
15.5247 7.77699 -3.6863
-13.9938 17.2243 -4.69355
5.48583 -9.61567 -2.3211
30.7995 44.58 -11.3474
45.1339 -14.9589 -9.91399
-35.5501 23.3528 -8.91055
-24.7493 -24.2207 -7.19301
15.581 8.15513 -3.65647
-27.2212 -21.0231 -7.1365
-22.6445 -58.0741 -12.9231
45.0158 -12.1144 -9.6404
-10.6141 15.6366 -3.83558
-14.426 17.0548 -4.54284
-31.407 21.0828 -7.68089
49.7447 -10.8506 -10.3831
-10.4974 -33.7905 -7.20507
4.45693 -10.4819 -2.31122
4.61326 -10.501 -2.33138
12.2409 -10.1754 -3.23588
-11.1149 15.9484 -3.87579
-15.0414 -43.1834 -9.15352
-6.99209 -27.0744 -5.60685
-6.43315 -26.3022 -5.43986
-10.5108 -32.6679 -6.80592
4.393 -10.6999 -2.28394
-30.6654 -20.9686 -7.32404
-24.3148 19.0827 -6.07869
-42.9379 26.9326 -9.91647
-29.799 -21.3156 -7.14275
-6.38176 14.0951 -2.99793
-20.0875 -47.2091 -9.97782
-30.2591 -20.1443 -7.00563
3.72622 -10.1435 -2.08031
51.6187 -11.96 -10.1749
-11.7922 16.0988 -3.81043
4.3048 -10.0782 -2.08561
-32.7582 -19.8981 -7.2555
-18.329 -29.7768 -6.65538
-12.3401 -35.6158 -7.14381
42.0213 -13.8619 -8.36374
-32.0114 21.5 -7.21144
-30.3047 -20.929 -6.91923
-29.3487 -21.4726 -6.82706
-16.6029 -41.1407 -8.35891
-13.4218 -36.4671 -7.21888
4.0981 -9.86758 -1.96851
47.6227 -12.8354 -9.15878
6.1434 -10.3609 -2.20318
-18.9985 -43.0847 -8.63126
-16.104 -39.9814 -7.80603
-13.4227 16.7311 -3.7994
-27.903 -22.5044 -6.37283
-18.1108 -24.1343 -5.3991
-19.4065 -50.7193 -9.64977
-34.8522 21.9922 -7.26609
-24.3043 19.0835 -5.37443
-22.6333 -19.6854 -5.23577
-30.499 20.8703 -6.41208
4.25161 -10.9201 -2.02612
5.08244 -9.17117 -1.81828
14.527 7.80207 -2.84886
14.622 8.39143 -2.89245
-27.7747 20.197 -5.88311
14.5883 -11.7095 -3.17934
47.2815 -13.3772 -8.36546
46.9408 -12.1575 -8.25481
49.5703 -11.505 -8.71637
-28.0612 -22.2858 -6.07943
-16.2856 -26.6517 -5.32014
-19.2697 18.3517 -4.46485
-15.9648 -39.6886 -7.23755
15.4367 7.73764 -2.90078
-28.5424 20.2059 -5.83746
7.10923 -11.8367 -2.31712
17.2725 -12.8619 -3.54761
-18.1684 -43.3245 -7.7719
43.2925 -13.6513 -7.39818
48.9023 -13.1742 -8.23219
-9.57395 15.1977 -2.89488
-25.114 -18.8236 -5.03764
-16.1324 -40.0277 -6.89151
-31.269 -21.585 -5.98702
-20.8218 18.2936 -4.33684
-23.2142 -14.5534 -4.32703
-22.0276 18.804 -4.48543
-35.5236 21.5082 -6.43085
-10.3722 15.5228 -2.87873
3.80527 -10.436 -1.71232
4.24951 -11.23 -1.85328
-7.00695 14.2098 -2.41587
-27.9479 20.3412 -5.28032
-28.5215 -22.029 -5.48008
-25.0353 -23.4178 -5.19397
-17.193 -39.9667 -6.63409
47.197 -12.27 -7.41313
50.3768 -10.9756 -7.85625
-6.02889 13.4253 -2.19804
-25.1184 -22.3412 -4.99876
10.1651 -5.32819 -1.70349
-30.0542 -21.6765 -5.51801
-19.4832 -49.2748 -7.86709
9.76238 -9.36853 -2.01174
10.7367 -9.65342 -2.14999
50.6048 -11.7071 -7.71485
-32.7587 -21.8069 -5.79104
-28.1803 -23.2441 -5.34369
-10.0121 -33.186 -5.10882
18.1177 -13.1079 -3.27358
-23.083 19.005 -4.34219
-35.9229 22.1547 -6.15359
-19.1822 -42.985 -6.78931
-7.02042 14.0591 -2.24348
-11.7344 15.9987 -2.82593
6.57226 -12.5535 -2.02009
7.46982 -11.5957 -1.9636
-12.3483 16.5042 -2.89251
-30.9978 20.9399 -5.2557
-25.851 -23.9379 -4.96416
7.28674 -11.9012 -1.94666
41.7265 -13.7708 -6.18008
-27.952 -22.3978 -4.99874
-29.5182 21.2134 -5.03222
-26.3119 -22.2696 -4.79856
-16.2137 -39.0827 -5.85026
50.7773 -11.3598 -7.17637
-14.7751 2.76575 -2.06903
-6.30043 13.931 -2.08568
-16.9719 -44.3004 -6.45187
8.19781 -9.9202 -1.725
9.68135 -9.53082 -1.87226
-12.9042 16.4764 -2.81863
14.0291 -11.1895 -2.42649
-20.2908 18.4571 -3.68581
47.1089 -12.1803 -6.46093
50.4141 -11.043 -6.83272
-7.32134 14.2612 -2.06609
-20.6727 18.1922 -3.5985
-29.3304 -21.9472 -4.78416
-13.7099 16.7883 -2.80015
-30.4974 20.3555 -4.75731
-34.7569 -14.6755 -4.86969
-29.1872 -15.6294 -4.2547
7.51519 -11.176 -1.72511
9.28836 -9.54877 -1.74252
11.1408 9.12263 -1.85373
-30.394 -20.9453 -4.72275
-28.233 20.6109 -4.41895
-32.0072 -19.9725 -4.72759
-25.1855 -51.4775 -7.16121
46.9421 -12.1403 -6.06905
7.28738 -11.1168 -1.65811
-7.04005 14.0801 -1.94625
-22.7348 19.0902 -3.6328
-29.8804 21.0588 -4.5064
6.88321 -13.1983 -1.80927
50.3426 -10.7408 -6.30693
15.6073 8.17743 -2.1231
-14.4807 -35.0753 -4.58003
7.59546 -11.2879 -1.63549
-19.431 8.61188 -2.51497
-11.289 -34.1555 -4.23525
-34.889 -13.9317 -4.4287
-28.5957 -22.0466 -4.22108
-28.1013 -22.4737 -4.2098
47.0817 -12.6121 -5.72998
11.8636 -10.2167 -1.81279
-26.8936 20.3922 -3.88063
7.1572 -11.6607 -1.5635
7.91936 -9.74966 -1.4352
-18.832 -45.2665 -5.52449
12.2414 -10.2765 -1.81433
9.75204 -4.75755 -1.22931
15.5796 8.00659 -1.9787
-9.53774 15.1838 -2.02151
-28.8369 21.0714 -3.99865
-14.3951 2.05594 -1.59256
43.3538 -14.2719 -5.11914
9.857 -9.50549 -1.51394
-10.2084 15.3105 -1.99856
7.46544 -14.0527 -1.71984
50.5517 -10.987 -5.61037
11.1498 9.16331 -1.56007
17.9933 -13.366 -2.40445
47.3091 -12.2703 -5.23864
10.1303 -9.45596 -1.46729
-17.2697 8.50982 -1.98476
8.80519 -8.89463 -1.3103
-27.753 -22.2086 -3.7
-23.1158 -46.3674 -5.40684
-24.3837 -50.7081 -5.74964
15.5754 7.81177 -1.78469
-28.5454 -22.0101 -3.69698
-11.8378 16.1376 -2.03063
-11.7879 15.7934 -1.95749
10.7536 -9.57431 -1.40984
-16.0223 -40.6937 -4.29054
6.95103 -13.3112 -1.45009
9.98699 -9.42877 -1.29849
-47.1897 26.2851 -5.21378
17.8333 -13.0472 -2.12313
47.2113 -12.6866 -4.68776
-23.3602 -47.2215 -5.0093
-15.8107 -41.4951 -4.21999
-21.2545 18.5914 -2.63853
51.4669 -11.4497 -4.92711
10.2341 -9.46586 -1.2899
44.3873 -14.6424 -4.35656
-13.7967 16.9129 -1.97548
-27.4418 -12.5113 -2.74769
-24.6056 -47.9684 -4.96979
16.9616 -12.6957 -1.9266
-25.7048 -47.0926 -4.87209
9.09092 -9.1868 -1.16973
-32.7269 -18.561 -3.29374
13.6928 -11.3028 -1.54551
50.9731 -11.8148 -4.48483
9.90826 -9.51435 -1.15424
11.5714 -10.1901 -1.29556
-30.5198 20.96 -3.07948
18.0583 -13.1688 -1.85063
-13.4535 -35.0103 -3.0054
15.6684 -12.2518 -1.58559
-30.8591 -60.3059 -5.37919
-9.75195 -27.3034 -2.28996
-26.8338 20.4037 -2.60584
-29.6297 20.9436 -2.79987
-17.7243 -40.4887 -3.4124
8.05618 -9.85832 -1.01537
-44.1921 24.0518 -3.80776
-19.5293 18.3806 -1.95029
-29.7883 21.0709 -2.64325
17.5614 -13.1221 -1.60335
47.2552 -12.6458 -3.56619
-28.8112 -54.5154 -4.44775
14.8831 -11.7758 -1.35796
-25.6179 -15.8949 -2.07519
-12.4838 -33.1178 -2.44322
8.46246 -15.5744 -1.18228
11.3778 -10.1613 -1.045
-21.2669 18.6218 -1.90866
13.6725 -11.2822 -1.18647
19.3327 -14.022 -1.59196
-18.0952 -41.6933 -3.00318
17.1896 -13.0022 -1.42323
-11.7405 -32.5534 -2.23879
49.4566 -12.8628 -3.19688
-23.9748 -48.578 -3.30328
39.4254 -9.56483 -2.4923
48.3047 -11.0565 -3.04515
6.79641 -14.6915 -0.96523
34.8228 -23.0426 -2.49806
-9.03838 15.0888 -1.03377
-12.5627 -32.773 -1.99786
17.8277 -13.3237 -1.2497
-9.12707 -11.8316 -0.818723
15.5768 7.99183 -0.950742
14.8021 -11.7176 -1.0111
-11.7721 15.9538 -1.03581
-13.3285 -33.0365 -1.89074
15.4667 8.13329 -0.860613
-13.1087 -33.5093 -1.76402
-13.0141 16.496 -1.00515
10.0809 -9.50908 -0.635929
-18.4352 -42.289 -2.08446
13.2015 -10.8529 -0.792637
-12.5509 -34.9877 -1.64847
-13.8333 -34.0832 -1.5726
7.5838 -14.0048 -0.705487
-10.9288 -33.3174 -1.492
-45.2482 24.6083 -2.08556
19.7781 -14.2095 -0.988796
18.0465 -13.4142 -0.876203
-29.5305 -57.3158 -2.42614
-14.196 -37.2274 -1.46443
-30.105 20.6856 -1.33596
47.8552 -12.3309 -1.78268
-25.543 -50.8095 -1.89684
-19.8497 -43.5013 -1.60544
22.2102 25.6888 -1.13587
-19.5747 18.344 -0.874725
9.04824 -15.9706 -0.615725
9.93219 -9.48205 -0.445705
11.9656 -10.5342 -0.518792
20.0559 -14.1814 -0.807953
38.5939 -14.5566 -1.37099
24.5808 29.7563 -1.24692
-25.388 -12.7341 -0.88808
-20.8721 18.5874 -0.852419
-28.4921 20.1801 -1.08989
-18.9775 -43.6301 -1.46891
-11.1331 -31.4986 -1.02639
-9.18256 -27.6451 -0.850822
-16.3796 -41.786 -1.35468
-13.0425 -35.3487 -1.07602
-30.7836 -18.6644 -0.95544
12.1071 -10.2711 -0.426085
17.5176 -13.0296 -0.576342
-36.1963 22.3927 -1.12244
-27.2004 20.6977 -0.846137
-28.085 19.957 -0.881706
-27.7 20.3014 -0.812421
10.086 -9.49502 -0.321683
-37.3084 12.8952 -0.871791
-18.0113 -28.9626 -0.797244
-25.2057 -42.2092 -1.10139
23.1086 -15.4554 -0.612129
34.0982 -20.6766 -0.901213
14.7164 4.06724 -0.314602
-43.8322 15.803 -0.909215
34.5726 60.4233 -1.2957
25.368 -11.8104 -0.494621
53.507 -12.321 -1.02535
-27.7591 -19.9489 -0.619831
-26.2018 -25.7351 -0.578129
-15.018 -36.8526 -0.657802
13.5069 -11.1073 -0.288702
-24.0663 -11.3836 -0.406462
20.0014 -14.4532 -0.378223
-27.099 -12.0445 -0.386782
-29.451 -22.0402 -0.507762
-24.7848 -49.9639 -0.745212
-21.1547 -45.0249 -0.674902
-30.5224 -20.845 -0.478569
-27.22 20.7094 -0.403589
18.281 -13.6521 -0.27207
32.6849 -20.2666 -0.454063
-27.6715 20.3155 -0.383104
-34.1254 -19.0676 -0.435981
-15.3734 -35.2589 -0.40634
-9.76417 -29.3931 -0.307875
-26.0418 -45.8866 -0.478509
-13.1567 16.6899 -0.164692
-24.8209 -12.5139 -0.221949
-13.7917 16.8129 -0.150288
-20.5991 18.3974 -0.143534
-19.2122 18.0211 -0.121298
-27.762 -13.1523 -0.0992175
-9.91321 -12.7442 -0.0551977
15.3292 8.05311 -0.0246541
11.7515 -10.3336 -0.00948929
-31.3587 -17.1762 0.0584204
-9.2999 -27.6404 0.0998159
18.2062 -13.2276 0.0961109
-15.179 -34.8487 0.175373
20.2687 -14.2809 0.130051
7.87288 -13.5339 0.112991
28.1179 -11.536 0.184474
-48.3069 17.2496 0.489671
17.4135 -12.9054 0.205298
41.331 -8.43834 0.394138
-27.1332 -7.65066 0.331963
-32.6583 -19.7118 0.425326
-9.38825 -26.8995 0.310871
-46.6347 25.5592 0.649635
-10.4437 -28.942 0.372114
-8.50577 -26.1468 0.335154
7.0764 -14.4649 0.203924
7.79688 -12.012 0.186853
-25.4598 19.9858 0.493824
11.9776 -10.4607 0.237494
-21.9661 18.7857 0.475144
11.53 -10.295 0.241031
13.7899 -11.3524 0.279765
40.0581 -8.57281 0.677663
-31.0703 -20.8163 0.685157
-28.1181 20.1054 0.677034
6.87466 -14.364 0.306987
7.59489 -11.9525 0.271163
8.50735 -9.98299 0.254552
8.39766 -8.71853 0.287838
37.5284 77.1756 1.85256
8.19969 -10.019 0.291058
10.6842 -9.6772 0.346048
-26.8758 -8.61784 0.6823
-21.2691 18.5654 0.761596
-24.9633 19.6843 0.851117
-27.0058 -8.1087 0.745426
9.68282 -9.37282 0.362287
10.1418 -9.42615 0.375638
-23.2065 19.5594 0.822388
27.1016 -5.48275 0.766624
13.7983 -11.3196 0.529697
16.4859 26.8581 0.966719
-31.0019 21.9828 1.14096
6.91368 -14.263 0.496141
8.09008 -12.6114 0.46808
-26.6094 -7.50445 0.909444
-11.5364 -17.6637 0.698762
-26.3018 -8.22034 0.955199
16.9349 11.5912 0.737732
-27.3074 -16.9214 1.12712
17.8477 31.0057 1.27091
-27.9474 -15.2441 1.18369
24.995 -4.51347 0.914445
-25.4526 -18.1024 1.16177
-7.01868 -7.65265 0.39291
9.53245 -9.29551 0.492975
13.1161 14.348 0.74571
34.8451 71.8901 3.01495
33.5998 71.5402 2.96583
-11.0641 -8.75756 0.557892
9.18151 -9.12433 0.510064
-23.3265 19.2162 1.22433
23.0506 -3.1238 0.939231
-26.4651 -16.0749 1.27263
9.91773 -9.40392 0.558333
13.1895 15.1905 0.861708
7.26235 -13.7532 0.657538
16.0933 20.9109 1.15554
23.5316 32.5046 1.75136
-8.89887 -12.9395 0.692908
-9.26777 -14.4948 0.766855
8.16627 -11.7695 0.628769
9.08258 -9.17684 0.581352
25.7073 -3.93816 1.17085
-27.8325 -8.11067 1.3259
7.30612 -12.0111 0.644187
-7.95702 -7.83047 0.526641
26.6527 53.779 2.86431
-26.2434 -16.2193 1.46258
-9.16648 -12.8582 0.754291
10.1766 -9.44203 0.651672
20.2219 56.2013 2.88518
-27.9929 -12.399 1.46484
-6.49453 -7.91778 0.505181
17.4915 40.6782 2.25437
-27.6193 -10.8157 1.49176
-7.33848 -6.7479 0.504893
-6.45531 -7.31779 0.494756
18.5044 33.5215 1.98312
22.6973 32.2182 2.09251
11.0517 12.9232 0.915707
15.3962 20.952 1.39189
9.84477 -9.40279 0.727107
16.0222 20.8473 1.44763
16.9177 26.1297 1.70958
-25.1381 17.7004 1.68265
-6.70007 -7.87396 0.574701
-24.112 18.5016 1.68694
6.80036 -14.3573 0.884982
-6.79718 -8.75987 0.633963
10.4358 13.0352 0.978934
16.6674 28.0832 1.90356
7.18063 -14.4206 0.923325
15.2591 24.8952 1.72071
-7.94518 -7.80962 0.672675
12.0488 12.1324 1.01642
15.8788 21.1193 1.58352
-7.04579 -9.53797 0.739512
7.57574 -12.072 0.865461
11.9009 -10.265 0.950254
6.37804 -11.6916 0.823043
-6.96458 -6.43738 0.593639
15.7369 22.3248 1.72431
16.8104 7.46208 1.1908
-6.82425 -5.96224 0.595526
7.21125 -15.0003 1.10482
10.4262 23.5513 1.73476
10.912 13.1528 1.16532
14.5692 19.591 1.69935
13.5202 22.4172 1.80809
11.8671 12.5361 1.20857
7.05445 -10.5204 0.893868
12.018 12.2956 1.24123
10.2081 -7.20568 0.886665
12.9375 12.5246 1.31936
10.414 -8.79442 0.995922
-6.00331 6.50663 0.658753
10.7943 9.50486 1.07759
12.8022 19.142 1.7296
12.3638 19.6984 1.7494
-6.68957 -7.41482 0.775924
11.7422 20.2673 1.79438
10.0145 -9.42847 1.06019
11.0426 14.8236 1.44632
-6.26604 -4.19849 0.595341
9.96435 19.9639 1.78069
10.4957 -7.18193 1.01575
13.0142 12.0749 1.43209
9.83293 10.8605 1.14233
10.5874 20.557 1.85952
-6.93539 -9.19936 0.940655
7.13603 -9.96358 0.994067
12.7961 12.2414 1.44801
