ply
format ascii 1.0 
element vertex 1879
comment /media/mkaihara/Seagate Backup Plus Drive/model_iterations/model_43.ply
property float32 x 
property float32 y 
property float32 z 
end_header 
9.06519 19.944 1.73768
7.80583 19.0855 1.65803
5.02753 -5.79441 0.618159
12.8117 11.5607 1.39838
11.8102 11.8633 1.37078
6.73294 -9.39287 0.9395
12.2677 11.7338 1.39548
6.72006 19.7276 1.70602
-6.35165 -4.38466 0.628834
-7.14903 -9.4617 0.973299
11.5792 12.1311 1.38761
10.495 9.18131 1.18742
-5.0274 -11.47 1.05798
6.1273 -6.04739 0.751562
9.22105 -7.18354 1.00546
-6.78767 -6.68544 0.809298
10.4623 12.3989 1.4163
8.80065 -7.33324 0.995923
10.8605 12.2428 1.43236
-7.29943 -7.75357 0.93348
8.19332 -7.29418 0.974091
10.2385 12.5145 1.45366
-7.06202 -7.73131 0.92834
-6.92811 -8.3284 0.972183
10.6305 12.3573 1.48026
10.537 13.5922 1.55824
-7.10652 -8.31604 0.99638
11.2491 10.8658 1.43865
-6.30995 -4.22813 0.698255
-6.85116 -8.58081 1.00457
-6.32374 -4.39113 0.70949
11.1085 8.57276 1.31684
10.6667 9.35096 1.32271
6.52315 15.4958 1.58148
10.5394 11.3384 1.46492
-11.2061 2.87156 1.09268
6.15901 -5.96676 0.817627
8.00816 -6.63885 0.999242
10.7667 9.21988 1.37617
9.56002 12.5791 1.52995
9.74528 12.5063 1.56218
7.69474 12.3061 1.44186
7.94356 13.2793 1.54041
11.2496 8.07836 1.4116
7.16827 12.7558 1.47684
9.08961 11.3912 1.48297
7.02848 13.6071 1.56755
5.89825 14.0154 1.56126
9.22475 10.5167 1.44597
9.06398 12.3484 1.59168
11.4129 7.67466 1.43487
9.27816 10.034 1.42301
4.97344 -5.81978 0.821949
-6.84053 -4.6524 0.872485
5.60682 13.9689 1.59791
-7.0532 -4.5029 0.892242
8.9551 10.7302 1.50075
-6.75954 -6.76916 1.02318
5.91115 -5.83453 0.897261
9.71508 8.55361 1.39534
8.98585 9.38547 1.39766
9.28502 10.3506 1.50774
4.81074 13.9427 1.59214
4.23822 -8.06046 0.986556
6.48978 10.8575 1.39213
-6.79645 -3.92202 0.863559
6.37413 11.9518 1.50309
-6.89007 -3.86017 0.874768
9.73249 7.22144 1.35537
6.69588 11.4278 1.47531
9.82727 7.04605 1.35859
5.45953 11.6387 1.45384
5.46626 12.1548 1.50556
4.72871 12.3062 1.49198
9.85618 6.69904 1.35832
-6.88679 -4.56026 0.945816
7.41111 -6.23379 1.10399
-7.3236 -0.784703 0.844335
-6.27094 -5.38714 0.952015
5.25071 -5.56971 0.883356
8.89877 7.91123 1.38735
4.42059 -7.1873 0.97758
10.4342 5.16561 1.36361
8.98253 7.81437 1.3997
5.20205 -5.61334 0.904276
8.62567 7.93987 1.39125
8.92915 9.08394 1.49043
-7.04205 -5.64643 1.0679
10.1604 4.75764 1.33684
-6.91379 -3.84905 0.953294
9.16134 6.15864 1.339
5.23778 11.4813 1.53008
-6.88834 -3.06338 0.915847
-6.8728 -3.24929 0.919179
4.88273 -5.95478 0.940022
5.9774 -6.13268 1.04281
9.39372 5.63451 1.35426
8.48469 7.24375 1.37951
-6.94551 -4.30747 1.00664
-6.87709 -4.53186 1.01495
8.28422 8.6119 1.4827
5.05827 11.3759 1.54623
-6.54605 -5.61413 1.07314
3.71116 -7.57936 1.05176
8.52709 7.7646 1.44322
6.08133 -5.62062 1.03835
9.18804 6.07514 1.39603
-6.13148 -5.41033 1.03174
8.57047 6.63021 1.38201
8.1107 7.53051 1.40806
-7.09469 -1.78133 0.935455
-7.00795 -2.30418 0.941995
-6.44174 -5.31561 1.06548
8.84848 5.67288 1.34762
8.17908 8.0693 1.48103
-7.25631 -1.25199 0.944059
-6.89322 -4.11613 1.03786
7.44953 6.23611 1.25844
8.09965 7.05956 1.3934
7.99287 8.1498 1.4794
-6.90525 -2.82411 0.971138
-6.90655 -2.9639 0.971525
4.57505 10.1318 1.46129
9.01345 4.11812 1.30451
-7.24053 -1.60455 0.974466
6.84326 -4.26148 1.07155
4.93066 -5.94661 1.02428
-7.32525 -1.11595 0.991682
-7.00824 -2.19745 0.982349
-7.04529 -2.26664 0.988617
-5.99199 -4.39604 0.993087
5.19137 -6.56862 1.11593
6.91417 -4.17838 1.08773
8.0944 7.18887 1.46679
-7.14443 -1.71656 0.987685
-7.07612 -1.9539 0.987202
8.81076 4.8643 1.36709
8.35026 5.88609 1.38921
-6.91614 -3.61645 1.06338
8.88257 4.16887 1.34602
3.36707 10.5829 1.52081
-7.30485 -1.19864 1.01318
-6.00716 -4.43923 1.02721
-5.98767 -4.53801 1.02846
7.15238 -3.93661 1.12226
8.0912 6.50141 1.43569
5.37754 9.08922 1.46268
-6.37844 -4.31885 1.05594
4.93515 -5.52836 1.0296
7.19008 -3.8323 1.13408
7.56518 -3.68907 1.16473
3.64026 10.0993 1.49524
3.45522 10.3971 1.52791
-7.36095 -1.08091 1.03852
-7.06702 -2.0019 1.02345
4.97436 -5.28986 1.01521
7.25194 -3.74032 1.14648
7.3686 -3.67505 1.16802
7.87911 -3.35936 1.21782
-7.14767 -1.87286 1.05071
-7.00234 -2.94342 1.10065
-6.00503 -4.37128 1.06817
7.91389 -2.78536 1.22767
8.24964 4.63029 1.38623
5.01372 8.58912 1.45794
8.38706 4.51652 1.40805
7.83936 -2.34344 1.20628
7.16375 5.7028 1.37138
2.98033 9.5137 1.49111
-7.08683 -2.01749 1.10421
7.49189 -3.11305 1.2232
8.24608 4.55727 1.42833
5.80651 7.46771 1.43668
5.31135 7.66265 1.421
5.14772 7.97564 1.44218
5.10137 8.0854 1.44723
7.34168 -3.17323 1.22175
7.68845 -2.7594 1.24409
-6.74934 -1.68108 1.04758
7.84139 -2.25964 1.25156
7.25353 5.44013 1.39247
-7.09627 -1.95041 1.14194
-6.91381 -2.78341 1.15831
6.83267 5.54219 1.38021
-7.34678 -1.09446 1.16007
-7.13687 -1.82225 1.1535
-7.03955 -2.06545 1.14939
-7.1136 -1.87054 1.15417
-6.8891 -2.9317 1.17526
4.83043 7.49003 1.41774
3.44579 -6.03114 1.10927
-7.26761 -1.29796 1.18256
3.52721 -5.70634 1.08083
3.56407 -5.61174 1.07022
7.09662 4.78366 1.39483
4.68348 7.41281 1.4274
-7.06413 -2.02149 1.19738
-7.08604 -1.94499 1.20569
6.99189 4.84507 1.40707
3.84034 7.97843 1.4664
6.05846 -3.32216 1.15114
6.65891 4.89187 1.37791
4.6851 7.20112 1.43342
3.83568 -5.2996 1.09967
7.13164 4.44099 1.41484
7.49767 2.867 1.35679
6.3461 5.30518 1.40217
-7.27114 -1.25435 1.2564
6.77721 4.09754 1.36034
-6.44574 -2.76974 1.19699
5.51303 -3.63203 1.13422
5.695 -3.5212 1.14972
2.77456 7.90785 1.44942
-7.36429 -1.03837 1.28926
5.33671 -3.7855 1.14068
-6.30597 -2.25787 1.16137
-6.26663 -2.41489 1.17584
4.28099 -4.66453 1.10727
4.49439 -4.47759 1.11299
4.59234 -4.44967 1.12195
-6.79478 -1.73096 1.23509
4.35443 6.53312 1.40094
-7.15191 -0.927296 1.289
-6.13966 -2.25609 1.16504
6.66246 3.7048 1.36679
6.12277 4.3782 1.36556
3.60771 -5.32605 1.17001
5.17116 5.71128 1.40955
2.53334 7.2503 1.44328
6.50559 3.06189 1.35972
-1.70763 -5.78621 1.14183
6.43549 -1.38792 1.24927
6.29224 2.78641 1.32514
6.23603 2.38832 1.33252
-4.44431 3.93255 1.3948
4.33896 3.54584 1.34062
4.22338 3.30198 1.32752
4.66663 -1.67825 1.24546
4.82103 -1.3816 1.2548
-2.13766 4.78855 1.30934
3.72535 -2.95169 1.22208
3.67152 -2.54846 1.19334
3.40434 -2.95977 1.22523
4.01171 2.57431 1.3324
-2.59605 -3.53615 1.25138
-2.3277 -3.57286 1.21687
3.75995 2.0607 1.3039
3.73635 1.98283 1.30326
-2.83888 3.4807 1.38503
-2.29789 -2.42069 1.18778
1.95211 -2.77667 1.21126
-2.12201 2.76478 1.32327
-2.02717 2.75297 1.32947
2.24808 -1.86756 1.22432
2.37789 -1.49686 1.22163
-2.01514 1.87595 1.29508
-2.06555 -1.44362 1.22866
1.44688 -2.06671 1.24398
-1.99337 -1.08816 1.2146
-1.92567 -0.707861 1.22001
-1.9274 -0.703641 1.2456
-1.95631 -0.344428 1.22878
-1.89357 -0.564827 1.22987
-1.89316 -0.531024 1.23494
8.23571 -8.71588 -7.47931
12.1517 -10.3092 -8.8185
-8.71263 15.5511 -6.91553
20.6845 25.1897 -11.711
-8.79221 -2.51795 -2.57707
-34.2055 -22.8494 -7.59929
-33.8161 -22.1148 -5.96214
-33.5439 -22.7959 -6.02319
-30.9779 -19.8672 -2.76775
9.30427 -8.86211 -0.392531
-7.58533 16.3503 -0.444861
-29.3015 -11.3387 0.723601
-6.90979 -8.25834 0.459879
16.8466 24.191 1.60149
11.4632 16.1216 1.6362
-6.6884 -6.66143 0.882598
4.25787 12.3554 1.50631
8.76417 9.12921 1.48039
7.9913 -8.78446 -10.4036
8.85438 -8.56098 -10.5234
6.97264 -11.9628 -11.5384
6.88779 -11.3743 -10.9186
8.17196 -8.28429 -9.5551
7.03692 -12.0532 -11.3488
7.08236 -10.9973 -10.4791
8.02155 -8.39779 -9.22574
6.74308 -11.3097 -10.3113
6.45982 -11.7224 -10.2348
7.77624 -8.87185 -8.99348
6.21984 -14.3468 -11.8327
8.32006 -8.7232 -9.12441
6.31413 -11.9347 -10.1969
6.16055 -12.1123 -10.1327
7.51051 -9.46926 -9.02371
7.92877 -9.07781 -8.94809
10.5008 -9.47975 -10.5211
6.13241 -14.1395 -11.3913
6.11184 -13.6893 -11.022
6.14468 -12.6026 -10.312
9.22172 -8.84981 -9.37573
9.3099 -9.09722 -9.49338
5.87787 -12.5312 -10.0544
9.38588 -9.01358 -9.28671
6.87935 -11.1539 -9.29999
5.62777 -12.9961 -10.0233
9.71986 -9.10708 -9.43921
7.62805 -9.36716 -8.49309
10.0265 -9.21337 -9.5659
10.9507 -9.52215 -10.1823
11.4784 -9.73021 -10.1052
8.40654 -8.6302 -7.97618
7.45024 -9.32276 -7.88488
8.18972 -8.74199 -7.91754
7.64817 -9.37631 -7.91601
7.85762 -9.42656 -7.86503
8.34284 -8.55803 -7.64002
0.356022 15.8686 -10.1275
7.5477 -9.34861 -7.64586
10.9454 -9.63751 -9.27212
7.24668 -10.7322 -8.1955
8.17698 -8.51993 -7.44711
4.62072 -15.4274 -10.1279
8.73579 -8.72255 -7.6377
7.94229 -9.05601 -7.42969
4.05463 -18.0387 -11.3884
8.21945 -8.65017 -7.29463
4.08958 -17.315 -10.8558
0.142136 14.8723 -9.04973
6.67305 -11.2932 -7.98581
7.76257 -9.29162 -7.34603
10.1585 -9.34258 -8.37407
6.83934 -11.2814 -7.91954
8.08251 -9.2293 -7.36386
11.3063 -9.72879 -8.91745
5.4138 -13.8879 -8.83992
7.75562 -9.29062 -7.17686
9.37801 -9.05939 -7.72609
6.92169 -11.1459 -7.76485
8.00488 -9.15231 -7.13435
9.78261 -9.21545 -7.83209
14.914 7.45267 -9.68406
8.69246 -8.85654 -7.17038
6.95171 -10.9936 -7.47502
2.64489 -11.2307 -6.63537
7.88105 -9.09584 -6.89263
9.63445 -9.16791 -7.55436
10.8269 -9.52503 -8.13452
3.27842 -20.5765 -11.7175
6.81848 -11.0096 -7.25956
10.1374 -9.31983 -7.71138
12.3863 -10.393 -9.06687
9.26716 -9.03342 -7.23129
4.6271 -14.3249 -8.39191
8.02675 -9.24252 -6.79842
14.837 7.58576 -9.14962
9.72676 -9.13443 -7.32796
0.833363 17.4764 -9.55499
2.73919 -19.8225 -10.9115
11.1665 -9.67635 -8.0222
4.24588 -14.4613 -8.15781
14.7499 7.71382 -8.96692
15.1506 10.4609 -9.88663
14.0815 7.76882 -8.59439
10.9862 -9.64895 -7.77516
13.3158 -10.8435 -9.13437
3.04116 -19.3015 -10.2721
11.3934 -9.85735 -7.66548
2.16757 -20.3507 -10.3297
10.2941 -9.37204 -7.00004
14.3247 -11.3299 -9.16939
13.8621 -11.212 -8.92483
11.0447 -9.68733 -7.31889
7.52804 -9.36181 -5.94888
3.56749 -8.47828 -4.53301
-8.68855 -1.90769 -4.37336
2.22008 -20.1117 -9.92438
4.53709 -9.30905 -5.06458
0.400589 13.6626 -6.69146
7.62706 -9.29331 -5.86635
-8.44375 16.1099 -8.80728
-9.18731 -2.42876 -4.5787
15.0583 -11.6283 -9.1423
19.4651 5.56946 -9.68309
-10.2961 -2.54917 -5.01689
1.90889 -20.5253 -9.80203
17.3151 16.2726 -11.2557
7.60388 -11.241 -6.40323
20.1229 5.43158 -9.81633
14.081 -11.1479 -8.35125
2.93602 -17.3636 -8.18785
19.4445 5.75325 -9.36865
17.9291 -13.0659 -10.2469
9.87894 -2.49534 -4.70822
20.3793 5.16542 -9.70063
17.443 16.4038 -11.0355
1.80807 -20.1788 -9.27218
9.69735 -9.06773 -6.07914
-9.19685 -1.66933 -4.26268
9.46481 -3.47301 -4.59207
6.73174 -11.3477 -6.00092
9.92641 -2.62196 -4.65722
19.3372 5.89659 -9.10218
17.8414 17.6979 -11.2991
9.38053 -3.09011 -4.44588
15.4979 -11.9254 -8.77498
7.05699 -11.594 -6.07049
7.16881 -10.9429 -5.83077
9.57149 -3.40915 -4.5281
-9.94922 16.3039 -8.50169
17.7382 -12.9454 -9.75754
19.6255 5.65364 -9.05313
16.1751 7.33692 -7.86608
17.9519 18.1336 -11.2868
16.4987 -12.2702 -9.06161
-11.1779 16.9954 -8.93917
-6.52676 14.9107 -7.13476
-5.22231 4.89776 -3.11874
20.2286 5.49246 -9.1135
9.57038 -3.40941 -4.3848
18.3534 18.6033 -11.2339
15.8907 -12.2285 -8.62753
14.9258 7.46301 -7.12296
3.84423 -9.31528 -4.28136
-11.1051 16.8873 -8.55473
6.96126 -10.9325 -5.46473
-13.5433 3.31907 -5.87456
0.742992 -22.3129 -9.40844
15.8705 -12.0162 -8.32438
-5.14934 5.66961 -3.20356
0.9973 -22.1717 -9.30397
1.23239 -20.7566 -8.71091
14.2303 7.63232 -6.75502
18.694 19.4827 -11.2834
3.78749 -8.9656 -4.05862
14.838 7.76481 -6.97196
18.0547 19.2839 -10.9647
-9.4977 -1.09007 -3.94621
4.01045 -8.5087 -3.85389
14.0972 7.78427 -6.61175
6.86074 -11.0134 -5.30448
-13.5848 2.53767 -5.65314
-7.92417 15.348 -7.01742
19.4165 21.0994 -11.6186
15.1417 7.27574 -6.76949
-5.25351 14.3408 -6.12188
14.0079 -11.0745 -6.99367
1.53465 19.3256 -7.53101
-8.70179 15.7131 -6.97825
19.0823 5.81952 -7.73057
-1.75116 13.243 -5.17334
5.30519 -9.41052 -4.16591
-2.3794 13.453 -5.24646
19.7635 22.864 -11.5905
4.66629 -8.52573 -3.69097
19.5125 5.59782 -7.72523
0.872645 -26.3308 -10.0129
14.9683 -11.5345 -7.11114
20.076 5.43905 -7.78544
9.45545 -3.445 -3.76268
0.531274 -22.5134 -8.39317
3.25656 -10.8201 -4.22109
20.3757 23.7069 -11.611
0.908945 -8.71293 -3.24887
14.082 -11.152 -6.62324
20.4877 5.21087 -7.77337
18.0192 17.806 -9.25929
-13.0037 2.27811 -4.79945
21.0459 25.1339 -11.8918
2.29231 -13.2844 -4.8562
13.0816 -10.5787 -6.05351
0.794649 15.4753 -5.54552
-8.19053 -2.79505 -3.09545
0.409319 -21.7197 -7.76619
-4.2 13.7765 -5.12146
0.637221 -21.8282 -7.76086
15.9283 -12.03 -7.07429
-15.6464 18.0875 -8.42713
5.94009 -11.3597 -4.50703
-10.9684 16.5504 -6.9333
0.0945744 -18.4217 -6.47627
14.3203 -11.3489 -6.38868
20.4429 5.3839 -7.37943
0.656147 -22.9264 -7.92147
-4.99209 14.4858 -5.24821
3.64372 -8.45832 -3.17014
4.88387 -9.04635 -3.52276
-14.4267 17.9098 -7.8705
2.27787 -10.8974 -3.81507
-8.8425 16.0382 -6.2414
3.03988 -13.7501 -4.8005
-14.8993 18.286 -7.99499
20.2602 5.50852 -7.05765
22.2914 27.5772 -11.8538
36.4249 -20.5617 -13.9767
-5.28201 14.0051 -4.96972
1.92148 20.8633 -6.95378
1.26763 -10.2466 -3.4138
32.754 -20.5904 -12.722
-5.23059 14.3971 -4.97374
-12.5222 17.1418 -6.88521
18.6668 -13.3017 -7.44289
3.5622 -8.67789 -3.00756
6.23347 -10.1347 -3.8129
2.31508 -11.0128 -3.58111
-4.50775 -33.8809 -10.865
-1.12797 -23.6742 -7.54533
15.1017 10.4009 -5.78805
-13.1408 17.4851 -6.91229
-17.8826 19.2874 -8.26696
3.00062 -9.67701 -3.19655
6.9821 -11.1268 -4.06085
1.38207 -21.8161 -6.76259
-2.5501 -27.1835 -8.38184
7.26414 33.5668 -10.4834
0.769912 15.068 -4.58381
-11.0734 16.7065 -6.0398
-2.67344 -26.2677 -7.9527
-14.2647 17.8344 -6.81304
-5.24414 -34.4051 -10.3636
0.834413 -24.8769 -7.44315
-5.36468 14.7503 -4.66736
2.08976 20.8268 -6.16877
-21.1414 19.7122 -8.52717
18.2997 5.82342 -5.65327
-4.27742 14.3597 -4.40418
-7.88492 15.295 -5.04719
4.26344 -9.1594 -2.96928
4.64932 -11.6485 -3.66697
-12.5855 2.2171 -3.67272
-32.4984 -46.0354 -16.2164
-15.1089 18.1753 -6.79335
6.98159 -11.1193 -3.77953
2.56666 -9.55565 -2.8112
12.9823 -10.5082 -4.75283
-8.43954 -2.45617 -2.49233
21.3072 27.481 -9.85441
-8.56638 -2.25778 -2.50331
-2.5236 -25.767 -7.26706
-12.9905 1.99063 -3.65974
4.40154 -11.3639 -3.38206
-9.25589 15.9163 -5.0536
-12.982 17.313 -5.94262
-5.36264 14.3082 -4.17505
-8.38491 -40.7315 -11.3797
-21.3232 19.8981 -7.83978
-9.67343 16.0393 -5.01846
-26.5159 20.3689 -8.89462
11.5023 11.5772 -4.30736
4.34091 -11.3312 -3.2142
47.6364 -13.8479 -13.141
-8.06711 -38.0771 -10.2323
4.09752 -8.67434 -2.52589
11.2095 -9.97024 -3.92425
-14.3594 17.9787 -5.98203
6.55281 -10.4495 -3.19221
3.18391 -9.66318 -2.63006
-29.6873 -43.4808 -13.5965
-4.30203 -28.2248 -7.38852
3.55008 -10.3978 -2.8328
4.07674 -9.40656 -2.63487
15.6835 -11.7929 -5.0063
-7.1066 15.138 -4.23156
-31.1279 -41.5133 -13.1589
4.32507 -11.1778 -3.0331
4.26194 -7.71695 -2.24355
6.55663 -10.6948 -3.12823
45.2807 -13.6903 -11.7934
-28.0388 21.154 -8.6831
-11.4558 16.8297 -5.01787
-27.2671 -39.7776 -11.8587
-9.74136 -38.3474 -9.76111
-24.2919 20.4031 -7.79529
4.35995 -10.3549 -2.76024
-11.9852 17.1665 -5.07539
-7.79426 15.1847 -4.1128
10.3057 -9.2958 -3.32296
40.6612 -13.5066 -10.2521
15.1898 7.59669 -4.04391
-6.21844 -35.6221 -8.61547
3.97176 -9.10114 -2.35283
47.5006 -12.7131 -11.6697
-11.9378 -43.9602 -10.7928
4.21236 -9.01315 -2.37321
3.87559 -11.1155 -2.77392
4.91807 -8.71036 -2.35306
-12.6931 17.297 -4.99216
11.0438 -9.67814 -3.35599
-6.11554 -31.019 -7.21513
-26.929 20.7985 -7.71257
41.9086 -9.16526 -9.73471
-30.2197 21.941 -8.37249
-35.1448 -23.0313 -9.41554
-5.30094 -25.2404 -5.75254
41.0969 -12.7043 -9.6575
5.46665 -9.49506 -2.44602
-12.3736 2.82339 -2.78476
40.973 -12.0072 -9.4328
42.9802 -12.2635 -9.83265
27.8404 39.2117 -10.5354
-5.33716 14.0004 -3.27482
13.4478 -10.8213 -3.7991
38.3855 -12.3358 -8.86304
-23.199 20.2191 -6.67468
-28.68 -70.7105 -16.5597
4.31972 -9.72243 -2.30689
4.54892 -9.2 -2.21666
-14.4716 18.0297 -4.93659
-30.6412 22.2572 -8.08642
-31.5059 22.3586 -8.25816
-27.2777 -72.3741 -16.5811
-10.6097 16.5778 -4.17256
-8.3168 -35.309 -7.71515
3.19814 -9.70871 -2.17953
3.97702 -9.85592 -2.26586
46.2457 -10.7222 -10.133
15.0213 7.52405 -3.56238
-15.0396 18.5134 -5.04937
5.17454 -9.07328 -2.19433
27.0484 39.1367 -9.94426
-27.44 -26.853 -7.97247
15.0638 7.88372 -3.53058
-29.922 -23.1089 -7.84331
-31.8103 -81.5652 -18.1279
40.8648 -10.9973 -8.75134
-11.3603 16.7376 -4.10995
-15.4997 18.3255 -4.8856
-34.8023 23.3619 -8.51729
44.8509 -9.78303 -9.36073
-13.01 -41.8642 -8.9114
4.14579 -9.75748 -2.15679
11.6447 -9.67997 -3.08073
-11.9023 17.0802 -4.15503
-19.4441 -55.8069 -11.8126
-12.7662 -39.6595 -8.24985
4.07971 -9.94525 -2.12813
-33.8381 -23.1382 -8.08144
-26.4865 20.7876 -6.62645
-32.8809 -23.5203 -7.88097
-6.8278 15.086 -3.21316
-25.9323 -60.9342 -12.8646
-33.2954 -22.1658 -7.70839
3.44371 -9.38359 -1.92997
46.3217 -10.7325 -9.12987
-12.6412 17.259 -4.08905
3.99831 -9.36629 -1.94333
-36.1428 -21.9542 -8.00547
-21.0387 -34.177 -7.63331
-15.2952 -44.1336 -8.83926
38.2229 -12.6089 -7.6081
-35.5405 23.8701 -8.01214
-33.4205 -23.0809 -7.63046
-32.3817 -23.6917 -7.53217
-20.8738 -51.714 -10.4947
-16.5778 -45.0313 -8.90226
3.82683 -9.22251 -1.84419
42.9718 -11.5817 -8.26389
5.77223 -9.73735 -2.07441
-23.9957 -54.4116 -10.8888
-20.0533 -49.7753 -9.70715
-14.4314 17.989 -4.08881
-30.8453 -24.8775 -7.04428
-20.138 -26.8347 -6.00013
-38.8897 24.54 -8.11349
-26.4933 20.8024 -5.86269
-33.701 23.0614 -7.09022
3.91977 -10.076 -1.87455
4.78083 -8.62877 -1.71425
14.0719 7.5571 -2.75546
14.1493 8.11955 -2.7946
-30.4946 22.1753 -6.4638
42.6478 -12.066 -7.54509
42.4339 -10.99 -7.4614
-31.003 -24.6222 -6.71652
-20.8629 19.8692 -4.83775
-19.9797 -49.6625 -9.046
14.9339 7.48493 -2.80213
-31.3538 22.1967 -6.41691
-23.0467 -54.9485 -9.84708
44.0011 -11.8536 -7.40626
-10.2522 16.2757 -3.1035
-20.2519 -50.2425 -8.64068
-34.5922 -23.8792 -6.624
-22.5552 19.8167 -4.70125
-23.9335 20.4311 -4.87703
-39.5912 23.9713 -7.17209
-11.1133 16.6328 -3.08762
3.48114 -9.55365 -1.57242
3.88141 -10.2638 -1.69887
-7.53314 15.2786 -2.60119
-30.7168 22.3566 -5.80751
-31.4989 -24.3288 -6.05253
-27.7164 -25.9256 -5.74981
42.6292 -11.0823 -6.69453
45.3265 -9.87509 -7.06692
-6.46655 14.4025 -2.36146
9.8517 -5.16401 -1.65092
-33.2087 -23.9519 -6.09791
-25.7486 -65.1072 -10.3851
10.2263 -9.19458 -2.04928
45.4744 -10.52 -6.93109
-36.3228 -24.1796 -6.42228
-31.2416 -25.7694 -5.92455
-12.442 -41.2267 -6.33708
17.0087 -12.3057 -3.07483
-25.1263 20.6873 -4.72985
-24.1814 -54.182 -8.55079
-7.53246 15.0863 -2.41051
-12.5864 17.1608 -3.03389
6.05915 -11.5758 -1.86679
-13.2762 17.7449 -3.11271
-34.2861 23.1611 -5.81721
6.78414 -11.0815 -1.81584
37.9413 -12.5214 -5.6189
-30.8929 -24.7545 -5.52528
-32.6072 23.4333 -5.56271
-20.1878 -48.6568 -7.27668
45.6289 -10.2078 -6.44686
-6.78554 15.0059 -2.24988
-22.0786 -57.623 -8.38378
7.77247 -9.40605 -1.63739
-13.865 17.7034 -3.03108
13.2738 -10.587 -2.29717
-21.9974 20.0093 -3.99859
42.5543 -11.0026 -5.83477
45.3467 -9.93285 -6.14389
-22.3797 19.6944 -3.89825
-32.4123 -24.2536 -5.28799
-14.7468 18.058 -3.01432
-33.628 22.445 -5.24914
-38.0283 -16.057 -5.3302
7.03962 -10.4693 -1.61855
10.8294 8.86647 -1.79776
-33.5227 -23.1016 -5.21032
-31.0704 22.6822 -4.86635
-35.2813 -22.0158 -5.21292
42.4102 -10.968 -5.48149
6.81817 -10.4015 -1.55392
-7.56471 15.1305 -2.09404
-24.7505 20.7826 -3.95752
-32.9914 23.2514 -4.97896
6.32215 -12.1249 -1.66562
45.2969 -9.66407 -5.67255
15.0811 7.90116 -2.04744
-17.6545 -42.7589 -5.57872
7.11022 -10.5673 -1.53342
-20.4097 9.04538 -2.64253
-14.0509 -42.5044 -5.26441
-31.584 -24.3507 -4.6636
-31.0725 -24.8501 -4.65623
42.4995 -11.3844 -5.17063
11.2714 -9.70672 -1.72321
-29.536 22.3957 -4.26477
6.66541 -10.8603 -1.45865
7.50842 -9.24421 -1.36219
11.6264 -9.7601 -1.72401
9.46761 -4.61875 -1.19295
15.0585 7.73819 -1.90852
-10.2367 16.2965 -2.17165
-31.7962 23.2338 -4.41195
39.2727 -12.9282 -4.63613
9.38449 -9.04983 -1.44226
-10.9485 16.4205 -2.14524
6.8264 -12.8518 -1.57609
45.4418 -9.87615 -5.04081
10.8289 8.89884 -1.51116
16.8653 -12.528 -2.25459
42.6999 -11.0746 -4.7263
9.64801 -9.00575 -1.39819
8.40017 -8.48551 -1.25078
-30.6445 -24.5227 -4.08716
-29.4546 -59.0803 -6.88732
15.0547 7.55017 -1.72114
-31.5271 -24.3094 -4.08497
-12.7205 17.3407 -2.18362
-12.6439 16.9398 -2.10103
10.2398 -9.11674 -1.34301
-20.3867 -51.775 -5.45572
6.34679 -12.1544 -1.32692
16.7324 -12.2417 -1.99264
42.5891 -11.4443 -4.22674
-29.9513 -60.5432 -6.42155
-20.3299 -53.3521 -5.42269
-23.0654 20.1751 -2.86498
46.1641 -10.2698 -4.41679
9.74595 -9.01429 -1.22886
40.1231 -13.2357 -3.93653
-14.8613 18.2176 -2.12919
-29.509 -13.454 -2.95654
-31.5189 -61.4439 -6.36566
15.9393 -11.9304 -1.81095
8.65939 -8.75064 -1.11474
12.9456 -10.6859 -1.46159
45.746 -10.6032 -4.02224
9.42982 -9.05482 -1.09889
10.9898 -9.67791 -1.23078
-33.7313 23.1651 -3.40567
16.9341 -12.3489 -1.73571
-16.613 -43.2301 -3.7097
14.7533 -11.5362 -1.49325
-11.5719 -32.3961 -2.71548
-29.4667 22.4053 -2.86319
-32.6828 23.1016 -3.09026
-22.2345 -50.7898 -4.28055
-50.3284 27.3911 -4.33979
-21.1604 19.9153 -2.11414
-32.9078 23.2768 -2.92181
16.4679 -12.3048 -1.50364
42.62 -11.4053 -3.2139
-38.1385 -72.1618 -5.89045
14.0391 -11.1078 -1.28103
-15.281 -40.5366 -2.99017
10.8035 -9.6483 -0.992313
-23.0878 20.2156 -2.07298
12.9242 -10.6645 -1.12154
18.0584 -13.0976 -1.48701
16.1274 -12.1985 -1.33527
-14.4058 -39.9414 -2.74672
44.4222 -11.5533 -2.86864
-31.0162 -62.8438 -4.2766
36.1773 -8.7767 -2.28436
43.5634 -9.97101 -2.74322
6.08533 -13.1542 -0.866132
31.2369 -20.6694 -2.24084
-9.72067 16.2274 -1.11213
-15.2962 -39.9015 -2.4333
16.7016 -12.4819 -1.17052
-9.65381 -12.5146 -0.866245
15.0477 7.72003 -0.914739
13.9648 -11.0546 -0.953611
-12.645 17.136 -1.11264
-16.1879 -40.123 -2.29777
14.9419 7.85695 -0.827709
-16.0065 -40.9148 -2.15566
-13.9953 17.7392 -1.08088
9.59436 -9.05005 -0.604886
-23.4204 -53.7237 -2.65181
12.5015 -10.2773 -0.750189
-15.6803 -43.7104 -2.06164
-16.9008 -41.6401 -1.92386
6.89243 -12.7271 -0.642023
-13.6388 -41.5756 -1.86374
-51.6941 28.1133 -2.38479
18.4494 -13.2546 -0.921743
16.896 -12.5588 -0.819718
-40.0667 -77.7658 -3.29992
-17.8373 -46.7753 -1.84354
-33.212 22.8199 -1.47451
43.1047 -11.1065 -1.60244
-33.4805 -66.5986 -2.49353
-25.2439 -55.322 -2.04713
20.4068 23.6017 -1.03658
-21.2032 19.8696 -0.94729
8.1691 -14.418 -0.556439
9.44975 -9.02127 -0.423449
11.3412 -9.98435 -0.491082
18.7064 -13.2269 -0.752754
35.1739 -13.2665 -1.2472
22.265 26.9518 -1.12161
-27.2189 -13.6528 -0.954688
-22.6449 20.1655 -0.924634
-31.3069 22.1733 -1.19795
-24.348 -55.9769 -1.89029
-13.5699 -38.3891 -1.25399
-20.9816 -53.5218 -1.74032
-16.2768 -44.1136 -1.34689
-33.7423 -20.4587 -1.05118
11.4907 -9.74804 -0.4036
16.4263 -12.2177 -0.539522
-40.4576 25.0287 -1.25543
-29.9084 22.7576 -0.930442
-30.4281 22.3002 -0.892523
9.59672 -9.03423 -0.305281
-40.8836 14.1305 -0.95677
-30.7955 -51.5676 -1.35251
21.4162 -14.3233 -0.566113
30.8053 -18.6795 -0.812748
14.2862 3.94814 -0.302471
28.1435 49.1804 -1.04267
23.6988 -11.0331 -0.460191
47.7575 -10.9971 -0.911165
-30.391 -21.84 -0.682531
-29.2917 -28.7702 -0.65103
-18.6022 -45.6454 -0.820496
12.7732 -10.5038 -0.272001
18.637 -13.467 -0.351222
-29.0898 -12.9297 -0.418127
-32.537 -24.3499 -0.565512
-32.4113 -65.3386 -0.984181
-27.0269 -57.522 -0.870441
-33.6336 -22.9699 -0.53185
-29.9253 22.767 -0.443367
17.0948 -12.7661 -0.253182
29.6 -18.3535 -0.40951
-30.3896 22.3104 -0.420439
-18.7392 -42.9773 -0.501317
-11.8267 -35.5977 -0.37749
-32.6163 -57.4694 -0.608386
-14.1625 17.965 -0.176009
-26.5561 -13.3888 -0.24029
-14.8457 18.097 -0.160517
-22.314 19.9285 -0.154549
-20.7715 19.4831 -0.130118
-10.5217 -13.5266 -0.0601967
14.8091 7.77959 -0.0203562
11.1484 -9.80315 -0.00774244
-34.22 -18.7429 0.0594041
-11.1723 -33.2042 0.114398
17.0526 -12.3893 0.0916424
-18.4716 -42.4073 0.206032
18.8977 -13.3149 0.122974
7.21177 -12.397 0.104716
26.1963 -10.7478 0.174415
-54.5418 19.4753 0.551345
16.3375 -12.1079 0.194305
37.8306 -7.72367 0.364691
-28.9142 -8.15311 0.351158
-35.9643 -21.7073 0.463228
-11.1735 -32.0134 0.364069
-53.4834 29.3122 0.744816
-12.5218 -34.6986 0.439605
-10.1446 -31.1824 0.393829
6.36762 -13.0156 0.185007
7.24209 -11.157 0.174939
-27.8559 21.8661 0.541551
11.355 -9.91683 0.226734
-23.8554 20.4007 0.517467
10.9394 -9.76764 0.230251
13.0285 -10.7256 0.265981
36.761 -7.86746 0.625803
-34.255 -22.9502 0.749984
-30.8644 22.0683 0.744294
6.17869 -12.9095 0.277735
7.04933 -11.0937 0.253265
8.0495 -9.4456 0.242389
28.4133 58.4248 1.41236
7.75122 -9.47095 0.276731
10.162 -9.20415 0.330836
-28.6518 -9.18742 0.724551
-23.0628 20.1304 0.827617
-27.2682 21.5011 0.931295
-28.7803 -8.64168 0.791619
9.21641 -8.92134 0.346553
9.65334 -8.97211 0.359293
-25.3008 21.3238 0.89836
25.5329 -5.16539 0.725496
13.0382 -10.6961 0.502471
15.0163 24.4628 0.885318
6.22484 -12.8416 0.449077
7.48923 -11.6746 0.435298
-28.3138 -7.98533 0.964993
-12.5426 -19.2041 0.755822
-28.0001 -8.75136 1.01405
16.213 11.097 0.709992
-29.6278 -18.3592 1.21825
16.0082 27.8078 1.14484
-30.2482 -16.4995 1.27673
23.6673 -4.27375 0.869086
-27.6491 -19.6645 1.25723
-7.28704 -7.94534 0.406792
9.0769 -8.85137 0.471314
12.519 13.6946 0.715287
26.8174 55.3225 2.32799
25.6517 54.6152 2.27176
-11.5321 -9.12816 0.579859
8.7464 -8.69197 0.487826
-25.3932 20.918 1.33488
21.9469 -2.97443 0.897422
-28.6197 -17.3836 1.37173
9.44154 -8.95247 0.533513
12.5494 14.4534 0.823409
6.60996 -12.518 0.60112
15.0031 19.4943 1.08133
21.0745 29.1096 1.57378
-9.46522 -13.7625 0.73422
-9.94208 -15.549 0.819343
7.62554 -10.9906 0.58938
8.64677 -8.73648 0.55551
24.3228 -3.72607 1.11119
-29.7009 -8.65524 1.41185
6.76746 -11.1256 0.599161
-8.26292 -8.13166 0.545534
21.8296 44.044 2.35162
-28.3837 -17.5422 1.57721
-9.73822 -13.6597 0.798494
9.68867 -8.98944 0.622539
15.9023 44.1918 2.27329
-30.0791 -13.3229 1.57005
-6.7555 -8.23591 0.524105
14.8361 34.5019 1.91624
-29.5795 -11.5833 1.59401
-7.5855 -6.97509 0.520812
-6.69402 -7.58837 0.511833
16.3692 29.6529 1.75862
10.6059 12.4018 0.881812
14.3517 19.5303 1.30122
9.37097 -8.95034 0.694344
14.9432 19.4432 1.35394
15.4489 23.8608 1.56513
-27.2555 19.1907 1.82636
-6.96582 -8.1863 0.596036
-26.1854 20.0921 1.83427
6.12698 -12.9368 0.800832
-7.09716 -9.14633 0.660177
10.0111 12.5046 0.942004
15.0851 25.4166 1.72665
6.49676 -13.0483 0.838818
13.9826 22.8122 1.58037
-8.2499 -8.10929 0.696944
11.5902 11.6703 0.980788
14.7935 19.6755 1.47895
-7.38657 -9.99925 0.773147
7.0338 -11.209 0.806443
11.297 -9.74435 0.904494
5.88595 -10.79 0.762667
-7.18992 -6.64568 0.61173
14.603 20.7155 1.60363
16.2044 7.19294 1.15116
-7.0327 -6.1445 0.612702
6.49894 -13.5208 0.999687
9.50093 21.4611 1.5833
10.4689 12.6183 1.12084
13.6492 18.3535 1.59531
12.5062 20.7352 1.67555
11.398 12.0403 1.16372
6.61377 -9.86347 0.840976
11.5457 11.8125 1.19537
9.82159 -6.9331 0.855468
12.4133 12.0172 1.26892
9.94572 -8.39907 0.953696
-6.13792 6.65229 0.675339
10.4654 9.21509 1.04748
12.0044 17.9486 1.62471
11.5579 18.4141 1.63818
-6.94034 -7.69292 0.803371
10.9366 18.8765 1.6739
9.53374 -8.97606 1.01199
10.5303 14.1353 1.3819
-6.41403 -4.29784 0.608799
9.25934 18.551 1.65691
10.0967 -6.90911 0.97965
12.5052 11.6025 1.37901
9.82323 19.0729 1.72759
-7.25629 -9.62481 0.981815
6.72981 -9.39705 0.940534
12.2922 11.7592 1.3939
12.1971 11.9954 1.42063
11.4698 11.9886 1.37363
-5.04285 -11.5096 1.05715
10.3608 12.9627 1.41204
-6.95721 -6.07946 0.795712
-6.81347 -6.69239 0.80664
-5.20402 -11.4137 1.06686
-7.29528 -7.7412 0.915974
9.29775 -7.26631 1.01957
-7.11553 -8.05197 0.940336
-7.01237 -7.68538 0.914923
9.43213 12.5901 1.39477
-6.94698 -8.36592 0.97148
10.8462 9.10067 1.2904
10.5138 13.5412 1.54899
10.5547 9.26977 1.28596
7.76509 14.0956 1.48034
-6.49427 -8.13091 0.953427
-6.89715 -9.01081 1.04735
11.2379 10.8387 1.44067
11.282 9.20502 1.36262
10.9068 10.8412 1.44162
6.53596 15.104 1.54667
-11.4074 2.92241 1.10397
-6.35941 -4.16965 0.71229
-6.80262 -6.29101 0.859159
9.47898 13.3682 1.58099
-6.01035 6.53081 0.873545
7.96928 -6.61659 1.00952
7.97457 13.2969 1.54028
-7.06392 -7.61244 1.04617
9.34565 11.6857 1.50936
7.045 12.5089 1.45714
7.10453 13.0888 1.5184
9.56128 9.11933 1.3675
5.90651 14.0808 1.58288
9.18283 12.4894 1.61634
-6.10524 -4.4553 0.792081
6.00413 13.7966 1.58516
6.26511 13.7236 1.58625
-6.96663 -4.42532 0.882643
8.79338 9.04478 1.34495
9.16788 10.2133 1.49275
7.3615 11.0536 1.44346
5.85892 11.5402 1.4073
-6.29556 -7.40607 1.06241
10.2872 6.46529 1.34442
9.01429 8.15875 1.34034
7.34809 11.7457 1.53003
6.88159 11.6962 1.50053
5.39208 11.9739 1.4613
4.9042 12.1908 1.47039
4.74658 13.8044 1.60628
9.8875 7.06965 1.35732
8.78527 9.33872 1.43284
5.41547 11.5877 1.44061
-6.83704 -6.7191 1.06689
6.89806 10.767 1.44064
4.35766 13.2939 1.58151
9.76471 -3.19981 1.14578
-6.10159 -5.41173 0.944139
7.29565 -6.12536 1.08139
10.4329 5.72434 1.36495
-7.37354 -0.984758 0.852225
-6.25431 -5.35348 0.94752
5.24693 -5.55548 0.880416
5.10131 11.7012 1.48311
-6.87898 -4.5565 0.956029
4.45442 -7.26334 0.985371
10.4241 5.15676 1.36484
8.90525 7.90391 1.39789
-5.99987 -4.36662 0.864702
-6.48239 -5.27066 0.986887
4.09411 -7.87 1.055
4.96569 -5.84913 0.920551
10.1816 4.76084 1.34748
8.5404 8.29305 1.44202
5.30842 11.5651 1.55363
9.06106 6.27712 1.34973
8.03261 8.35973 1.45244
-6.48623 -5.74358 1.07843
3.7073 -7.57459 1.05622
8.69256 6.70237 1.3804
-6.46456 -5.3417 1.06125
9.10598 6.02318 1.394
8.20068 7.15568 1.38873
8.13251 7.52456 1.41481
5.77724 -5.34571 1.01057
-6.96805 -4.44063 1.0605
8.12197 8.01919 1.48059
-7.35008 -1.04135 0.958959
-6.91897 -2.8247 0.975837
8.98712 4.10634 1.29409
8.41882 6.64184 1.40785
4.99815 -6.02776 1.02931
4.91636 -6.19242 1.04703
6.87273 -4.28427 1.07807
-7.12774 -1.7169 0.982699
-7.00481 -2.21847 0.982194
-6.02355 -4.42098 0.998794
8.15162 6.67205 1.42822
8.62178 4.44575 1.32268
8.64477 5.17508 1.3763
8.04618 7.15401 1.46563
-6.8047 -3.73145 1.05364
8.87325 4.16511 1.34185
8.27968 5.84385 1.38793
-6.39527 -4.32722 1.0565
-5.95573 -4.52375 1.0213
5.38105 9.06799 1.45666
3.66434 10.1378 1.4974
-7.36035 -1.09187 1.03027
-6.90013 -3.92473 1.10153
4.94823 -5.54283 1.02691
5.22809 -5.39812 1.04303
7.46837 -3.5393 1.15583
3.40846 10.2225 1.51034
8.41453 4.60533 1.35705
7.37975 -3.68051 1.16992
7.59222 -3.3372 1.18242
7.76752 -3.3081 1.19802
8.94883 2.81776 1.3505
4.83297 -5.63448 1.06706
7.35833 -2.85485 1.14915
-6.95402 -3.29802 1.12171
7.92425 -2.78176 1.22454
8.67273 -1.82177 1.30091
5.02965 8.6116 1.47236
2.97216 9.5008 1.48143
7.73821 -1.8894 1.17402
7.24416 5.76925 1.37996
3.47687 9.61901 1.51232
3.20777 9.86208 1.53744
-7.36258 -1.04229 1.10238
-7.06875 -2.02142 1.09554
6.96336 6.30361 1.41827
-6.25965 -2.27041 0.999135
-7.23316 -1.37397 1.11124
7.9532 4.82616 1.41742
5.72808 7.38108 1.41782
5.31186 7.65913 1.41882
5.07694 8.04575 1.43861
6.76286 -3.22728 1.1333
7.25078 -3.12665 1.20929
7.64159 -2.75748 1.23804
-7.30868 -0.732155 1.12154
-7.09129 -1.95282 1.13509
6.79254 -3.09442 1.15438
3.74913 -5.78554 1.0661
-7.04727 -2.07428 1.15156
-7.33844 -1.09176 1.16481
7.37431 4.78319 1.3884
-7.19162 -1.44211 1.16682
-7.26426 -1.29979 1.1839
-7.0915 -2.01731 1.19883
7.0824 4.77174 1.39419
-7.09509 -1.94378 1.20832
7.02219 4.87386 1.41998
6.62738 4.86111 1.37176
5.22117 6.26108 1.35832
4.68991 7.19798 1.43507
3.83957 7.9695 1.47078
-7.2421 -1.37216 1.23031
2.79044 -5.77292 1.08095
7.15396 4.43609 1.41823
6.52648 5.24877 1.4131
3.87295 -5.36434 1.11557
3.93578 -5.01988 1.07989
-7.26502 -1.25117 1.25041
-6.59387 -2.62346 1.20391
7.42572 2.85136 1.34926
7.04057 3.89708 1.37149
-6.41034 -2.75129 1.18672
6.78505 4.10502 1.36154
5.68453 -3.52093 1.15096
-7.38829 -1.03852 1.29009
-6.35284 -2.27897 1.16021
5.53704 -3.64908 1.14311
5.32026 -3.77496 1.14351
3.6109 7.19048 1.41574
-6.79389 -1.73373 1.23124
4.48001 -4.46745 1.11349
-7.0851 -0.913728 1.27243
4.72573 -4.45827 1.14978
4.34246 6.51382 1.39723
6.59485 3.47854 1.34664
6.63491 3.68771 1.36381
-6.43649 -1.49941 1.18851
3.60781 -5.32485 1.17011
5.08988 5.62644 1.38944
-6.15159 -2.182 1.19611
3.41165 -5.15637 1.14991
3.40034 6.79682 1.42223
-1.69838 -5.78373 1.14489
6.45183 2.73496 1.3337
-2.14378 -5.72878 1.17577
6.31596 2.79909 1.33016
-2.78794 -5.37719 1.18679
-3.51299 5.33417 1.38326
4.47789 3.8998 1.35546
4.15066 -2.87844 1.17703
4.62936 -2.18663 1.23722
4.20513 3.29624 1.32377
3.70638 -2.92946 1.22367
4.02242 2.5773 1.3349
-1.44504 -4.12238 1.22284
-2.32318 -3.58267 1.21321
3.8636 2.36666 1.31293
-2.85647 3.51988 1.35853
-2.4829 -2.91896 1.19006
-2.38036 -2.94019 1.19503
1.83929 -2.8064 1.18004
1.86235 -2.78482 1.21007
1.98847 -2.5221 1.19658
-2.04098 2.80289 1.31799
2.80256 -0.555422 1.25891
2.78208 -0.336683 1.24072
-2.09138 -1.62061 1.21354
-2.07904 -1.45249 1.23856
-1.86437 -1.79769 1.28416
-1.9965 -1.13232 1.20493
-1.98796 -1.07119 1.23174
-1.94767 -0.881 1.2319
-1.93193 -0.708889 1.22212
-1.93078 -0.701971 1.24933
-1.90701 -0.469989 1.22206
-1.87234 -0.345935 1.21922
-1.85724 -0.401438 1.22598
2.37631 -19.6645 -9.99502
-7.58732 -8.95779 0.464132
8.0345 -8.81736 -10.4883
8.27983 -8.64583 -10.5232
8.23128 -8.30597 -9.90448
6.9721 -11.9804 -11.4317
8.53525 -8.99331 -9.76256
7.86611 -8.95488 -9.15325
5.86113 -12.8207 -10.7477
9.45041 -8.85566 -9.76831
6.15937 -14.1194 -11.596
8.30538 -8.69775 -9.04168
8.0354 -9.18881 -9.12791
7.30706 -9.26454 -8.79075
5.9222 -14.1791 -11.2109
7.73528 -9.32609 -8.74281
7.87246 -9.13606 -8.68711
7.14304 -10.6011 -9.10092
6.83438 -11.0954 -9.23779
10.0815 -9.21845 -9.594
6.55319 -11.1979 -8.88198
8.05012 -8.64594 -7.86643
7.37638 -9.30049 -7.88828
8.53505 -8.70048 -8.10114
7.73827 -9.4946 -8.04663
6.50207 -12.8025 -9.37586
7.95112 -9.2012 -7.93116
5.00848 -16.0546 -10.8166
-0.4758 13.9219 -8.9074
7.74456 -9.26439 -7.74292
7.35282 -10.8892 -8.36556
8.39686 -8.58543 -7.65071
10.9081 -9.64945 -9.23723
9.01031 -8.83914 -7.91593
11.8053 -10.0667 -9.72282
8.0913 -8.55537 -7.24443
4.04406 -16.8492 -10.6198
4.25502 -15.3955 -9.80713
7.86291 -9.38062 -7.33514
3.95576 -15.6373 -9.61831
11.5174 -9.85992 -9.08021
6.88021 -11.1023 -7.75527
7.78692 -8.83606 -6.97678
5.49894 -14.0247 -8.90009
6.50323 -12.7341 -8.36761
8.38063 -8.61341 -7.00334
9.71422 -9.10575 -7.76349
2.7957 -11.8145 -6.95887
5.49537 -13.9385 -8.48279
9.62162 -9.13073 -7.49815
6.6325 -11.0942 -7.27769
3.34583 -20.6752 -11.738
8.90076 -8.96106 -7.08013
12.2326 -10.2627 -8.94504
6.83881 -11.0299 -7.22973
4.69375 -14.6425 -8.49753
6.2373 -12.6522 -7.75958
0.894162 18.6007 -10.1377
14.6814 7.75801 -9.0225
4.2134 -14.2728 -8.03708
14.7856 -11.7 -10.1633
15.0375 7.47272 -8.94475
14.0697 7.75224 -8.53581
4.77457 -14.8739 -8.30008
12.121 -10.1818 -8.33019
1.81305 -20.4629 -10.5689
11.4504 -9.88164 -7.74849
2.08079 -20.1952 -10.3023
14.0176 -11.1264 -9.05189
0.00193277 14.2723 -7.16396
-7.24674 15.0607 -8.37558
10.6246 -9.62796 -7.20433
7.53251 -9.4478 -6.01989
-8.44421 16.006 -8.74585
11.6796 -9.80896 -7.38208
10.5243 -9.61204 -6.84401
14.8435 -11.3798 -9.02112
16.8035 15.9185 -10.9969
7.50503 -11.0923 -6.38065
15.0756 7.44903 -7.89017
13.9769 -11.0675 -8.33223
-11.8459 16.9621 -9.47897
15.9042 -12.0507 -9.11569
9.79484 -2.45588 -4.63869
-9.09363 -1.65322 -4.20304
18.8598 18.1997 -11.8265
3.91989 -9.11422 -4.50299
-10.1249 16.5386 -8.7082
-5.32976 4.43193 -3.11691
6.87746 -11.3222 -5.96356
9.45145 -9.10924 -5.78938
16.0876 7.33904 -7.80126
-6.57932 14.9403 -7.12996
1.50218 -18.751 -8.13593
-11.073 16.8468 -8.67996
9.59994 -3.37677 -4.35889
7.03678 -11.0757 -5.54695
15.8866 -12.009 -8.33608
14.7114 7.77692 -6.98006
18.8992 19.6636 -11.3988
1.01899 -22.5563 -9.40045
-4.50324 13.7703 -5.96933
-9.91279 -1.10874 -4.13383
14.1473 7.81191 -6.59876
20.6371 22.4492 -12.4299
-13.0237 2.44067 -5.39775
15.1788 7.21198 -6.79673
-5.18057 14.1937 -6.0768
3.64393 -8.82183 -3.79907
12.4339 -10.3044 -6.32606
13.9946 -11.0499 -6.96829
19.4672 21.7885 -11.3345
18.8953 5.82669 -7.66746
1.54214 19.3181 -7.51444
-8.64843 15.5822 -6.87044
11.435 -10.0822 -5.8638
19.4117 22.5062 -11.4488
0.681316 15.4032 -5.90484
-1.65632 12.6981 -4.92652
2.71581 -12.2519 -4.81478
-8.75455 -1.25037 -3.36137
0.701688 -23.5583 -8.89379
15.246 -11.6837 -7.24389
9.50843 -3.46954 -3.81819
-14.4282 17.7867 -8.53623
-7.88124 -3.50102 -3.163
1.09552 -10.4515 -3.86503
7.04796 -11.2678 -4.86014
14.2577 7.96112 -5.89572
-8.28162 -2.84339 -3.14864
0.788578 15.318 -5.46948
-3.91925 13.2507 -4.88866
5.75162 -11.0138 -4.37252
15.9021 -12.0177 -7.05959
19.1721 5.92137 -7.05947
2.12557 20.7759 -7.32442
21.8704 26.4401 -11.925
-14.7145 18.1635 -8.0242
2.97796 -13.3662 -4.71317
-8.79499 15.887 -6.20598
18.5711 -13.1535 -7.79975
-4.99162 14.3388 -5.16299
1.35697 -22.1697 -7.36062
1.765 19.7071 -6.53665
1.4484 -10.3182 -3.44357
39.5199 -20.2018 -14.5654
6.18123 -10.067 -3.78133
17.6478 -12.461 -6.91932
2.12612 20.7797 -6.64815
-13.2021 17.6251 -6.94378
1.44627 -22.6269 -7.06484
-4.26059 14.5805 -4.72073
-10.8259 16.4032 -5.95704
-2.7213 -27.7059 -8.45865
3.06849 -9.4824 -3.02895
0.791645 -24.1503 -7.26713
19.2225 -13.6442 -6.99463
17.6789 5.59293 -5.44101
-7.79713 15.0937 -4.94624
4.23629 -10.5119 -3.29379
3.62845 -10.5906 -3.18618
4.25128 -10.9706 -3.3027
-13.1499 17.5766 -6.10684
-9.17405 15.6828 -4.94337
-13.1976 1.97837 -3.65922
-16.7105 19.1991 -6.91201
26.4883 -17.4377 -8.59284
-3.86227 -27.5435 -7.46065
3.78811 -9.15783 -2.65162
-9.68166 16.094 -4.99988
47.7566 -13.9439 -13.1922
10.5627 -9.42086 -3.74653
-6.36463 14.7359 -4.19368
-14.2416 17.8557 -5.99415
-7.86867 -37.2339 -9.91406
4.96681 -9.58808 -2.79502
6.57258 -10.5187 -3.19989
-7.11461 15.0996 -4.24345
-10.4261 16.2391 -4.93148
-9.70728 -38.4704 -9.86819
-8.85631 -38.2348 -9.58515
10.9744 -9.67437 -3.5974
-7.86569 15.2658 -4.16477
-11.5808 16.8327 -4.9466
14.6775 7.75315 -3.94023
4.0513 -9.26293 -2.39286
15.2829 7.56891 -4.01956
3.75125 -8.91922 -2.2746
-6.43113 -32.046 -7.56952
5.63562 -9.9006 -2.64047
45.1861 -10.9349 -10.8054
-12.6495 17.2305 -4.92089
14.9352 7.64887 -3.79669
44.2059 -9.56293 -10.2456
-9.66454 16.0985 -4.20332
3.72051 -9.26794 -2.17278
43.3589 -11.1232 -9.76968
15.1952 7.5384 -3.63273
-10.5018 16.3933 -4.17064
-21.648 -34.0329 -8.66585
4.82933 -9.76795 -2.35083
45.4883 -10.6509 -9.99556
-14.6011 18.0903 -4.89172
-31.9235 -23.5624 -8.41039
42.0769 -14.0787 -9.38653
14.9208 7.88449 -3.51989
-34.9846 23.6584 -8.63653
-8.21824 -33.6159 -7.00901
3.96173 -11.5342 -2.45153
45.0058 -9.71034 -9.36441
11.8162 -9.78101 -3.07625
43.3821 -11.1679 -8.92659
-26.6516 20.1119 -6.62779
6.15726 -10.3058 -2.39016
46.3976 -10.8499 -9.30631
-12.6308 17.2339 -4.12975
-26.5198 20.7832 -6.54775
16.1477 12.2144 -3.87036
-6.78557 14.937 -3.14982
-32.8109 -23.7324 -7.75123
-31.331 -24.5343 -7.64787
-35.2097 23.4623 -7.96803
-33.3242 -21.9828 -7.54453
18.1052 5.69219 -3.54264
-33.8529 -20.4258 -7.38409
-14.7518 -42.5312 -8.38726
3.77826 -9.84103 -1.98487
-23.8981 -59.4976 -11.9258
-16.4586 -44.3404 -8.65197
3.98234 -9.65223 -1.88342
13.1144 -10.2476 -3.00149
45.8654 -10.2063 -8.4399
-14.5588 18.0567 -4.14493
-26.6659 20.9144 -5.98363
15.1604 8.0252 -2.98803
-30.0056 -26.1477 -6.93741
43.2428 -11.0765 -7.66386
-7.82882 15.0815 -2.87877
-9.60959 17.6976 -3.40232
45.1265 -10.6229 -7.83924
-30.3531 22.1092 -6.3225
-30.0083 -23.0867 -6.32845
-20.5626 19.6613 -4.73364
-31.937 22.5547 -6.52312
15.9933 -11.933 -3.26995
-10.2031 16.1986 -3.04598
-42.7513 25.1563 -7.8702
-31.3622 -23.5604 -6.28005
-33.1829 -22.8885 -6.34935
3.43969 -9.51306 -1.58203
-23.4917 20.0677 -4.77188
16.9967 -12.0156 -3.22423
-11.0334 16.5131 -3.01755
46.5416 -10.9076 -7.25534
-22.3783 -51.8603 -8.53544
-29.1279 21.8453 -5.44447
-37.8803 23.6193 -6.62643
-31.3785 -24.3572 -5.92653
45.1227 -9.66954 -6.87109
-33.4486 -24.1904 -6.03187
-49.176 27.4571 -8.09895
-35.2305 -23.4992 -6.09611
6.76053 -12.9737 -2.12427
-35.9198 -20.8768 -5.88017
-6.84029 15.0811 -2.30003
-12.9561 17.4899 -3.02873
-31.7652 22.8697 -5.47143
-24.0836 -53.6355 -8.10802
-15.7984 -46.1846 -6.71369
37.033 -12.3157 -5.35225
-22.9114 20.1336 -4.05873
-32.0034 -23.9669 -5.22029
-30.3772 -24.9205 -5.19509
-33.6195 -23.1539 -5.22928
7.46398 -9.45398 -1.55756
43.2987 -11.0835 -5.73484
-33.0993 22.5235 -5.09048
-29.5898 -15.7894 -4.2755
6.0503 -7.83557 -1.26457
45.2767 -10.6419 -5.89645
-30.7087 22.5693 -4.75594
14.5694 -11.3508 -2.26904
-29.6529 22.3339 -4.49113
-32.2051 22.7661 -4.7489
-10.2278 16.2672 -2.22029
-31.2691 -22.4892 -4.5318
-22.5086 -54.1843 -6.82629
13.0427 -10.5488 -1.96367
36.1227 -11.9366 -4.40195
6.36175 -10.3744 -1.39881
11.2315 -9.73285 -1.67447
16.5278 -12.3057 -2.32196
-10.9349 16.3965 -2.18241
6.78822 -12.6479 -1.573
11.6419 -9.72215 -1.67972
43.1362 -11.0615 -4.88891
-38.5335 24.0262 -4.87413
45.3406 -10.5949 -5.01316
14.9845 -11.5064 -2.00994
-12.8058 17.3009 -2.21106
14.8445 7.85705 -1.67875
14.0657 -11.0961 -1.78962
-13.8461 17.7087 -2.18049
6.42906 -12.3205 -1.33778
9.43033 -8.94506 -1.25632
17.1042 -12.5067 -2.06791
-28.7131 -13.7206 -2.99814
-14.8124 18.1386 -2.18325
-36.0477 -70.2276 -7.34845
-33.7078 -21.0924 -3.52116
16.2176 -12.1524 -1.82362
38.8741 -12.9348 -3.6666
11.1509 -9.91226 -1.23296
43.5532 -11.1317 -3.74906
-15.939 -41.4777 -3.56947
-38.8148 -75.8973 -6.64093
17.7129 -12.9074 -1.73086
-29.8445 22.5873 -2.86323
7.46626 -9.19722 -0.916986
-32.4809 22.9923 -2.9566
-16.3325 -40.4038 -3.25731
-35.8721 -67.5025 -5.43673
-34.7336 -69.566 -5.32692
12.6211 -10.5035 -1.10522
17.1581 -12.497 -1.43488
-38.9718 24.2613 -3.00206
43.8149 -11.2177 -2.96859
-28.5156 -13.4087 -1.88733
-39.1897 -75.7131 -5.16339
14.5737 -11.3616 -1.11344
31.4493 -20.7173 -2.05776
31.4103 -19.7967 -2.02921
15.4204 7.61584 -0.89256
14.8566 7.87789 -0.864833
-12.7275 17.3685 -1.09288
-24.1992 -53.4007 -3.01245
-13.2895 -36.172 -1.91036
-26.9912 -15.5886 -1.47951
-41.0538 -77.3729 -4.27768
9.68412 -9.1206 -0.665387
13.5063 -10.7409 -0.847558
16.0594 10.2163 -0.899456
16.3655 11.4708 -0.93078
6.86183 -12.5853 -0.681646
-19.9704 -5.8926 -0.894212
-29.3648 -52.3311 -2.64781
10.2838 -13.8838 -0.706146
18.1533 -13.0912 -0.914606
43.0179 -10.9885 -1.76659
-9.36661 -12.3885 -0.599235
44.5737 -10.4377 -1.79988
22.4503 26.9901 -1.19799
-32.3966 22.1462 -1.36059
-36.2324 -20.3176 -1.35253
-17.9276 -44.6799 -1.54697
16.5649 -12.3583 -0.674258
14.442 3.91187 -0.441412
-25.3351 -58.2173 -1.90393
-22.5968 20.1291 -0.864901
-12.1573 -36.8644 -1.04389
43.4361 -9.22718 -1.24145
-41.5533 25.8465 -1.3236
-53.8683 19.3703 -1.37207
44.1398 -10.2498 -0.974376
-30.7014 23.2025 -0.769666
-30.265 9.62654 -0.66446
32.1813 56.3446 -1.19346
-29.9883 22.1324 -0.714323
13.0226 -10.6704 -0.291669
-34.4178 -21.4191 -0.628558
-29.9553 -60.2433 -1.0014
17.5806 -12.6787 -0.314828
-12.4209 -37.5513 -0.510428
-14.1211 17.9261 -0.232928
-19.7686 -45.4325 -0.538459
30.5181 -19.1146 -0.324504
-22.5893 20.1547 -0.205814
-9.89954 -12.7057 -0.0487466
7.04505 -11.752 -0.0236692
14.6815 7.67769 0.000424256
-35.4134 -21.8676 0.221666
-23.602 -40.3392 0.344498
-52.8975 28.9777 0.61605
6.71489 -11.9142 0.141715
8.02587 -9.1254 0.121491
-40.9049 -21.7472 0.509111
-11.3515 -32.1469 0.380341
11.1349 -9.70646 0.193736
-22.977 19.6327 0.397512
-12.3411 -19.1477 0.331187
-30.9817 22.0464 0.677082
-35.0669 -23.5094 0.755513
-34.5651 -25.5348 0.749822
10.6658 -9.58505 0.234065
7.80905 -9.62589 0.266406
7.91422 -9.23735 0.262519
-70.3177 24.3495 1.73897
18.1938 -13.207 0.547598
-28.6457 -8.6059 0.800413
-27.7984 21.7995 1.01741
11.6197 -9.95538 0.417445
17.3283 -7.51133 0.537913
-24.8466 21.073 0.969873
-7.90324 -9.26775 0.387618
12.7688 13.8827 0.670757
6.16738 -12.7075 0.497038
8.9289 -8.78629 0.428134
24.6417 -4.36662 0.837201
18.636 17.7971 0.930506
13.9738 24.1903 1.05055
-56.4576 18.5575 2.1392
24.4479 -4.74922 0.943735
-25.3196 20.6832 1.23575
9.40016 -8.94263 0.501687
22.4553 -3.0937 0.856546
12.2715 14.2131 0.768726
14.8615 19.2028 0.994413
6.54084 -12.4015 0.575582
18.2011 42.0688 1.91382
7.66915 -11.0515 0.567145
-7.55383 -7.43577 0.468295
-8.27636 -11.4505 0.631324
-29.5123 -11.6829 1.51168
16.4399 10.6724 0.97692
-7.73033 -7.19269 0.505668
15.3991 23.9241 1.47026
-6.95788 -8.19084 0.590799
14.6313 20.0356 1.3597
-25.9624 19.9919 1.81174
14.5182 23.6441 1.60683
-7.12863 -9.1893 0.664614
6.84488 -13.5645 0.872198
9.93618 12.4984 0.945169
14.7836 19.6418 1.54148
15.1317 26.9307 1.90232
10.4483 29.3022 1.97892
-7.30747 -9.97377 0.79101
9.5636 21.7948 1.59784
11.4483 10.0704 1.08694
11.4863 12.1465 1.18029
13.7504 15.8889 1.50395
8.21126 -12.6576 1.06518
10.782 9.00032 1.03353
12.9305 14.5029 1.4541
-14.3481 8.46129 1.25945
-11.1256 2.09591 0.856345
12.4752 16.2393 1.5895
11.6274 18.5308 1.69921
10.1036 -6.91443 0.956069
-7.6769 -8.12103 0.894021
12.7759 11.5649 1.40586
11.8758 11.6181 1.37934
-7.01347 -6.17078 0.759079
-7.06506 -6.90847 0.819627
11.4872 11.9909 1.43214
9.08451 -7.13902 1.00603
10.6494 9.38115 1.29037
-11.3955 2.91799 1.08089
-7.62729 -7.10412 0.936426
11.6512 8.99018 1.40938
9.23032 13.0528 1.5354
7.20188 13.252 1.47857
8.43059 13.108 1.56324
-6.75049 -6.72678 0.947262
7.86654 -6.53891 1.00133
9.6928 12.1406 1.55727
9.94214 10.156 1.46811
-6.88824 -5.4072 0.911262
9.61861 9.15921 1.41619
8.2004 11.1491 1.45102
6.76953 13.1264 1.5739
9.59159 8.36977 1.3477
9.18676 10.2322 1.49826
5.69638 12.548 1.49211
-6.39369 -7.5299 1.06749
6.69198 11.3898 1.45375
5.2521 13.1601 1.56365
-6.83131 -3.98419 0.873247
-6.70262 -6.08311 0.997238
3.92044 -7.76972 0.963489
5.4389 -6.09349 0.917779
9.35546 7.53144 1.35008
9.06568 9.64789 1.49316
7.92394 11.2863 1.54182
6.77782 10.6967 1.44435
-6.88458 -4.57287 0.937306
4.7077 -7.6811 1.04101
-10.6232 7.12144 1.48421
-7.09297 -2.13403 0.861903
9.00722 6.08472 1.29343
5.8939 12.0294 1.58349
4.98047 11.518 1.4804
4.77029 -5.85928 0.889396
4.11296 -7.88596 1.08153
8.33117 3.85886 1.15102
10.9541 5.46379 1.50472
4.56379 12.6983 1.68006
-6.16381 -5.39277 1.00449
-9.14009 1.30285 1.15063
8.25153 7.54694 1.41549
-6.44252 -5.32446 1.05714
7.78616 8.17795 1.45196
-6.89174 -3.57547 1.00526
4.96557 -5.96347 1.00196
5.0203 -5.42389 0.963754
8.39468 6.90676 1.44024
7.93632 7.84767 1.48522
-7.2069 -1.72479 0.99841
-7.03513 -2.21071 0.988114
-6.49141 -4.37679 1.04004
4.82763 -6.08539 1.03377
8.37831 6.34988 1.43012
-6.85501 -4.22118 1.08473
-6.05437 -4.44862 1.01042
4.9469 -5.53443 1.01941
7.41008 -3.51958 1.14191
8.35379 4.24125 1.3309
8.31736 4.57048 1.34684
-6.94442 -2.90901 1.07651
7.47744 -3.73201 1.19345
7.01585 -3.05469 1.07954
4.9382 -5.78555 1.0981
8.18996 -1.73297 1.21249
-6.96384 -3.25993 1.14039
7.37945 5.56063 1.38801
5.74512 7.41756 1.41738
7.97593 3.90831 1.35736
7.89746 4.18825 1.35932
5.42517 7.79035 1.44362
5.07124 8.66272 1.51697
3.49381 9.55716 1.53561
-7.01284 -2.82858 1.15279
7.67875 -2.79347 1.25176
7.84348 -2.23524 1.25877
7.79327 -2.01617 1.244
7.45345 4.19818 1.37959
7.05819 4.74608 1.39787
6.73214 4.90673 1.38542
5.37472 6.44083 1.3963
-7.21034 -1.36166 1.21494
4.98265 7.31746 1.47782
4.71519 7.21691 1.44748
-7.22468 -0.804782 1.21718
2.86454 -5.92695 1.10988
6.69069 4.08283 1.3394
6.49732 5.21923 1.41553
3.82806 7.92253 1.47715
-6.38401 -2.30246 1.15138
-6.29019 -2.68405 1.16631
3.77091 -5.23829 1.09904
-6.97869 -1.7971 1.25926
4.234 -4.64077 1.10413
6.65798 3.50599 1.35913
5.05249 5.58867 1.37719
3.63098 -5.3588 1.17894
3.35425 6.72632 1.40171
6.48983 3.04539 1.36214
6.42285 2.7121 1.33129
-1.65112 -5.71401 1.1417
-2.17308 -5.7687 1.20178
6.24889 2.37576 1.33648
3.93762 -4.57881 1.20136
-2.98214 5.56655 1.34616
-3.6056 5.18642 1.37632
4.20803 -2.92714 1.20509
-4.2655 3.91767 1.41085
4.58768 -2.18756 1.23374
4.47972 -1.26957 1.15795
3.7074 -2.93455 1.23194
3.67735 -2.58377 1.19261
3.4235 -2.97658 1.22458
-2.32258 -3.61873 1.20761
-2.50061 -2.92855 1.19771
1.86902 -2.48753 1.13004
1.93069 -2.64554 1.1947
-2.03748 2.7958 1.31052
-2.07298 -1.46462 1.1974
-1.82606 -1.8317 1.30297
-1.97738 -1.17243 1.20984
9.6863 -9.06048 -9.38836
9.24734 -8.93318 -7.66213
2.44536 -20.0424 -10.7228
3.67443 -9.3057 -4.5114
26.8456 33.353 -14.3798
2.07948 20.6282 -6.14832
-22.1962 -30.9184 -7.10696
9.52639 -8.78911 -1.62025
8.77405 -8.64551 -1.23512
8.9251 -8.80287 -0.929293
19.2439 -13.6257 -1.28927
43.836 -11.7742 -2.34978
-31.2789 -13.2287 0.342406
10.0813 6.9385 1.29956
-3.47992 5.29449 1.36044
7.98436 -8.2429 -10.2954
7.8454 -8.26929 -10.0348
8.37873 -8.4686 -9.86619
6.83984 -11.8088 -11.212
7.97693 -8.23711 -9.0709
8.01709 -8.71682 -9.1018
6.21518 -14.1497 -11.6278
5.86658 -14.1734 -11.2322
