ply
format ascii 1.0 
element vertex 1875
comment /media/mkaihara/Seagate Backup Plus Drive/model_iterations/model_36.ply
property float32 x 
property float32 y 
property float32 z 
end_header 
-7.05884 -1.99958 1.0221
4.97788 -5.2936 1.01591
7.25977 -3.74437 1.14771
7.37675 -3.67912 1.1693
7.8887 -3.36346 1.21929
-7.13922 -1.87064 1.0493
-6.99452 -2.94014 1.09928
-5.99936 -4.36715 1.06706
7.92342 -2.78872 1.22914
8.26978 4.6416 1.38961
5.03744 8.62982 1.46495
8.40736 4.52745 1.41145
7.84862 -2.34621 1.2077
7.18358 5.71859 1.3752
3.00151 9.5817 1.50204
-7.0786 -2.01515 1.10276
7.50019 -3.11651 1.22455
8.26602 4.5683 1.43179
5.82832 7.49578 1.44215
5.33259 7.69334 1.42677
5.16962 8.00963 1.44843
5.12357 8.12063 1.45364
7.34951 -3.17661 1.22304
7.69728 -2.76258 1.24551
-6.74191 -1.67923 1.04624
7.85067 -2.26231 1.25303
7.27286 5.45463 1.3962
-7.088 -1.94814 1.14043
-6.9062 -2.78035 1.15689
6.85111 5.55716 1.38396
-7.33732 -1.09305 1.15838
-7.12844 -1.8201 1.15195
-7.03148 -2.06309 1.1479
-7.10525 -1.86834 1.15263
-6.88157 -2.92849 1.17382
4.84998 7.52039 1.42359
3.44768 -6.03444 1.10985
-7.25853 -1.29634 1.18088
3.52877 -5.70886 1.08129
3.56556 -5.61407 1.07066
7.11369 4.79517 1.39821
4.7024 7.44283 1.43329
-7.05597 -2.01916 1.19582
-7.0778 -1.94273 1.20411
7.00883 4.85682 1.41051
3.85915 8.01765 1.47379
6.06291 -3.32461 1.15198
6.67508 4.90376 1.38129
4.70337 7.22926 1.43914
3.83719 -5.30168 1.10009
7.14791 4.45114 1.4181
7.5114 2.87226 1.35928
6.36259 5.31897 1.40586
-7.26202 -1.25278 1.25462
6.79167 4.10629 1.36327
-6.43941 -2.76702 1.19565
5.51634 -3.63421 1.1349
5.69867 -3.52347 1.15046
2.79036 7.95323 1.45801
-7.35475 -1.03703 1.28738
5.33971 -3.78763 1.14133
-6.29993 -2.2557 1.16009
-6.26074 -2.41262 1.17456
4.28257 -4.66625 1.10768
4.49619 -4.47938 1.11344
4.59429 -4.45156 1.12242
-6.78728 -1.72905 1.23353
4.36989 6.55639 1.40605
-7.14297 -0.926144 1.28717
-6.13408 -2.25404 1.1638
6.67569 3.71216 1.36954
6.13623 4.38784 1.36861
3.60891 -5.32783 1.17039
5.18602 5.72772 1.4137
2.54659 7.28865 1.45121
6.51701 3.06727 1.36214
-1.70719 -5.78463 1.14146
6.441 -1.38911 1.25035
6.30257 2.79099 1.32735
6.24547 2.39194 1.33458
-4.43409 3.92335 1.39109
4.34676 3.55225 1.34314
4.23046 3.30755 1.32986
4.6682 -1.67882 1.24593
4.82302 -1.38216 1.25536
-2.12992 4.77032 1.30369
3.72525 -2.95161 1.22209
3.67132 -2.54831 1.19333
3.40382 -2.95932 1.2251
4.01702 2.57776 1.33429
-2.5963 -3.53641 1.2513
-2.32814 -3.57345 1.21689
3.76397 2.06295 1.30542
3.74022 1.98491 1.30473
-2.83315 3.47331 1.38157
-2.29854 -2.42129 1.18783
1.95042 -2.77437 1.21038
-2.119 2.76035 1.32064
-2.02438 2.74862 1.32687
2.24664 -1.86641 1.2237
2.37667 -1.49611 1.22117
-2.01352 1.87408 1.29335
-2.0662 -1.44399 1.22865
1.4453 -2.06468 1.24294
-1.99395 -1.08842 1.21454
-1.92615 -0.708006 1.21986
-1.92787 -0.703777 1.24543
-1.95659 -0.344485 1.22848
-1.894 -0.564934 1.22967
-1.89358 -0.531124 1.23473
8.24988 -8.73069 -7.49184
12.1847 -10.337 -8.84199
-8.6493 15.4365 -6.8636
20.8509 25.3935 -11.8073
-8.77773 -2.51381 -2.5728
-33.897 -22.6433 -7.5309
-33.5191 -21.9205 -5.90985
-33.2457 -22.5932 -5.96973
-30.7352 -19.7115 -2.74605
9.3276 -8.88435 -0.393481
-7.48513 16.1344 -0.439039
-29.1192 -11.2681 0.71909
-6.89699 -8.24304 0.459024
17.0246 24.4466 1.61819
11.5478 16.2405 1.64819
-6.67902 -6.6521 0.881323
4.2939 12.4602 1.51925
8.80116 9.16774 1.48663
8.00295 -8.79699 -10.4182
8.8682 -8.57411 -10.5394
6.98224 -11.9783 -11.5531
6.89721 -11.389 -10.9325
8.18408 -8.29636 -9.56889
7.04596 -12.0677 -11.3622
7.09235 -11.0121 -10.493
8.03364 -8.41023 -9.23926
6.75255 -11.3248 -10.3248
6.4687 -11.7375 -10.2478
7.78789 -8.88486 -9.00651
6.22831 -14.3645 -11.847
8.33348 -8.73704 -9.13872
6.32275 -11.95 -10.2097
6.16842 -12.1266 -10.1444
7.52254 -9.48409 -9.03761
7.9407 -9.09115 -8.96109
10.5235 -9.50006 -10.5433
6.13935 -14.1536 -11.4025
6.11755 -13.7003 -11.0308
6.1527 -12.6177 -10.3242
9.23872 -8.86593 -9.39261
9.32711 -9.11381 -9.51049
5.88559 -12.5463 -10.0663
9.40319 -9.02998 -9.30343
6.89065 -11.1715 -9.3144
5.63491 -13.011 -10.0345
9.73953 -9.12534 -9.45789
7.64 -9.38151 -8.50591
10.0472 -9.23221 -9.58522
10.9739 -9.54213 -10.2034
11.5054 -9.75294 -10.1286
8.4204 -8.64422 -7.98899
7.46245 -9.33775 -7.89735
8.20384 -8.75689 -7.93083
7.66091 -9.39163 -7.92874
7.87076 -9.44201 -7.87773
8.357 -8.57237 -7.65266
0.353642 15.8599 -10.1222
7.56042 -9.36409 -7.65831
10.9704 -9.65929 -9.29282
7.26006 -10.7515 -8.20996
8.19076 -8.53411 -7.45935
4.62476 -15.4377 -10.1345
8.74987 -8.73634 -7.64969
7.95555 -9.07088 -7.44172
4.05754 -18.0461 -11.3929
8.23321 -8.66446 -7.30653
4.09082 -17.3152 -10.8559
0.139955 14.863 -9.04428
6.68489 -11.3125 -7.9992
7.77526 -9.30651 -7.35763
10.1821 -9.36416 -8.39311
6.85126 -11.3004 -7.9326
8.09663 -9.24517 -7.37633
11.3341 -9.75253 -8.93894
5.42151 -13.9058 -8.85103
7.76881 -9.30614 -7.18866
9.3963 -9.07686 -7.74081
6.93417 -11.1654 -7.77813
8.0187 -9.16786 -7.14629
9.80332 -9.2348 -7.84831
14.9628 7.47728 -9.71674
8.70915 -8.87339 -7.18382
6.96393 -11.0123 -7.4875
2.64784 -11.2412 -6.6413
7.89477 -9.11144 -6.90427
9.65504 -9.18736 -7.57016
10.8515 -9.54647 -8.15262
0.125156 15.3022 -8.63152
3.2768 -20.5568 -11.7064
6.82981 -11.0272 -7.27095
10.1599 -9.34033 -7.72811
12.4219 -10.4228 -9.0925
9.28566 -9.05127 -7.24539
4.63406 -14.344 -8.40283
8.04184 -9.25969 -6.81083
14.8863 7.61115 -9.18095
9.74755 -9.1538 -7.34329
0.83104 17.4763 -9.55533
2.73707 -19.7967 -10.8976
11.1934 -9.69947 -8.04114
4.25395 -14.4862 -8.17145
14.7988 7.73959 -8.99755
15.2083 10.5011 -9.92547
14.1276 7.79443 -8.62344
11.0129 -9.67225 -7.79369
13.3567 -10.8766 -9.16191
3.03886 -19.278 -10.2598
11.4223 -9.88215 -7.68452
2.16629 -20.3249 -10.3168
10.3192 -9.39479 -7.01676
14.37 -11.3655 -9.19789
13.9079 -11.2489 -8.95385
11.0733 -9.71228 -7.33746
7.54229 -9.37932 -5.95979
3.57093 -8.48601 -4.53702
-8.67368 -1.90442 -4.36573
2.21734 -20.0737 -9.90593
4.54123 -9.3169 -5.06878
0.398646 13.6628 -6.69191
7.64134 -9.31051 -5.877
-8.39262 16.0098 -8.7517
-9.17058 -2.42433 -4.57024
15.1117 -11.6694 -9.17422
19.5404 5.59107 -9.72118
-10.2747 -2.54387 -5.00636
1.90789 -20.4987 -9.78944
17.4057 16.3584 -11.3162
7.62052 -11.2651 -6.41668
20.203 5.45326 -9.85604
14.1253 -11.1827 -8.37706
2.9403 -17.3823 -8.19634
19.5208 5.77587 -9.40604
18.0039 -13.1202 -10.289
9.89451 -2.4993 -4.71583
20.461 5.18617 -9.74009
17.5355 16.4914 -11.0955
1.80622 -20.1421 -9.25555
9.71794 -9.08683 -6.09178
-9.18002 -1.66627 -4.25475
9.47914 -3.4783 -4.59916
6.74703 -11.3729 -6.01395
9.94217 -2.62615 -4.66479
19.4134 5.91986 -9.13866
17.9435 17.7999 -11.3654
9.39447 -3.09474 -4.45264
15.5569 -11.9707 -8.80788
7.07349 -11.6206 -6.08407
7.18379 -10.9653 -5.84244
9.58618 -3.41441 -4.53519
-9.88689 16.1999 -8.44662
17.813 -12.9998 -9.7981
19.7031 5.67604 -9.08953
16.2339 7.36369 -7.89542
18.0564 18.2399 -11.3542
16.5625 -12.3175 -9.09613
-11.096 16.8694 -8.87189
-6.48671 14.8164 -7.0887
-5.20841 4.88445 -3.10988
20.3104 5.51472 -9.15095
9.58507 -3.41467 -4.39166
18.4639 18.716 -11.3032
15.951 -12.2747 -8.65978
14.9774 7.48897 -7.14836
3.84948 -9.32745 -4.28677
-11.0259 16.7654 -8.49207
6.97625 -10.9556 -5.476
-13.4978 3.30789 -5.85451
0.74247 -22.25 -9.38224
15.9269 -12.0587 -8.35353
-5.13372 5.65205 -3.1932
0.995929 -22.1064 -9.27688
1.23222 -20.729 -8.69939
14.2784 7.65833 -6.77866
18.8119 19.6063 -11.3563
3.79216 -8.97618 -4.06325
14.8897 7.79205 -6.99704
18.1659 19.4035 -11.0339
-9.47945 -1.08798 -3.9385
4.01399 -8.51576 -3.85703
14.1453 7.811 -6.6351
6.87583 -11.0372 -5.31566
-13.541 2.52947 -5.63465
-7.86957 15.2402 -6.96721
19.5496 21.2449 -11.7
15.1948 7.30136 -6.79394
-5.22257 14.2526 -6.08343
14.0561 -11.1125 -7.01732
1.53646 19.3773 -7.55209
-8.639 15.598 -6.9262
19.157 5.84235 -7.76139
-1.7464 13.193 -5.15343
5.31405 -9.42591 -4.17253
-2.37117 13.3964 -5.22391
19.9099 23.0343 -11.6782
4.67212 -8.53608 -3.69534
19.5903 5.62015 -7.75653
0.869269 -26.1719 -9.95326
15.0235 -11.5769 -7.13695
20.1573 5.46112 -7.81749
9.46976 -3.45024 -3.7685
0.529595 -22.3794 -8.344
3.26344 -10.8419 -4.22926
20.5316 23.8892 -11.7017
0.908319 -8.70431 -3.2458
14.1299 -11.1899 -6.6454
20.5719 5.23231 -7.80581
18.1305 17.9164 -9.31786
-12.9636 2.27108 -4.78446
21.2166 25.3387 -11.9902
2.29631 -13.3036 -4.86296
13.123 -10.6122 -6.07237
0.793675 15.4961 -5.55359
-8.17802 -2.79078 -3.09066
0.408671 -21.6102 -7.72761
-4.17329 13.6845 -5.08638
0.636115 -21.7397 -7.72983
15.9912 -12.0774 -7.10181
-15.5146 17.9345 -8.35496
5.95095 -11.3797 -4.51476
-10.8809 16.4174 -6.87663
0.0952413 -18.3413 -6.44851
14.3694 -11.3877 -6.41023
20.5272 5.40613 -7.41033
0.654695 -22.8208 -7.88547
-4.95617 14.378 -5.20821
3.64826 -8.46852 -3.17384
4.89106 -9.05932 -3.52767
-14.3047 17.7577 -7.80277
2.28009 -10.9058 -3.81789
-8.77155 15.9081 -6.18982
3.04916 -13.7893 -4.81371
-14.773 18.1303 -7.92607
20.3439 5.53132 -7.0873
22.4995 27.8357 -11.9665
36.7385 -20.7385 -14.0961
-5.24254 13.8977 -4.93064
1.92618 20.9398 -6.98033
1.26772 -10.2438 -3.41289
33.0239 -20.7599 -12.8259
-5.19213 14.2881 -4.93518
-12.4177 16.9981 -6.82662
18.7562 -13.3654 -7.47809
3.56514 -8.68447 -3.00979
6.24596 -10.1547 -3.82021
2.31638 -11.0166 -3.58229
-4.45465 -33.4943 -10.7422
-1.11823 -23.4972 -7.48972
15.1671 10.4461 -5.81392
-13.03 17.3369 -6.85287
-17.7195 19.1111 -8.19056
3.00888 -9.70322 -3.20485
6.99997 -11.1549 -4.07085
1.37844 -21.7344 -6.7376
-2.52499 -26.9302 -8.30466
7.3258 33.8643 -10.5781
0.768989 15.0892 -4.59081
-10.9787 16.5628 -5.98698
-2.64549 -26.0045 -7.87404
-14.1406 17.6788 -6.75278
-5.18532 -34.0303 -10.2517
0.830542 -24.7102 -7.39392
-5.32028 14.6253 -4.62687
2.09567 20.9087 -6.19404
-20.945 19.5289 -8.44713
18.3706 5.84602 -5.67565
-4.24526 14.2473 -4.36887
-7.81908 15.1659 -5.00372
4.2707 -9.17467 -2.97406
4.66016 -11.6748 -3.67496
-12.548 2.21049 -3.66166
-31.9896 -45.3152 -15.9637
-14.9762 18.0153 -6.73277
7.00133 -11.1506 -3.78984
2.56964 -9.56565 -2.81403
13.0229 -10.5409 -4.76742
-8.42632 -2.45232 -2.4884
21.502 27.7334 -9.94639
-8.55266 -2.25417 -2.49927
-2.49399 -25.475 -7.1858
-12.9513 1.98463 -3.64859
4.41302 -11.3928 -3.39037
-9.17537 15.777 -5.00852
-12.8684 17.1611 -5.88971
-5.31654 14.1828 -4.13753
-8.25325 -40.0991 -11.2043
-21.1204 19.7087 -7.76451
-9.58908 15.8986 -4.97364
-26.2535 20.1672 -8.80596
11.5539 11.6294 -4.32754
4.35268 -11.3612 -3.22242
48.1069 -13.9847 -13.2703
-7.92991 -37.434 -10.0609
4.10536 -8.69084 -2.53052
11.2415 -9.99866 -3.93524
-14.2294 17.8155 -5.92703
6.56727 -10.4722 -3.19897
3.18947 -9.67934 -2.63429
-29.2356 -42.8194 -13.3905
-4.2419 -27.835 -7.28771
3.55811 -10.4206 -2.83878
4.08477 -9.42476 -2.63978
15.7468 -11.8404 -5.0262
-7.04007 14.9951 -4.19069
-30.6792 -40.9151 -12.9701
4.33647 -11.2066 -3.04064
4.26881 -7.72944 -2.24706
6.57403 -10.7229 -3.13623
45.7132 -13.8211 -11.9055
-27.7489 20.9353 -8.59275
-11.3529 16.678 -4.97193
-26.9008 -39.2436 -11.7002
-9.58071 -37.7181 -9.60217
-24.0523 20.2017 -7.71781
4.36947 -10.377 -2.76593
-11.8774 17.0116 -5.02888
-7.72438 15.0476 -4.07486
10.3319 -9.31937 -3.33124
41.0085 -13.622 -10.3392
15.2466 7.62518 -4.05956
-6.11809 -35.0533 -8.47912
3.97842 -9.11607 -2.35655
47.9667 -12.8379 -11.7838
-11.7117 -43.1305 -10.5905
4.22273 -9.03534 -2.37883
3.89008 -11.1566 -2.78381
4.92754 -8.72706 -2.35742
-12.5778 17.1395 -4.94605
11.0743 -9.70481 -3.36508
-6.0335 -30.607 -7.12022
-26.6568 20.5883 -7.63413
42.2662 -9.24353 -9.81751
-29.8948 21.7051 -8.28199
-34.8208 -22.8189 -9.32894
-5.2535 -25.0184 -5.70246
41.4498 -12.8134 -9.74004
5.47848 -9.51544 -2.4511
-12.3361 2.81483 -2.77625
41.3261 -12.1107 -9.51373
43.3624 -12.3725 -9.91973
28.2568 39.7988 -10.6951
-5.28461 13.8608 -3.2413
13.4954 -10.8596 -3.8123
38.6929 -12.4345 -8.93366
-22.9705 20.0199 -6.60844
-27.8428 -68.6479 -16.0783
4.33009 -9.74554 -2.31217
4.55905 -9.2204 -2.22139
-14.3364 17.8611 -4.88984
-30.3055 22.0133 -7.9974
-31.1562 22.1105 -8.16607
-26.4262 -70.1162 -16.0656
-10.5099 16.4215 -4.13255
-8.18467 -34.7509 -7.59421
3.20624 -9.73286 -2.18473
3.98777 -9.88234 -2.2717
46.6857 -10.8243 -10.2291
15.0775 7.55225 -3.57618
-14.8974 18.3381 -5.00099
5.18533 -9.0921 -2.19873
27.4293 39.689 -10.0864
-27.1912 -26.6096 -7.90045
15.1218 7.91412 -3.54466
-29.6664 -22.9114 -7.77651
-30.6944 -78.7051 -17.4942
41.2114 -11.0907 -8.82528
-11.2536 16.5801 -4.07066
-15.3544 18.1535 -4.83924
-34.3939 23.0878 -8.41694
45.2628 -9.87294 -9.44642
-12.7602 -41.0612 -8.7416
4.15623 -9.78183 -2.16197
4.28072 -9.74823 -2.16987
11.6797 -9.70906 -3.08982
-11.7905 16.9194 -4.11532
-18.9682 -54.4421 -11.525
-12.5498 -38.9885 -8.1112
4.09016 -9.97044 -2.13332
-33.5322 -22.929 -8.00857
-26.2166 20.5758 -6.55855
-32.5856 -23.309 -7.81035
-6.75832 14.9314 -3.1795
-25.2904 -59.4266 -12.5475
-33.0038 -21.9716 -7.64104
3.45236 -9.40694 -1.93458
46.7607 -10.8342 -9.21608
-12.5219 17.0959 -4.04987
4.00814 -9.38918 -1.94789
-35.8142 -21.7546 -7.93282
-20.7849 -33.7648 -7.5417
-14.998 -43.277 -8.66868
38.5328 -12.7111 -7.66946
-35.1155 23.5847 -7.916
-33.1212 -22.8742 -7.56227
-32.0916 -23.4794 -7.46485
-20.4255 -50.6041 -10.2705
-16.2609 -44.1711 -8.73312
3.83437 -9.24037 -1.84763
43.3564 -11.6854 -8.33755
5.78635 -9.76108 -2.0793
-23.4614 -53.2003 -10.6474
-19.6466 -48.7665 -9.51129
-14.2929 17.8163 -4.04909
-30.5668 -24.6528 -6.98084
-19.9584 -26.5953 -5.94686
-38.4043 24.2338 -8.01195
-26.2215 20.589 -5.80224
-33.3124 22.7956 -7.0082
3.9306 -10.1035 -1.87947
4.79038 -8.64598 -1.71755
14.1239 7.58505 -2.76607
14.2037 8.15083 -2.8058
-30.1605 21.9323 -6.39269
43.0296 -12.1741 -7.61233
42.8068 -11.0866 -7.52669
-30.7247 -24.4012 -6.65638
-20.6574 19.6735 -4.78976
-19.5621 -48.6248 -8.8578
14.9902 7.51322 -2.81312
-31.0092 21.9527 -6.34613
-22.5279 -53.7122 -9.62636
44.4071 -11.963 -7.4743
-10.1521 16.1165 -3.07265
-19.8227 -49.1783 -8.4584
-34.2719 -23.658 -6.56277
-22.3343 19.6226 -4.65495
-23.6927 20.2256 -4.82771
-39.1016 23.6749 -7.08322
-11.0053 16.4711 -3.05716
3.49096 -9.58042 -1.57665
3.89377 -10.2963 -1.70403
-7.45097 15.1116 -2.57215
-30.3769 22.1092 -5.74303
-31.2167 -24.1108 -5.99841
-27.4684 -25.6936 -5.69849
43.0072 -11.1806 -6.75363
45.7481 -9.967 -7.13243
-6.39598 14.2448 -2.33499
9.86886 -5.173 -1.65382
-32.9069 -23.7342 -6.0426
-25.0519 -63.3465 -10.105
10.2537 -9.21924 -2.05467
45.9012 -10.6188 -6.99589
-35.9774 -23.9497 -6.3613
-30.9523 -25.5307 -5.86979
-12.2043 -40.4399 -6.21681
17.084 -12.3602 -3.08822
-24.8697 20.476 -4.68133
-23.6537 -53 -8.36485
-7.45192 14.9246 -2.38414
-12.4651 16.9954 -3.00428
6.08093 -11.6173 -1.87325
-13.1454 17.57 -3.08169
-33.8871 22.8916 -5.74938
6.80613 -11.1174 -1.82153
38.251 -12.6237 -5.6645
-30.6156 -24.5323 -5.47578
-32.2286 23.1613 -5.49797
-19.7804 -47.6752 -7.13042
46.0583 -10.3039 -6.5073
-6.70789 14.8337 -2.22349
-21.5232 -56.1738 -8.17361
7.7913 -9.42881 -1.64125
9.23528 -9.09151 -1.78738
-13.7308 17.5321 -3.00143
13.321 -10.6246 -2.30518
-21.7789 19.8107 -3.9587
42.9338 -11.1007 -5.88657
45.7704 -10.0257 -6.20108
-22.1608 19.5018 -3.85996
-32.1196 -24.0345 -5.24029
-14.6036 17.8826 -2.98479
-33.2474 22.1911 -5.18965
-37.7057 -15.9208 -5.28504
7.06032 -10.5001 -1.62315
10.8704 8.90011 -1.80501
-33.2235 -22.8954 -5.16387
-30.7213 22.4274 -4.81157
-34.9652 -21.8185 -5.16627
42.7844 -11.0648 -5.52963
6.83829 -10.4322 -1.55835
-7.48163 14.9641 -2.07055
-24.4964 20.5692 -3.91676
-32.6103 22.9829 -4.92136
6.34636 -12.1712 -1.67176
45.7192 -9.75423 -5.72524
15.1405 7.93233 -2.05588
-17.3421 -42.0024 -5.48037
7.13143 -10.5988 -1.53784
-20.2919 8.9932 -2.6273
-13.778 -41.6792 -5.16263
-31.3016 -24.1329 -4.62194
-30.793 -24.6265 -4.61438
42.878 -11.4859 -5.21646
11.3049 -9.73561 -1.72823
-29.2094 22.1481 -4.21754
6.68627 -10.8943 -1.46305
7.52598 -9.2658 -1.36529
11.662 -9.79 -1.72918
9.48316 -4.62634 -1.19495
15.1172 7.76842 -1.91631
-10.1323 16.1303 -2.1492
-31.4313 22.9672 -4.36126
39.6067 -13.0382 -4.67531
9.40831 -9.07281 -1.44584
-10.8395 16.2569 -2.12362
6.85554 -12.9065 -1.58258
45.8675 -9.96873 -5.08784
10.8708 8.93338 -1.51743
16.9415 -12.5846 -2.26459
43.0822 -11.1738 -4.76841
9.67287 -9.02897 -1.40171
8.41884 -8.50437 -1.2535
-30.373 -24.3054 -4.05097
-28.7676 -57.7024 -6.72692
15.1131 7.57949 -1.72815
-31.2463 -24.0928 -4.0486
-12.5943 17.1687 -2.16177
-12.5217 16.7761 -2.08056
10.2672 -9.14119 -1.34654
-19.9297 -50.6145 -5.33368
6.37378 -12.2061 -1.33237
16.8068 -12.2961 -2.00133
42.9715 -11.5471 -4.26449
-29.2326 -59.0904 -6.2676
-19.8509 -52.0952 -5.29518
-22.8339 19.9727 -2.83621
46.6064 -10.3682 -4.45892
9.77119 -9.03766 -1.23197
40.4724 -13.3509 -3.97056
-14.714 18.0371 -2.10798
-29.3138 -13.365 -2.93701
-30.7648 -59.9739 -6.21347
16.0072 -11.9813 -1.81851
8.6799 -8.77137 -1.11732
12.9911 -10.7235 -1.46662
46.1841 -10.7048 -4.06057
9.45398 -9.07804 -1.10164
11.0221 -9.7064 -1.23431
-33.3402 22.8966 -3.36627
17.0099 -12.4042 -1.74332
-16.3011 -42.4186 -3.64014
14.8123 -11.5822 -1.49909
-11.4106 -31.9447 -2.67772
-29.1404 22.1573 -2.83156
-32.3066 22.8357 -3.05479
-21.768 -49.7243 -4.19077
-49.5938 26.9914 -4.27663
-20.9492 19.7166 -2.09309
-32.5281 23.0084 -2.88823
16.5416 -12.3599 -1.51021
43.0055 -11.5085 -3.24278
-37.0738 -70.1473 -5.72589
14.0928 -11.1503 -1.28582
-15.0109 -39.8201 -2.93731
10.8353 -9.67667 -0.995155
-22.8555 20.0123 -2.05222
12.9699 -10.7022 -1.12541
18.146 -13.1612 -1.49406
-22.3229 -51.4307 -3.70574
16.1986 -12.2524 -1.34103
-14.1496 -39.2313 -2.69786
44.8402 -11.6621 -2.89544
-30.2434 -61.2782 -4.16986
36.4488 -8.84262 -2.30139
43.9589 -10.0616 -2.76797
6.11732 -13.2233 -0.870519
31.5095 -20.8499 -2.26007
-9.61626 16.0531 -1.10013
-15.0356 -39.2218 -2.39175
16.7775 -12.5387 -1.17571
-9.62014 -12.4709 -0.863218
15.1074 7.75065 -0.918634
14.0177 -11.0965 -0.957126
-12.5197 16.9663 -1.10166
-15.9144 -39.4452 -2.25882
15.0015 7.88828 -0.831273
-15.7277 -40.2022 -2.11795
-13.8566 17.5635 -1.07024
9.61944 -9.07373 -0.606421
-22.8972 -52.5234 -2.59228
12.544 -10.3123 -0.752665
-15.3701 -42.8456 -2.02064
-16.6037 -40.908 -1.88982
6.92519 -12.7877 -0.644955
-13.3761 -40.7752 -1.82767
-50.9236 27.6944 -2.34958
18.5423 -13.3215 -0.926255
16.9743 -12.6171 -0.823401
-38.8372 -75.3793 -3.1981
-17.4695 -45.8108 -1.80523
-32.8341 22.5603 -1.45801
43.4953 -11.2072 -1.61682
-32.5964 -64.8397 -2.42717
-24.6749 -54.075 -2.00058
20.6038 23.8296 -1.04715
-20.9917 19.6715 -0.938054
8.21456 -14.4983 -0.559405
9.47422 -9.04465 -0.424508
11.3768 -10.0157 -0.492565
18.801 -13.2938 -0.756436
35.4491 -13.3703 -1.25679
22.5104 27.2489 -1.13461
-27.0508 -13.5684 -0.948786
-22.4171 19.9628 -0.915567
-30.9606 21.9281 -1.18498
-23.7768 -54.6635 -1.84551
-13.3422 -37.7454 -1.2327
-20.5011 -52.2964 -1.70005
-15.9571 -43.2473 -1.3201
-33.4617 -20.2885 -1.04236
11.5263 -9.77825 -0.404799
16.4997 -12.2723 -0.541836
-39.9396 24.7083 -1.2397
-29.5732 22.5026 -0.920317
-30.0916 22.0537 -0.882962
9.6217 -9.05776 -0.306043
-40.474 13.989 -0.947476
-30.2221 -50.6076 -1.32688
21.5387 -14.4052 -0.569217
31.0585 -18.8331 -0.819208
14.3306 3.9604 -0.303568
28.7397 50.2226 -1.0658
23.8267 -11.0927 -0.462587
48.2403 -11.1084 -0.920235
-30.1462 -21.6641 -0.676926
-29.0048 -28.4884 -0.644448
-18.2475 -44.7752 -0.804399
12.8177 -10.5404 -0.272892
18.7327 -13.5362 -0.352917
-28.9038 -12.847 -0.41545
-32.2466 -24.1325 -0.56032
-31.5684 -63.6393 -0.957873
-26.4027 -56.1935 -0.84972
-33.3388 -22.7686 -0.527064
-29.5892 22.5114 -0.438744
17.1754 -12.8263 -0.254284
29.8337 -18.4985 -0.41255
-30.0561 22.0656 -0.416186
-37.2895 -20.836 -0.480949
-18.4119 -42.2268 -0.492101
-11.6399 -35.0357 -0.371144
-31.9229 -56.2477 -0.59482
-14.0209 17.7855 -0.17451
-26.3976 -13.3088 -0.238839
-14.6981 17.9171 -0.159189
-22.0938 19.7319 -0.153358
-20.5685 19.2928 -0.129171
-10.4813 -13.4745 -0.0599055
14.8682 7.81065 -0.0206343
11.1828 -9.83349 -0.00773336
-33.9454 -18.5926 0.0590094
-11.0058 -32.7093 0.113134
17.1315 -12.4467 0.0921369
-18.1538 -41.6777 0.203051
18.9938 -13.3826 0.123682
7.24308 -12.4509 0.105199
26.3484 -10.8102 0.1755
-53.8211 19.2181 0.54359
16.4106 -12.1621 0.195236
38.1268 -7.78421 0.367605
-28.743 -8.1048 0.349021
-35.6471 -21.5158 0.459278
-11.0172 -31.5657 0.359438
-52.6762 28.8699 0.732975
-12.3357 -34.1831 0.433582
-10.0035 -30.7488 0.388812
6.4004 -13.0827 0.185972
7.26759 -11.1963 0.175572
-27.5581 21.6324 0.535306
11.3907 -9.94802 0.22747
-23.6147 20.195 0.511817
10.9728 -9.7975 0.230975
13.0757 -10.7644 0.266979
37.042 -7.92769 0.630642
-33.9533 -22.7481 0.74355
-30.5266 21.8269 0.735667
6.21053 -12.9761 0.279163
7.07396 -11.1325 0.254158
8.07063 -9.47042 0.243033
29.1959 60.0342 1.45048
7.77157 -9.49584 0.277462
10.1902 -9.22972 0.331764
-28.482 -9.13295 0.720217
-22.8337 19.9305 0.818929
-26.9802 21.274 0.920962
-28.6101 -8.59057 0.786889
9.23997 -8.94417 0.347443
9.67867 -8.99567 0.360242
-25.036 21.1008 0.888471
25.6636 -5.19185 0.729213
13.0854 -10.7348 0.504314
15.1837 24.7355 0.894855
6.25609 -12.9062 0.451305
7.51769 -11.719 0.436949
-28.1501 -7.93913 0.959354
-12.4675 -19.0892 0.751512
-27.8389 -8.70096 1.00817
16.2957 11.1536 0.713437
-29.4139 -18.2266 1.20958
16.2117 28.1613 1.15905
-30.0353 -16.3833 1.26784
23.7782 -4.29381 0.873152
-27.4508 -19.5234 1.24836
-7.27365 -7.93074 0.406033
9.09978 -8.87371 0.472501
12.5941 13.7768 0.719377
27.5222 56.7767 2.38862
26.3382 56.0769 2.33201
-11.5003 -9.10295 0.578259
8.76757 -8.71304 0.489002
-25.1326 20.7034 1.32064
22.0412 -2.98724 0.901256
-28.4223 -17.2637 1.36238
9.4661 -8.97578 0.534899
12.6294 14.5454 0.828456
6.64012 -12.5751 0.603827
15.1309 19.6602 1.0903
21.3351 29.4696 1.59293
-9.42909 -13.71 0.731533
-9.89695 -15.4784 0.815784
7.65127 -11.0277 0.591354
8.66766 -8.75761 0.556845
24.4399 -3.74405 1.11653
-29.5212 -8.60285 1.40325
6.79137 -11.1649 0.601251
-8.24614 -8.11514 0.544417
22.2887 44.9704 2.40071
-28.1882 -17.4213 1.56647
-9.70144 -13.6081 0.795593
9.7143 -9.01324 0.624181
16.3035 45.307 2.33034
-29.8828 -13.2359 1.55984
-6.74315 -8.22086 0.523146
15.1076 35.1333 1.95105
-29.3938 -11.5106 1.58401
-7.57284 -6.96345 0.519912
-6.68304 -7.57592 0.510977
16.5984 30.0681 1.78299
10.6652 12.471 0.886582
14.4755 19.6988 1.31225
9.39522 -8.97352 0.696132
15.0702 19.6083 1.36525
15.6154 24.118 1.58178
-26.9945 19.007 1.80831
-6.95297 -8.17119 0.594935
-25.9269 19.8938 1.81557
6.15813 -13.0026 0.804826
-7.08209 -9.1269 0.658796
10.0684 12.5761 0.947254
15.2628 25.7161 1.7468
6.52927 -13.1137 0.842943
14.1304 23.0535 1.5969
-8.23321 -8.09288 0.695527
11.6499 11.7304 0.985703
14.9212 19.8455 1.49155
-7.36862 -9.97496 0.771314
7.05863 -11.2486 0.809249
11.332 -9.77459 0.907293
5.90637 -10.8275 0.765259
-7.17893 -6.63553 0.610758
14.737 20.9055 1.61818
16.2707 7.22233 1.15576
-7.02276 -6.13581 0.611788
6.53268 -13.5909 1.00478
9.61302 21.7143 1.60189
10.5284 12.6901 1.1271
13.7604 18.503 1.60817
12.6282 20.9376 1.69177
11.459 12.1048 1.16983
6.63223 -9.89103 0.843282
11.6064 11.8745 1.20154
9.84224 -6.94768 0.857251
12.4792 12.081 1.27554
9.97066 -8.42015 0.956071
-6.11268 6.62493 0.672226
10.5092 9.25364 1.05176
12.1036 18.097 1.63803
11.6582 18.5738 1.65229
-6.9284 -7.67968 0.801978
11.037 19.0497 1.68918
9.55871 -8.99959 1.01462
10.5982 14.2265 1.39073
-6.40737 -4.29337 0.608076
9.34942 18.7315 1.67299
10.1187 -6.9242 0.98177
12.5694 11.6621 1.386
9.91947 19.2598 1.74447
-7.23972 -9.60283 0.979616
6.74669 -9.42062 0.94285
12.3562 11.8204 1.40105
12.2616 12.0589 1.42806
11.531 12.0525 1.38086
-5.02768 -11.4751 1.0541
10.422 13.0393 1.4203
-6.94758 -6.07105 0.79456
-6.80357 -6.68268 0.805433
-5.18894 -11.3807 1.0639
-7.28236 -7.7275 0.914342
9.31733 -7.28163 1.0217
-7.10259 -8.03732 0.938625
-7.00038 -7.67225 0.913349
9.48738 12.6638 1.40288
-6.93395 -8.35023 0.969668
10.8912 9.13847 1.29569
10.5789 13.625 1.55852
10.5991 9.30878 1.29131
7.82209 14.199 1.49119
-6.48287 -8.11664 0.95176
-6.88298 -8.9923 1.04523
11.2924 10.8912 1.44759
11.3295 9.2437 1.36828
10.9599 10.8939 1.44857
6.59376 15.2377 1.56039
-11.3757 2.91427 1.10064
-6.35297 -4.16543 0.711472
-6.79331 -6.28242 0.857937
9.53866 13.4524 1.59091
-5.98627 6.5046 0.869661
7.98281 -6.62784 1.01121
8.02808 13.3862 1.55062
-7.05188 -7.59946 1.04438
9.39623 11.749 1.5175
7.09118 12.5909 1.46671
7.15389 13.1798 1.52898
9.60119 9.15738 1.37316
5.95661 14.2003 1.59639
9.2368 12.5628 1.62583
-6.09928 -4.45095 0.791215
6.05319 13.9094 1.59819
6.31474 13.8323 1.59889
-6.95842 -4.4201 0.881506
8.83007 9.08252 1.35053
9.21097 10.2613 1.49974
7.40202 11.1145 1.45141
5.89678 11.6149 1.41645
-6.28596 -7.39479 1.06078
10.3202 6.486 1.34869
9.04835 8.18957 1.34537
7.39172 11.8155 1.53914
6.92346 11.7674 1.50969
5.4304 12.0591 1.47178
4.94177 12.2843 1.48178
4.79125 13.9344 1.62157
9.92091 7.09353 1.36186
8.82321 9.37906 1.43901
5.45225 11.6665 1.45048
-6.82702 -6.70925 1.06529
6.9358 10.8259 1.44854
4.39793 13.417 1.59633
9.78091 -3.20512 1.14766
-6.0949 -5.4058 0.943033
7.30607 -6.13411 1.08291
10.4641 5.74146 1.369
-7.36388 -0.983473 0.85093
-6.24732 -5.3475 0.946388
5.25134 -5.56016 0.881136
5.13763 11.7846 1.49378
-6.87093 -4.55117 0.954816
4.46027 -7.27288 0.986621
10.4536 5.17137 1.36867
8.93799 7.93297 1.40301
-5.99422 -4.3625 0.863789
-6.47489 -5.26456 0.98567
4.10085 -7.88295 1.05667
4.96994 -5.85413 0.921316
10.2091 4.77368 1.35109
8.57331 8.32501 1.44757
5.3448 11.6444 1.5644
9.08874 6.29629 1.35383
8.06409 8.39249 1.45813
-6.4783 -5.73657 1.07705
3.71251 -7.58521 1.05764
8.72033 6.72377 1.38479
-6.45704 -5.33548 1.05994
9.13303 6.04106 1.39813
8.22832 7.17981 1.39341
8.16122 7.55113 1.4198
5.78261 -5.35069 1.01149
-6.95983 -4.43539 1.05915
8.15245 8.0493 1.48615
-7.34055 -1.04 0.95753
-6.91136 -2.82159 0.97462
9.0084 4.11607 1.29714
8.44547 6.66286 1.4123
5.00273 -6.03328 1.03023
4.92106 -6.19834 1.04801
6.87984 -4.28871 1.07917
-7.11926 -1.71487 0.981359
-6.99687 -2.21596 0.980922
-6.01781 -4.41677 0.997741
8.17749 6.69322 1.43275
8.64266 4.45652 1.32587
8.6677 5.18881 1.37994
8.07333 7.17816 1.47059
-6.79726 -3.72737 1.05237
8.89429 4.17499 1.34502
8.30335 5.86055 1.39189
-6.38866 -4.32274 1.0553
-5.95009 -4.51946 1.02024
5.40751 9.11264 1.46392
3.6899 10.2087 1.50808
-7.35084 -1.09047 1.02875
-6.89236 -3.92031 1.10018
4.95202 -5.54708 1.02767
5.23226 -5.40243 1.04384
7.47675 -3.54328 1.15712
3.43358 10.2982 1.52175
8.43514 4.6166 1.36037
7.38793 -3.68459 1.1712
7.60089 -3.34101 1.18376
7.77672 -3.31203 1.19943
8.96714 2.82352 1.35325
4.83666 -5.63879 1.06785
7.36613 -2.85788 1.15036
-6.94627 -3.29435 1.12032
7.93381 -2.78512 1.226
8.68481 -1.82431 1.30271
5.0535 8.65249 1.47946
2.99325 9.56864 1.49228
7.74719 -1.8916 1.17537
7.26441 5.78538 1.38384
3.50024 9.68388 1.52276
3.23094 9.93364 1.54886
-7.35303 -1.04094 1.10075
-7.06058 -2.01909 1.09411
6.98443 6.32269 1.42259
-6.25373 -2.26826 0.998028
-7.2242 -1.37227 1.10967
7.97293 4.83813 1.42095
5.74941 7.4086 1.42317
5.33309 7.68978 1.42458
5.09895 8.08068 1.44495
6.76906 -3.23025 1.13433
7.25836 -3.12992 1.21055
7.65027 -2.76062 1.23944
-7.29906 -0.731197 1.11986
-7.08303 -1.95055 1.13359
6.79881 -3.09728 1.15544
3.75106 -5.78849 1.06663
-7.03918 -2.0719 1.15007
-7.32901 -1.09036 1.16311
7.39217 4.79478 1.39178
-7.18284 -1.44035 1.1652
-7.25518 -1.29817 1.18223
-7.08326 -2.01497 1.19726
7.0994 4.7832 1.39756
-7.08683 -1.94151 1.20673
7.03929 4.88573 1.42347
6.64339 4.87286 1.3751
5.23766 6.2809 1.36269
4.70819 7.22609 1.44079
3.85837 8.00864 1.47819
-7.23314 -1.37047 1.22859
2.7912 -5.77448 1.08122
7.1703 4.44622 1.42149
6.54326 5.26227 1.41678
3.87458 -5.36659 1.11603
3.93707 -5.02153 1.08024
-7.25592 -1.2496 1.24864
-6.58716 -2.62079 1.20252
7.43921 2.85655 1.35172
7.05526 3.90522 1.37437
-6.4041 -2.7486 1.18541
6.79955 4.11379 1.36447
5.68819 -3.52319 1.1517
-7.37872 -1.03718 1.28821
-6.34669 -2.27677 1.15891
5.54042 -3.6513 1.14381
5.32322 -3.77706 1.14415
3.62671 7.22211 1.42215
-6.78638 -1.73181 1.22969
4.48177 -4.4692 1.11393
-7.07634 -0.912606 1.27064
4.72794 -4.46035 1.15032
4.35784 6.53697 1.40232
6.60739 3.48516 1.34923
6.64803 3.69501 1.36654
-6.42986 -1.49787 1.18709
3.60901 -5.32661 1.17049
5.10432 5.64244 1.39348
-6.14594 -2.18 1.19483
3.41236 -5.15744 1.15015
3.41452 6.82533 1.42839
-1.69796 -5.78219 1.14453
6.46246 2.73947 1.33593
-2.14317 -5.72708 1.17536
6.32637 2.80371 1.33238
-2.78702 -5.37538 1.18631
-3.50063 5.31504 1.37772
4.48672 3.90752 1.35824
4.15117 -2.87879 1.1772
4.63073 -2.18727 1.23762
4.21218 3.3018 1.32611
3.70626 -2.92936 1.22367
4.02776 2.58075 1.33679
-1.4456 -4.12373 1.22309
-2.32362 -3.58326 1.21323
3.86831 2.36958 1.31466
-2.85067 3.51235 1.35511
-2.4834 -2.91947 1.19006
-2.38091 -2.94078 1.19506
1.83755 -2.80386 1.1791
1.86064 -2.78239 1.20914
1.98678 -2.52005 1.19574
-2.03811 2.79837 1.31537
2.80224 -0.555354 1.25892
2.78191 -0.336652 1.24081
-2.09206 -1.62105 1.21357
-2.07967 -1.45285 1.23855
-1.86514 -1.7983 1.2843
-1.9971 -1.13259 1.20488
-1.98854 -1.07144 1.23167
-1.9482 -0.881192 1.23179
-1.9324 -0.709031 1.22196
-1.93124 -0.702105 1.24916
-1.90739 -0.470077 1.22182
-1.87269 -0.346007 1.21895
-1.85763 -0.401522 1.22573
2.37477 -19.6401 -9.98277
-7.57096 -8.93847 0.463142
8.04658 -8.83035 -10.5036
8.29137 -8.65758 -10.5374
8.24283 -8.31738 -9.918
6.98212 -11.9966 -11.447
8.54908 -9.00761 -9.77791
7.87762 -8.96768 -9.16619
5.86853 -12.8355 -10.7599
9.46739 -8.87136 -9.78546
6.16712 -14.1353 -11.6088
8.31862 -8.71139 -9.05569
8.04821 -9.20316 -9.14198
7.31809 -9.2782 -8.80351
5.93033 -14.1967 -11.2245
7.74767 -9.34073 -8.75633
7.88486 -9.15015 -8.70033
7.15367 -10.6163 -9.11373
6.84494 -11.1118 -9.25124
10.1025 -9.23754 -9.61362
6.56334 -11.2145 -8.89488
8.06281 -8.65934 -7.87848
7.38834 -9.31527 -7.90061
8.54929 -8.71479 -8.11431
7.75175 -9.51086 -8.06018
6.51285 -12.8225 -9.39025
7.96456 -9.21649 -7.94415
5.01243 -16.0639 -10.8227
-0.477396 13.9101 -8.90002
7.75735 -9.27941 -7.75528
7.36609 -10.9083 -8.37996
8.41132 -8.60004 -7.66356
10.933 -9.6713 -9.2579
9.02624 -8.85454 -7.92958
11.8361 -10.0929 -9.74775
8.10553 -8.57027 -7.25685
4.04546 -16.8503 -10.6204
4.25854 -15.4047 -9.81287
7.87682 -9.39695 -7.3477
3.95747 -15.6401 -9.61998
11.5467 -9.88489 -9.10291
6.89258 -11.1216 -7.76851
7.79874 -8.84919 -6.98704
5.50699 -14.0433 -8.91163
6.5143 -12.7547 -8.38082
8.39491 -8.6279 -7.01498
9.73447 -9.12456 -7.77932
2.79919 -11.8269 -6.96593
5.50719 -13.9669 -8.49959
9.64217 -9.15008 -7.51381
6.64395 -11.1127 -7.28956
3.3426 -20.6456 -11.7215
8.91758 -8.9778 -7.09318
12.266 -10.2906 -8.96904
6.85064 -11.0483 -7.24158
4.70106 -14.6628 -8.50899
6.2488 -12.6744 -7.77289
0.892434 18.6143 -10.1457
14.7295 7.78367 -9.05302
4.21996 -14.2924 -8.04781
14.836 -11.7396 -10.1973
15.0876 7.49779 -8.97543
14.1153 7.77757 -8.5644
4.78066 -14.8902 -8.30894
12.153 -10.2085 -8.35179
1.81173 -20.4315 -10.5529
11.4797 -9.90677 -7.76794
2.07952 -20.1687 -10.2889
14.0639 -11.163 -9.08128
-9.92545e-05 14.2657 -7.1609
-7.2044 14.9701 -8.32423
10.6503 -9.65107 -7.22138
7.54728 -9.46612 -6.03132
17.7917 5.53711 -9.09024
-8.39168 15.904 -8.68921
11.7118 -9.83587 -7.40203
10.5495 -9.6349 -6.86006
14.8945 -11.4187 -9.05164
16.8882 15.9994 -11.0539
7.52235 -11.1176 -6.39482
15.1275 7.4748 -7.91812
14.0204 -11.1017 -8.35772
-11.7605 16.8385 -9.40887
15.9622 -12.0945 -9.14841
9.8101 -2.45974 -4.64611
-9.07718 -1.65022 -4.1953
18.9741 18.3107 -11.8998
3.92533 -9.12642 -4.50882
-10.055 16.4226 -8.64616
-5.31672 4.42086 -3.10877
6.89346 -11.3481 -5.97685
9.47144 -9.12836 -5.80136
16.1456 7.36559 -7.8301
-6.53772 14.8431 -7.0826
1.50277 -18.7423 -8.13209
-10.992 16.7222 -8.61478
9.61472 -3.382 -4.36573
7.05294 -11.1007 -5.55916
15.9435 -12.0518 -8.36548
14.7624 7.80404 -7.00502
19.0188 19.7888 -11.4726
1.01755 -22.4888 -9.37266
-4.48107 13.698 -5.9373
-9.89281 -1.10651 -4.12538
14.1958 7.83889 -6.62219
20.7909 22.6172 -12.5244
-12.9831 2.43306 -5.38069
15.2322 7.23744 -6.82133
-5.14968 14.1054 -6.03817
3.64931 -8.83449 -3.80433
12.4677 -10.3322 -6.34296
14.0421 -11.0873 -6.99154
19.6002 21.9384 -11.4137
18.9687 5.84939 -7.69782
1.54361 19.3655 -7.53374
-8.58575 15.4676 -6.81898
11.4653 -10.1087 -5.87902
19.5515 22.6693 -11.5332
0.679924 15.4184 -5.9112
-1.6523 12.6534 -4.90882
2.71732 -12.2558 -4.81628
-8.73942 -1.24821 -3.35546
0.700276 -23.4555 -8.85552
15.3035 -11.7276 -7.27076
9.52298 -3.47487 -3.82416
-14.3169 17.6486 -8.46914
-7.86969 -3.49589 -3.15832
1.09482 -10.4404 -3.86109
7.06452 -11.2938 -4.87109
14.3083 7.98951 -5.91736
-8.26878 -2.83898 -3.1437
0.787545 15.3374 -5.47701
-3.89402 13.161 -4.85468
5.76427 -11.0375 -4.38166
15.9641 -12.0645 -7.08671
19.2485 5.945 -7.08812
2.13566 20.8954 -7.36801
22.0666 26.6782 -12.0341
-14.5905 18.0099 -7.95544
2.98405 -13.3907 -4.72147
-8.72485 15.7589 -6.15499
18.6575 -13.2147 -7.83556
-4.95756 14.2374 -5.12561
1.353 -22.0791 -7.33098
1.76846 19.7712 -6.55886
1.44843 -10.3153 -3.44262
39.8849 -20.3882 -14.699
6.19318 -10.0861 -3.78832
17.7252 -12.5156 -6.94925
2.13118 20.8521 -6.67231
-13.0906 17.4756 -6.88405
1.44027 -22.5079 -7.02823
-4.23063 14.4732 -4.68517
-10.7349 16.2645 -5.90581
-2.69073 -27.4075 -8.36866
3.0733 -9.49656 -3.0333
0.788386 -24.0003 -7.2226
19.3185 -13.7123 -7.02909
17.7451 5.6139 -5.46184
-7.73307 14.9684 -4.90431
4.24499 -10.5328 -3.30012
3.6367 -10.6139 -3.19293
4.26176 -10.9969 -3.31036
-13.0334 17.4204 -6.05179
-9.09429 15.5456 -4.8993
-13.1574 1.97234 -3.64796
-16.556 19.0213 -6.84725
26.6658 -17.5544 -8.6498
-3.8084 -27.1645 -7.3593
3.7944 -9.17262 -2.65575
-9.59776 15.9537 -4.9555
48.2267 -14.0812 -13.3215
10.5908 -9.44592 -3.75632
-6.30702 14.6008 -4.15434
-14.1153 17.6969 -5.94014
-7.74407 -36.6492 -9.75966
4.97732 -9.60815 -2.80067
6.58813 -10.5433 -3.20717
-7.04827 14.9576 -4.20263
-10.3352 16.0968 -4.88752
-9.54034 -37.8116 -9.70054
-8.69413 -37.5373 -9.41175
11.0057 -9.70192 -3.60746
-7.79497 15.1275 -4.12626
-11.4767 16.681 -4.90129
14.7327 7.78239 -3.95559
4.05851 -9.27908 -2.39689
15.3397 7.59714 -4.03501
3.75802 -8.93505 -2.27849
-6.34255 -31.6089 -7.46724
5.64799 -9.92211 -2.64602
45.6026 -11.0357 -10.9046
-12.5349 17.0741 -4.87557
14.9913 7.67768 -3.81146
44.6026 -9.64879 -10.3372
-9.5757 15.9499 -4.16382
3.72932 -9.2897 -2.17768
43.7471 -11.2228 -9.85682
15.2527 7.56693 -3.64693
-10.4045 16.241 -4.13125
-21.3919 -33.6304 -8.56389
4.84088 -9.79112 -2.35622
45.9117 -10.7501 -10.0883
-14.4645 17.9209 -4.84535
-31.6403 -23.3534 -8.336
42.45 -14.2035 -9.46935
14.978 7.91478 -3.53388
-34.5716 23.3791 -8.53417
-8.08218 -33.0606 -6.89428
3.97436 -11.5702 -2.4589
45.4194 -9.79963 -9.4502
11.8527 -9.81119 -3.08557
43.7715 -11.2682 -9.00642
-26.387 19.9123 -6.56162
6.17419 -10.334 -2.3965
46.8398 -10.9534 -9.3947
-12.5121 17.0717 -4.09033
-26.2495 20.5714 -6.48063
16.2297 12.2766 -3.89067
-6.7156 14.782 -3.11639
-32.5152 -23.5185 -7.68153
-31.0484 -24.313 -7.57908
-34.7955 23.1864 -7.87396
-33.0333 -21.7908 -7.47881
18.1764 5.71456 -3.55692
-33.5645 -20.2518 -7.32131
-14.4749 -41.7336 -8.2309
3.78862 -9.86774 -1.99005
-23.299 -58.0069 -11.6282
-16.1491 -43.5072 -8.49027
3.99183 -9.67498 -1.88769
13.1574 -10.2812 -3.01118
46.2956 -10.3021 -8.5188
-14.4193 17.8837 -4.10474
-26.3915 20.6992 -5.92174
15.2196 8.05662 -3.00015
-29.7289 -25.9067 -6.87362
43.6323 -11.1764 -7.73262
-7.75073 14.9305 -2.84936
-9.50285 17.5005 -3.36379
45.5467 -10.7219 -7.91198
-30.0221 21.8681 -6.2533
-29.7536 -22.8908 -6.27488
-20.3611 19.4686 -4.68691
-31.5797 22.3024 -6.44989
16.059 -11.9821 -3.28317
-10.1041 16.0413 -3.01592
-42.1946 24.8287 -7.76752
-31.0872 -23.3538 -6.2251
-32.8889 -22.6856 -6.2932
3.44867 -9.53763 -1.58595
-23.2592 19.8691 -4.7244
17.0723 -12.0691 -3.23835
-10.927 16.3538 -2.98802
46.99 -11.0128 -7.32499
-21.8983 -50.7483 -8.35308
-28.8134 21.6095 -5.38548
-37.4225 23.3339 -6.54619
-31.0978 -24.1392 -5.87361
45.5387 -9.75874 -6.93423
-33.1421 -23.9687 -5.97669
-48.4642 27.0598 -7.98158
-34.9046 -23.2818 -6.03979
6.7901 -13.0303 -2.13324
-35.6026 -20.6925 -5.82832
-6.76093 14.9058 -2.27269
-12.8294 17.3188 -2.99875
-31.4053 22.6106 -5.40928
-23.5572 -52.4634 -7.93137
-15.4673 -45.2171 -6.57368
37.3259 -12.4132 -5.39433
-22.6827 19.9326 -4.01803
-31.7181 -23.7532 -5.17381
-30.1052 -24.6973 -5.14865
-33.3186 -22.9466 -5.18254
7.48231 -9.47717 -1.56127
43.6907 -11.1839 -5.78653
-32.7244 22.2684 -5.03273
-29.3837 -15.6794 -4.24576
6.06078 -7.84916 -1.26672
45.7024 -10.742 -5.95166
-30.3656 22.3172 -4.7027
14.6262 -11.395 -2.27772
-29.3255 22.0873 -4.44144
-31.8398 22.508 -4.69496
-10.1237 16.1015 -2.19736
-31.0045 -22.2989 -4.4935
-22.0094 -52.9833 -6.67535
13.0877 -10.5852 -1.97031
36.4024 -12.029 -4.4358
6.38062 -10.4052 -1.40282
11.2651 -9.76196 -1.67937
16.601 -12.3603 -2.33206
-10.8265 16.234 -2.16052
6.81673 -12.701 -1.57937
11.6778 -9.7522 -1.6848
43.5264 -11.1616 -4.93291
-38.0599 23.731 -4.81423
45.7686 -10.6949 -5.06028
15.0444 -11.5524 -2.01782
-12.6793 17.1301 -2.18904
14.9027 7.88787 -1.68567
14.119 -11.1382 -1.79627
-13.7103 17.535 -2.15896
6.45648 -12.3731 -1.34328
9.45411 -8.96762 -1.25942
17.1822 -12.5638 -2.07717
-28.5269 -13.6316 -2.97872
-14.6662 17.9597 -2.16159
-35.0587 -68.301 -7.14698
-33.4212 -20.9131 -3.49123
16.2884 -12.2055 -1.83142
39.2021 -13.044 -3.69731
11.1849 -9.94249 -1.23663
43.953 -11.2339 -3.78329
-15.6559 -40.7412 -3.50616
-37.6531 -73.6258 -6.44212
17.7983 -12.9697 -1.73904
-29.5114 22.3353 -2.83136
7.48505 -9.22042 -0.919227
-32.1089 22.7291 -2.92285
-16.0546 -39.7165 -3.20192
-34.9369 -65.7428 -5.29488
-33.7735 -67.6431 -5.17953
12.6646 -10.5397 -1.10894
17.2368 -12.5543 -1.44132
-38.4881 23.9603 -2.96498
44.2211 -11.3218 -2.99593
-28.3336 -13.3231 -1.8753
-38.0333 -73.4791 -5.01077
14.6311 -11.4064 -1.11772
31.7243 -20.8985 -2.07544
31.6759 -19.9641 -2.04606
15.4818 7.64618 -0.896376
14.9157 7.90925 -0.868543
-12.5994 17.1938 -1.08193
-23.6719 -52.2373 -2.94659
-13.0815 -35.6058 -1.88033
-26.8183 -15.4888 -1.47001
-39.8189 -75.0454 -4.14858
9.70994 -9.14495 -0.667111
13.5554 -10.78 -0.850553
16.1352 10.2646 -0.904016
16.4499 11.5299 -0.935918
6.89343 -12.6434 -0.684665
-19.8894 -5.86869 -0.890646
-28.7952 -51.3162 -2.59615
10.3331 -13.9505 -0.709401
18.2431 -13.156 -0.919002
43.4095 -11.0886 -1.78252
-9.33461 -12.3461 -0.59717
44.9916 -10.5356 -1.81661
22.6966 27.2862 -1.21178
-32.0365 21.9002 -1.34574
-35.9185 -20.1415 -1.34075
-17.5925 -43.8451 -1.51775
16.6392 -12.4138 -0.677176
14.4872 3.92411 -0.442957
-24.7172 -56.7973 -1.85703
-22.3698 19.927 -0.856455
-11.9511 -36.2392 -1.0259
43.8291 -9.31072 -1.25257
-41.0058 25.5061 -1.30652
-53.1595 19.1155 -1.35438
44.55 -10.3451 -0.983306
-30.3496 22.9368 -0.761174
-30.0414 9.55545 -0.659785
32.9682 57.7227 -1.22382
-29.6586 21.8892 -0.706794
13.069 -10.7085 -0.292649
-34.1224 -21.2352 -0.623065
-29.2418 -58.8084 -0.976916
17.6636 -12.7386 -0.31622
-12.2073 -36.9057 -0.501257
-13.9808 17.748 -0.230863
-19.4003 -44.5861 -0.527933
30.7703 -19.2726 -0.326987
-22.3636 19.9534 -0.204089
-9.86445 -12.6607 -0.0485244
7.07255 -11.7979 -0.0237241
14.7394 7.70795 0.000231942
-35.1028 -21.6757 0.219853
-23.2576 -39.7506 0.339974
-52.1027 28.5424 0.606209
6.74208 -11.9624 0.142307
8.04587 -9.14817 0.121805
-40.5134 -21.5391 0.504361
-11.1946 -31.7025 0.375543
11.1687 -9.73599 0.194348
-22.7531 19.4415 0.393233
-12.2684 -19.0351 0.329414
-30.6428 21.8054 0.6692
-34.7504 -23.2972 0.748873
-34.2421 -25.2962 0.743028
10.6972 -9.61327 0.234773
7.8301 -9.65187 0.26713
7.93427 -9.26078 0.263189
-69.1368 23.9407 1.70915
18.2846 -13.273 0.55039
-28.4771 -8.55523 0.795652
-27.5021 21.5672 1.00606
11.6569 -9.98728 0.418798
17.392 -7.53898 0.539903
-24.5892 20.8547 0.95933
-7.88526 -9.24667 0.386749
12.8463 13.967 0.674618
-27.5228 -19.5807 1.16649
6.1977 -12.77 0.499448
8.95101 -8.80807 0.429193
24.7627 -4.3881 0.841305
18.7756 17.9304 0.937234
14.1328 24.4656 1.06221
-55.7095 18.3116 2.11031
24.5673 -4.77245 0.948342
-25.0626 20.4733 1.22269
9.4245 -8.96581 0.502985
22.5542 -3.10737 0.8603
12.3485 14.3023 0.773349
14.9863 19.364 1.00252
6.57022 -12.4573 0.578134
18.5882 42.9639 1.95413
7.69536 -11.0893 0.569071
-7.54059 -7.42274 0.467453
-8.25177 -11.4165 0.629515
-29.3271 -11.6096 1.50219
16.5222 10.7258 0.981661
-7.71689 -7.18019 0.504762
15.5653 24.1822 1.4859
-6.94503 -8.17571 0.589706
14.7605 20.2125 1.37151
-25.7074 19.7955 1.79337
14.6763 23.9016 1.62413
-7.11368 -9.17006 0.663242
6.88149 -13.6371 0.876788
9.99315 12.5701 0.950449
14.9112 19.8113 1.55463
15.3237 27.2725 1.92628
10.6314 29.8158 2.0135
-7.28976 -9.9496 0.789139
9.67821 22.056 1.6169
11.5002 10.1161 1.09176
11.5484 12.2121 1.18655
13.8457 15.999 1.51425
8.24596 -12.7111 1.06963
10.8263 9.03727 1.03767
13.0127 14.595 1.46323
-14.2797 8.42096 1.25307
-11.0971 2.09054 0.853925
12.5658 16.3572 1.60094
11.7286 18.692 1.71391
10.1256 -6.92954 0.958139
-7.66211 -8.10538 0.892297
12.8412 11.624 1.41296
11.9371 11.678 1.38637
-7.00364 -6.16213 0.757966
-7.05414 -6.89781 0.81833
-7.03361 -8.90695 0.97772
11.5485 12.0549 1.43971
9.10282 -7.15342 1.00804
10.6947 9.4211 1.2958
-11.3638 2.90987 1.07763
-7.61456 -7.09228 0.934835
11.6994 9.02739 1.41515
9.28731 13.1334 1.54485
7.25238 13.3449 1.48895
8.4848 13.1923 1.57328
-6.74072 -6.71706 0.945857
7.87953 -6.54972 1.00296
9.74701 12.2085 1.56594
9.98799 10.2029 1.47484
-6.87953 -5.40037 0.910039
9.65891 9.19758 1.42209
8.2442 11.2086 1.45876
6.81791 13.2202 1.58519
9.62848 8.40196 1.35284
9.23001 10.2803 1.50529
5.73839 12.6406 1.5032
-6.38362 -7.51803 1.0658
6.73184 11.4576 1.46244
5.29546 13.2688 1.57669
-6.82369 -3.97975 0.872165
-6.69376 -6.07508 0.995868
3.92659 -7.78189 0.96494
5.44457 -6.09984 0.918711
9.38845 7.55799 1.35481
9.10594 9.69074 1.49978
7.9674 11.3482 1.55029
6.81488 10.7552 1.45228
-6.87651 -4.5675 0.936113
4.715 -7.69299 1.04257
-10.5811 7.09319 1.47791
-7.08474 -2.13156 0.86075
9.03408 6.10287 1.29726
5.93415 12.1116 1.5944
5.01566 11.5995 1.49098
4.7741 -5.86396 0.890085
4.11968 -7.89883 1.08323
8.34957 3.86739 1.15354
10.9868 5.48006 1.50917
4.60203 12.8049 1.69436
-6.15699 -5.38681 1.0033
-9.12158 1.30021 1.14806
8.28072 7.57364 1.42049
-6.43507 -5.31831 1.05584
7.81614 8.20944 1.45756
-6.8841 -3.57151 1.00402
4.96999 -5.96877 1.00282
5.02404 -5.42793 0.964456
8.42213 6.92935 1.44495
7.96557 7.8766 1.4907
-7.19821 -1.72271 0.997036
-7.02711 -2.20819 0.986827
-6.48452 -4.37214 1.03883
4.832 -6.09088 1.03468
8.40385 6.36924 1.43448
-6.84722 -4.21638 1.08339
-6.04854 -4.44434 1.00934
4.95068 -5.53865 1.02017
7.41827 -3.52348 1.14316
8.37326 4.25113 1.334
8.33756 4.58158 1.3501
-6.93674 -2.90579 1.07518
7.48595 -3.73626 1.19479
7.02271 -3.05768 1.08059
4.94232 -5.79039 1.099
8.20042 -1.73519 1.21402
-6.95607 -3.2563 1.13898
7.39949 5.57574 1.3918
5.76661 7.44534 1.42275
7.99339 3.91686 1.36033
7.91535 4.19774 1.3624
5.4471 7.8219 1.44955
5.09538 8.70402 1.52432
3.51707 9.62099 1.54611
-7.00498 -2.82541 1.15135
7.68756 -2.79667 1.25319
7.85277 -2.23789 1.26026
7.80242 -2.01854 1.24545
7.47001 4.20751 1.38267
7.07506 4.75743 1.40123
6.74854 4.91869 1.38882
5.39218 6.46179 1.40091
-7.20147 -1.35998 1.21324
5.00197 7.34589 1.48368
4.7336 7.24514 1.45326
-7.21538 -0.803751 1.2154
2.86558 -5.92912 1.11027
6.70488 4.09149 1.34226
6.51397 5.23261 1.4192
3.84669 7.96122 1.48455
-6.37779 -2.30021 1.15008
-6.28425 -2.68152 1.16505
3.77216 -5.24001 1.0994
-6.9707 -1.79504 1.25763
4.23546 -4.64236 1.10451
6.67075 3.51272 1.36176
5.06674 5.60447 1.38117
3.63225 -5.36066 1.17935
3.36814 6.75434 1.40774
6.50118 3.05072 1.36456
6.43336 2.71654 1.3335
-1.65075 -5.71262 1.14136
-2.17236 -5.76673 1.20131
6.25833 2.37936 1.33854
3.93856 -4.5799 1.20166
-2.97016 5.54362 1.33999
-3.5934 5.16856 1.37102
4.20865 -2.92757 1.2053
-4.25572 3.90852 1.4071
4.58897 -2.18817 1.23413
4.48111 -1.26995 1.15835
3.70728 -2.93446 1.23195
3.67715 -2.58364 1.1926
3.423 -2.97615 1.22446
-2.32302 -3.61931 1.20763
-2.50109 -2.92904 1.19771
1.86724 -2.48526 1.12914
1.92898 -2.64329 1.19382
-2.03459 2.79128 1.30789
-2.07363 -1.465 1.1974
-1.82684 -1.83233 1.30312
-1.97801 -1.17274 1.20982
6.91416 -6.925 -8.8918
9.70537 -9.07812 -9.40642
9.2651 -8.95015 -7.6765
2.44397 -20.0191 -10.7105
3.67863 -9.31567 -4.51608
27.138 33.7175 -14.5388
2.08379 20.6944 -6.16893
-21.9669 -30.5992 -7.03391
-27.9081 -25.9559 -5.87648
9.54961 -8.81052 -1.62412
8.7948 -8.66597 -1.23798
8.94669 -8.82418 -0.931487
19.3446 -13.697 -1.29586
44.2454 -11.8843 -2.37155
-31.0665 -13.1389 0.340094
10.115 6.96166 1.30385
-3.46772 5.27557 1.355
7.99552 -8.2542 -10.3094
7.85654 -8.28081 -10.0486
8.392 -8.48182 -9.88142
6.84936 -11.8243 -11.2264
7.98912 -8.24952 -9.0844
8.02953 -8.7301 -9.1155
6.22241 -14.1642 -11.6396
5.87431 -14.1902 -11.2453
9.10737 -8.8532 -9.31144
7.64442 -9.22593 -8.68389
7.87359 -9.12898 -8.61837
7.22982 -10.7117 -9.19561
10.2604 -9.3406 -9.72644
6.43729 -11.0943 -8.76365
8.19119 -9.09526 -8.20769
7.35264 -9.3452 -7.93671
7.97642 -9.22274 -8.01667
5.03445 -15.9635 -10.7978
-0.527692 14.3183 -9.19713
7.32012 -10.8124 -8.37581
7.6251 -9.15568 -7.62357
11.0344 -9.84561 -9.38853
7.06966 -10.9481 -8.12271
8.21218 -8.6209 -7.39678
0.10679 14.3282 -8.73207
7.77855 -8.74808 -7.05295
11.5362 -9.79371 -9.13154
9.00739 -8.93553 -7.49824
6.59231 -12.8714 -8.53072
5.52412 -14.0016 -8.84546
7.06827 -11.1213 -7.56383
5.1201 -12.853 -7.76889
3.16337 -19.3086 -10.9708
6.63003 -11.1253 -7.25691
7.8743 -9.0762 -6.7381
12.2457 -10.2572 -8.93266
-0.4923 14.3348 -7.8725
9.73638 -9.5377 -7.47379
13.3492 -10.7013 -9.22808
15.1961 10.4088 -9.89812
15.1528 7.44562 -9.02425
13.9622 7.69852 -8.43476
11.4663 -9.8952 -7.78205
-0.0688979 15.2388 -7.70998
2.36221 -19.4382 -9.89199
10.7206 -9.61047 -7.24304
7.3669 -9.30437 -5.9536
14.2052 -11.2667 -9.12897
18.1983 -13.0122 -10.8839
18.7722 5.79646 -9.54762
2.65499 -19.4741 -9.54533
12.919 -10.6722 -8.10182
15.515 -11.8125 -9.45919
7.32946 -10.8042 -6.28766
15.1225 7.41345 -7.83983
7.11445 -10.9438 -6.08359
6.24479 -10.6663 -5.72391
10.0338 -2.51784 -4.75658
17.5203 -12.8012 -9.96949
-11.5906 16.6344 -9.23792
3.54922 -9.05146 -4.4044
-10.0443 16.417 -8.64598
16.1193 7.29095 -7.91816
-11.0437 16.7982 -8.66734
-6.99554 6.78374 -4.19542
-6.42128 6.40434 -3.85917
1.20178 -15.4671 -6.59441
20.2721 21.0047 -12.2551
16.3512 -12.3574 -8.61751
15.2811 7.50999 -7.11714
-10.0206 -1.09348 -4.18564
20.2753 22.0721 -12.311
14.2112 7.85247 -6.61061
16.544 7.45196 -7.29132
15.1305 7.78603 -6.82764
1.48912 -17.9047 -7.01598
18.8384 5.81271 -7.63158
19.7725 22.0674 -11.4638
0.766212 16.3374 -6.28546
-9.19806 -1.33404 -3.60078
0.707094 -23.8961 -9.09371
17.0536 -12.6134 -7.93373
14.2758 7.97195 -5.91249
0.53438 -22.3555 -7.88297
-3.99361 13.4189 -4.91074
-10.4034 15.9859 -6.67325
-0.844302 -22.4626 -7.90426
-14.6926 18.1297 -8.06805
-8.72941 15.7655 -6.18163
-4.93997 14.0628 -5.0226
1.27742 17.7569 -5.93461
-5.25024 13.9821 -4.92126
39.386 -20.237 -14.6172
12.5604 -10.3894 -5.25286
8.05138 -9.22429 -3.92289
7.42941 -8.82422 -3.57066
-4.15064 13.9612 -4.38017
11.6079 -9.84495 -4.59394
15.2593 9.60449 -5.16528
13.7579 -10.7428 -5.00819
-5.38877 14.3606 -4.31465
-13.1481 17.6445 -6.20765
15.8391 10.7064 -5.26759
-9.41573 15.8202 -4.89078
-26.4315 20.4712 -8.72887
-23.3249 19.5931 -7.87868
-6.98014 14.8139 -4.18501
-7.7584 15.0508 -4.12709
-25.4312 20.0693 -7.89326
-3.22937 13.1987 -3.25182
-11.4757 16.649 -4.83092
3.11694 -9.57169 -2.38049
14.8994 7.948 -3.98756
-32.6133 -25.6033 -9.72405
5.42686 -11.7004 -3.03839
50.5256 -12.1859 -12.0785
-6.96257 -34.0653 -7.99318
-9.50963 15.9474 -4.24251
15.2015 7.44884 -3.83613
-29.3686 21.352 -8.05984
-11.743 -42.0302 -9.58764
3.74207 -9.45412 -2.23917
43.4027 -10.9975 -9.67197
-34.1163 -22.4072 -8.70035
-14.4517 17.9323 -4.78129
14.7754 7.89185 -3.48018
-31.304 -23.6875 -8.08198
9.34421 -9.25032 -2.72665
44.1696 -11.229 -9.34823
47.0171 -9.97134 -9.69954
-27.782 20.852 -6.85069
-20.6145 -33.5097 -7.73561
5.56357 -10.4668 -2.27034
-32.5051 -23.4845 -7.58279
-33.9299 -22.389 -7.59224
-14.4254 17.9318 -4.17865
15.4619 7.58155 -3.03517
-5.12273 13.6663 -2.56619
-18.115 19.3828 -4.68945
-20.8818 -49.7204 -9.40577
-21.7708 -35.1204 -7.13203
-33.0248 22.374 -6.76597
9.176 -9.02531 -2.18424
-30.3176 22.0847 -6.1039
-31.41 -23.5999 -6.27458
-19.1741 -51.0334 -8.70907
43.5097 -11.0471 -7.16001
-43.0747 25.4415 -7.88306
