ply
format ascii 1.0 
element vertex 1860
comment /media/mkaihara/Seagate Backup Plus Drive/model_iterations/model_55.ply
property float32 x 
property float32 y 
property float32 z 
end_header 
-29.1815 -24.2832 -7.46909
-30.2661 -24.8921 -7.68775
-35.9169 -22.3144 -8.22261
46.3734 -10.6523 -9.25096
-28.0283 -25.5763 -7.31427
-32.8438 -24.5794 -7.84389
-34.1271 -23.302 -7.83136
-32.0851 -22.4086 -7.42531
-30.5026 -24.7853 -7.37929
-30.9755 -25.5002 -7.57774
-30.4795 -25.3945 -7.48804
-23.3032 -31.1734 -7.3401
43.1582 -11.2632 -8.36076
-35.1475 -21.8599 -7.7251
-34.2352 -23.6441 -7.73225
-32.1685 -24.2811 -7.50413
-31.0542 -24.4111 -7.38375
-22.1554 -53.0844 -10.7034
-32.0379 -24.4793 -7.37793
-31.2445 -25.9052 -7.43811
-22.8556 -53.2138 -10.6473
-16.9665 -47.3595 -9.21711
-34.2842 -23.9398 -7.62203
40.2658 -10.5399 -7.59943
3.86323 -9.84196 -1.91627
-31.0554 -25.5172 -7.23479
3.95404 -9.30782 -1.81902
42.0341 -11.7726 -7.80847
-31.207 -25.8753 -7.15507
-15.3145 -22.201 -4.77288
8.83862 -4.26577 -1.71
44.9656 -10.2773 -8.14427
43.9118 -12.5743 -8.00976
-29.8746 -25.655 -6.86749
40.8964 -12.6132 -7.38959
-31.0893 -24.3781 -6.79363
-30.4963 -25.8082 -6.736
-30.8587 -24.1429 -6.52386
41.6185 -12.0594 -7.16285
44.9511 -10.3015 -7.48519
-24.0945 -56.8262 -9.72759
-31.8427 -24.7791 -6.21442
45.4814 -10.416 -7.09805
-31.5473 -24.9116 -6.06242
-33.3005 -23.6335 -6.02163
-29.2186 -24.8436 -5.6454
-33.9347 -22.9489 -5.95692
-21.2739 -52.0817 -8.19694
-34.1565 -23.3096 -5.84905
42.2868 -11.013 -6.23012
-32.4477 -24.4519 -5.72923
-31.9249 -24.4771 -5.71572
-30.5546 -25.4313 -5.57083
-29.4224 -26.2487 -5.54251
-30.8444 -25.213 -5.54808
39.1928 -12.8722 -5.75621
-35.3969 -22.6238 -5.79377
-32.8325 -24.5266 -5.61181
-32.0728 -24.3864 -5.5257
-33.1307 -23.4869 -5.50892
-32.9532 -24.0239 -5.56185
-30.8216 -25.4424 -5.43244
13.2825 -10.5596 -2.29656
-34.5025 -21.8434 -5.46518
-33.458 -23.2739 -5.4815
-32.4331 -24.454 -5.40558
6.8145 -10.2261 -1.6329
-34.9659 -21.9425 -5.38235
-33.4747 -21.3619 -5.12583
-33.8008 -23.3454 -5.32757
10.3795 -9.17026 -1.79087
-33.8264 -23.0569 -5.2344
-22.6334 -51.6376 -7.12751
-34.8731 -22.0438 -5.17786
-33.5892 -23.3476 -5.11742
-31.178 -24.9646 -5.01553
10.808 -9.41812 -1.80349
11.5909 -9.75178 -1.88552
-33.0567 -22.3823 -4.9093
-33.6347 -23.1342 -5.02813
-32.6391 -24.6274 -5.03528
10.6067 -9.33167 -1.7489
-37.4091 23.4357 -5.29582
-20.011 10.1979 -2.67482
-19.1394 9.53217 -2.56073
-27.4485 -14.8384 -3.63823
-26.7874 -16.4821 -3.62225
44.6793 -10.0065 -5.24985
7.16391 -10.2435 -1.41514
9.92139 -8.87736 -1.4817
41.5459 -10.8741 -4.77192
-27.5362 -16.8398 -3.51235
45.739 -10.4493 -5.09113
-29.2682 -15.041 -3.54523
10.3826 -9.11126 -1.48071
10.1146 -8.97729 -1.43533
13.0063 -10.5645 -1.78125
14.7599 -11.3598 -1.96491
9.47001 -4.73017 -1.1087
9.46462 -3.5004 -1.06323
9.46257 -3.39254 -1.05439
-28.1075 -16.7769 -3.42262
10.1283 -9.05942 -1.38064
15.2345 -11.4724 -1.92622
-28.2764 -13.0007 -3.12192
42.3615 -11.0045 -4.28455
9.70335 -8.82231 -1.2707
13.8514 -10.9918 -1.70016
14.6303 -11.2636 -1.76894
9.45637 -3.39328 -0.964788
15.2618 -11.6779 -1.81909
-24.5024 20.8498 -2.95794
-23.7292 -53.9761 -5.43961
9.40332 -8.29932 -1.17298
-25.2987 21.1347 -2.9351
11.5234 -9.8042 -1.34235
15.7448 -11.9076 -1.73568
16.7199 -12.3013 -1.80797
9.82839 -9.05348 -1.14958
-35.1264 -67.7984 -6.56465
13.4044 -10.7855 -1.46658
-35.2358 -22.0672 -3.52071
11.5153 -9.87477 -1.2768
45.6445 -9.92525 -3.87551
39.2014 -12.8356 -3.30667
-30.1265 -14.4412 -2.67222
18.1391 -13.0274 -1.69948
16.9396 -12.4229 -1.47871
-17.2176 -46.0431 -3.35267
-15.0989 -39.016 -2.80924
41.356 -10.8208 -2.89875
42.9537 -9.74588 -2.89863
11.7392 -9.97923 -0.997949
13.1711 -10.6938 -1.09209
13.5346 -10.7291 -1.09118
-16.9904 -42.3494 -2.81965
-34.5219 23.7605 -2.46921
16.7209 -12.371 -1.2221
15.6947 -11.8531 -1.13391
17.3431 -12.6808 -1.2381
-37.3213 23.4232 -2.40203
-9.54511 -12.5125 -0.838369
-15.9722 -40.5393 -2.35754
-14.2695 -40.4383 -2.29984
-28.4452 -16.6619 -1.72347
-17.3781 -42.5968 -2.41502
-14.9173 -41.3129 -2.30353
-27.8977 -13.6213 -1.60696
38.1019 -8.13289 -2.00835
-41.8447 -79.7707 -4.43438
17.9558 -12.9278 -1.07503
-27.6723 -13.8866 -1.47472
-16.5674 -41.0803 -2.0431
-26.4358 -16.4131 -1.34085
-37.4381 23.5161 -1.59352
44.1221 -9.52257 -1.54477
-30.8676 -14.1692 -1.03905
-27.4322 -58.9076 -2.00165
-12.9501 -37.6155 -1.22712
-32.3041 -24.3552 -1.21274
-26.4766 21.607 -0.923435
36.0941 -8.57587 -1.00557
-35.3921 -21.9903 -1.01959
-35.0435 -22.1643 -1.00787
-34.6015 -68.7983 -1.76517
-18.9856 -43.3772 -1.00258
-35.3343 -22.164 -0.789472
16.9293 -12.3921 -0.4037
-34.8239 -22.0215 -0.564624
17.053 -12.486 -0.243379
13.1393 14.9478 -0.207172
-33.9747 -22.6604 -0.396455
11.1456 -9.6286 -0.132515
-36.1549 -20.9988 -0.348683
-28.8073 -8.66883 -0.125187
-29.4517 -9.44723 -0.0845702
11.5125 -9.95749 -0.00320707
-12.9648 -19.9574 0.0347789
42.2596 -9.37393 0.132145
9.10009 -8.89662 0.10405
15.0989 -11.5346 0.15234
11.3408 -9.8018 0.139597
13.3034 -10.6921 0.179139
18.1777 -13.0432 0.217159
-27.7243 -13.4321 0.339704
-33.4614 -22.2324 0.461592
-34.8905 -18.7322 0.450277
-35.8235 -22.0612 0.523583
-13.635 -20.6987 0.285054
-12.8297 -20.1328 0.316558
-13.3139 -19.9437 0.343549
15.0332 -11.5299 0.279426
-30.2247 -13.0781 0.580346
-36.6075 -19.717 0.80375
-14.1171 -22.1511 0.522742
-30.3892 -13.3302 0.701395
-35.9683 -20.0261 0.838876
18.2183 -13.0769 0.468668
10.5104 -9.24258 0.298973
10.4172 -9.24898 0.345978
-8.21972 -9.75189 0.360199
10.5378 -9.2809 0.416931
13.5353 -10.811 0.536104
10.3798 -9.46256 0.461845
13.2452 -10.6749 0.561467
-9.2614 -13.0719 0.595829
10.5217 -9.47903 0.528134
13.2387 -10.6082 0.66913
-30.3237 -16.9179 1.40414
-32.2107 -18.6281 1.51336
9.55081 -9.12294 0.558127
-29.1194 -17.3864 1.48559
22.6152 44.8347 2.22766
9.61747 -8.95575 0.583215
10.4874 -9.3894 0.668015
12.3021 -10.2727 0.749528
-6.14303 6.61285 0.446385
-6.88001 -8.16913 0.535115
-7.13833 -9.26235 0.575962
-28.3455 -11.1817 1.59709
-6.83793 -8.47072 0.562246
11.9136 11.7587 0.889838
16.5429 24.702 1.57924
15.9703 24.1828 1.52355
8.89091 -8.63934 0.665742
8.67315 -8.58151 0.671688
14.7931 25.3797 1.63321
-28.679 -8.60097 1.66982
-7.5342 -8.02906 0.619111
10.4007 -9.3857 0.805363
-6.7681 -8.21334 0.637723
-6.72807 -8.45228 0.649699
-7.56893 -7.96421 0.681711
-6.90493 -8.23621 0.672926
9.56332 -8.89236 0.817927
10.4799 -9.37559 0.882452
10.5002 12.2756 1.05141
-7.34033 -9.50942 0.792361
12.5368 19.0336 1.5388
13.0728 20.8677 1.65776
9.23964 22.9809 1.72452
-7.10223 -8.30764 0.758519
-7.10615 -7.62351 0.740801
9.52557 -8.86231 0.923587
11.3651 11.9482 1.22178
11.8078 16.7856 1.54432
12.5852 11.5133 1.31152
12.8602 11.4545 1.34212
12.2648 11.5651 1.31297
12.0429 11.6942 1.32957
-7.22186 -9.3841 0.938616
11.6082 11.9463 1.34165
-7.3678 -6.13894 0.758203
-7.06203 -8.10226 0.865252
-6.76311 -8.30856 0.862943
-7.27413 -6.25002 0.764175
9.25775 -7.58636 0.992046
-7.36404 -8.10793 0.912104
-7.39362 -9.89715 1.03236
-7.28953 -7.87671 0.90265
9.19546 -6.9666 0.976943
11.6512 11.9223 1.41779
-6.35957 -4.33508 0.659079
-7.07957 -8.36246 0.94426
-6.83611 -8.41337 0.963077
8.99482 -6.86024 1.00923
8.21503 -7.13345 0.978384
5.9342 -5.90888 0.773337
10.8249 11.1043 1.48594
-7.02969 -5.73115 0.865998
10.7765 9.3116 1.38458
-7.16322 -5.71567 0.893849
7.73912 -6.57182 0.999221
11.0712 9.83375 1.46431
10.925 9.09399 1.42816
9.5968 11.546 1.5039
-6.50532 -6.50051 0.921957
-6.87112 -4.5146 0.832632
-6.97561 -7.31477 1.02414
10.784 9.09331 1.4597
10.1371 9.46373 1.42209
9.30616 10.1243 1.4372
-6.85583 -4.45507 0.861487
-7.13809 -5.67316 0.975068
-7.10942 -5.71295 0.973905
-6.91614 -4.62802 0.908465
-7.06055 -5.5028 0.973137
8.70055 10.2875 1.49724
-6.89448 -3.42894 0.862965
-6.96748 -4.34696 0.915883
-6.84102 -3.48897 0.862554
-6.88409 -3.57327 0.869606
-6.89033 -4.23129 0.909596
-6.91137 -4.40206 0.924894
-6.91131 -4.48772 0.927604
8.75471 8.82269 1.40793
-6.94894 -3.8516 0.911249
-6.91351 -4.06891 0.909046
-6.91298 -4.15258 0.916752
5.85014 -5.77694 0.95027
-6.92574 -3.41461 0.899726
-6.93684 -4.37029 0.951348
-6.90647 -4.44185 0.952978
-6.9 -2.82839 0.874366
-6.88169 -3.61527 0.910041
-6.9664 -4.13285 0.953093
-6.91293 -4.20164 0.947805
8.5246 8.06293 1.39253
-6.9157 -2.98128 0.908451
-6.8941 -3.96823 0.955247
-6.87724 -3.65428 0.945497
-6.92091 -4.12473 0.986597
-6.90672 -4.30834 0.997882
-6.46806 -5.35783 1.02675
6.00598 -5.95504 1.03356
-6.90556 -3.75039 0.97419
-6.90387 -3.91502 0.985753
-7.00953 -4.73874 1.05548
-6.93318 -4.38636 1.03532
-6.86569 -3.47705 0.974928
-7.07642 -2.1693 0.945802
-6.88274 -3.08118 0.96731
-6.90143 -3.15874 0.976486
-6.14411 -5.48559 1.07325
-6.92253 -3.22911 0.998777
-6.37876 -4.36173 1.01797
-6.7949 -3.78271 1.03054
-6.88178 -4.18295 1.06851
-7.0476 -2.13411 0.983585
-6.998 -2.33473 0.992514
-6.905 -3.26512 1.02025
-6.9043 -3.53791 1.0385
-6.91193 -3.39212 1.05164
-7.02899 -2.16024 1.02178
-6.92814 -3.17822 1.05529
-6.89811 -3.26186 1.05486
-6.84593 -3.64824 1.07067
-6.90164 -2.9442 1.04871
-6.86721 -3.4091 1.07
-6.88251 -3.75288 1.10269
-6.93153 -3.23463 1.08165
-6.00241 -4.48986 1.0665
-6.88634 -3.58302 1.11483
7.69835 6.34962 1.44264
5.20941 8.35358 1.42436
-6.89001 -3.49128 1.11824
7.30138 -3.52317 1.17685
-6.88199 -3.27777 1.11214
-6.87849 -3.38946 1.11822
-6.86223 -3.19899 1.1138
-7.1621 -1.75258 1.08669
-6.9135 -2.94066 1.1157
-6.91896 -3.02801 1.12018
7.13434 5.61663 1.40609
-6.37437 -2.28407 1.05037
7.06695 5.17646 1.39823
-7.0107 -2.40961 1.19251
-6.4604 -2.81936 1.14968
3.79636 7.95607 1.45357
-6.30805 -2.26075 1.11233
-6.4767 -2.28889 1.17007
-6.14647 -2.27932 1.14176
2.56642 7.41951 1.48949
7.83731 -8.52806 -10.1807
7.96477 -8.81106 -10.3951
7.69641 -8.75491 -10.1433
8.19638 -8.32842 -10.0098
6.94487 -11.4709 -10.9876
8.14825 -8.27559 -9.52934
6.94893 -11.8869 -11.1796
8.02597 -8.41279 -9.24087
7.97113 -9.16667 -9.45805
8.24152 -8.70153 -9.3193
7.8594 -8.98703 -9.10599
8.30189 -8.71097 -9.13115
6.3232 -13.9785 -11.4516
7.49068 -9.42278 -8.99685
7.92741 -9.0831 -8.92595
6.22001 -14.3419 -11.5144
6.26286 -12.8658 -10.5158
9.23346 -8.83658 -9.35902
9.21828 -8.9926 -9.37295
5.95999 -12.7233 -10.1955
5.89717 -13.0949 -10.284
9.366 -8.99372 -9.29112
9.22192 -9.03545 -9.1709
6.91664 -11.1991 -9.338
5.60963 -12.9499 -9.98736
6.50932 -10.999 -8.79114
8.45383 -8.83875 -8.35404
11.7662 -9.98429 -10.3595
8.24958 -8.6337 -7.90349
7.43846 -9.27946 -7.84378
8.255 -8.79116 -7.95565
9.17034 -8.79393 -8.36558
7.61273 -9.33433 -7.86788
12.1105 -10.1144 -10.2696
4.66716 -15.7993 -10.6522
9.19044 -8.83115 -8.19658
5.01263 -15.3618 -10.4174
7.76559 -9.31204 -7.76142
8.25961 -8.48116 -7.57009
0.351787 15.694 -10.012
4.74028 -15.1368 -10.0989
10.9 -9.58604 -9.23129
7.92478 -9.08728 -7.64223
8.17149 -8.50515 -7.4436
4.72242 -15.7732 -10.3442
-0.393635 13.6062 -8.51152
8.84686 -8.81274 -7.71187
4.22739 -18.6846 -11.831
7.92764 -9.06653 -7.43601
8.27835 -8.58179 -7.36328
4.26361 -15.414 -9.79551
8.23009 -8.65225 -7.30178
4.25099 -18.1642 -11.3779
0.154391 15.0631 -9.17549
3.75982 -17.8604 -11.0469
4.17791 -15.769 -9.86432
7.05648 -10.8346 -7.76043
8.06294 -9.2223 -7.35865
4.19964 -16.5858 -10.197
8.30297 -8.67933 -7.15616
9.42232 -9.01268 -7.77079
7.02561 -11.0793 -7.80273
7.73995 -9.27709 -7.17156
9.07311 -8.82618 -7.50112
8.00917 -9.17723 -7.12836
8.59138 -8.78551 -7.17304
9.71167 -9.16761 -7.78476
6.78029 -13.348 -8.64311
9.25678 -8.98789 -7.45187
5.80252 -13.3863 -8.42059
6.89399 -10.8815 -7.42483
9.57165 -9.11993 -7.52887
11.9549 -10.2533 -8.8924
10.8023 -9.49416 -8.09091
6.89126 -11.1181 -7.34287
9.15299 -9.09799 -7.23739
9.26854 -9.03576 -7.23808
12.631 -10.544 -9.19072
4.65732 -14.3807 -8.44996
10.2141 -9.39946 -7.75983
8.53899 -8.71791 -6.79304
2.74434 -17.3138 -9.67088
14.7852 7.56185 -9.08008
2.70935 -19.868 -10.9069
2.4271 -8.7964 -4.9492
2.97533 -19.8867 -10.8655
14.7557 7.68543 -8.93509
2.3633 -20.1889 -10.7952
10.9731 -9.62362 -7.76475
9.79486 -9.04611 -7.06145
14.947 7.50043 -8.851
2.36259 -8.81444 -4.82316
1.65596 -19.8007 -10.2635
2.38596 -20.8397 -10.7593
13.9559 -11.1509 -9.15461
-9.29047 -2.6038 -4.91161
11.3543 -9.83271 -7.62898
2.17234 -20.2684 -10.2734
0.852739 17.5159 -8.72154
11.0086 -9.65815 -7.3013
-8.86277 -1.94958 -4.45141
2.21079 -20.2072 -9.98139
3.85474 -9.19533 -4.89761
11.2729 -9.67321 -7.27265
1.99596 -19.8939 -9.77296
-8.3913 16.1024 -8.80471
2.50425 -11.2043 -5.49345
1.99527 -21.1126 -10.0985
0.631625 17.0539 -8.08208
14.9108 7.62202 -7.90704
17.377 16.2753 -11.2614
17.7368 16.9947 -11.4141
14.3677 -11.3617 -8.49435
9.81353 -2.61228 -4.7078
17.3086 16.2909 -10.9842
9.76095 -2.47054 -4.65851
-10.2673 16.8577 -8.99754
-9.56348 -2.07215 -4.43799
9.86273 -2.60962 -4.63126
10.1941 -2.40054 -4.74426
9.76925 -2.98013 -4.62325
-5.39253 4.4453 -3.15077
8.09271 -8.32922 -5.23668
17.8767 17.4189 -11.208
17.7469 17.5903 -11.2337
19.2248 5.8482 -9.01542
7.14698 -10.9088 -5.81048
20.3576 5.34506 -9.35299
9.56912 -3.42434 -4.51918
-9.9241 16.3116 -8.47919
-5.34296 4.8962 -3.21045
19.3274 5.58354 -8.89377
-11.3233 17.2627 -9.08536
18.0225 17.8763 -11.1312
-6.54641 15.0075 -7.188
9.59655 -3.60251 -4.46745
20.0961 5.44602 -9.02827
18.1654 18.4303 -11.1578
17.9571 18.5801 -11.138
14.8775 7.61384 -7.12443
3.86128 -9.35334 -4.28958
-11.264 17.1347 -8.6648
-13.4659 3.29821 -5.84431
1.26535 -21.4759 -9.01504
3.25241 -10.1937 -4.4768
14.1967 7.64725 -6.74314
18.7426 19.5658 -11.3353
3.86869 -9.18345 -4.15026
14.823 7.72877 -6.93538
18.4183 19.6342 -11.1803
14.0319 7.75083 -6.5934
4.00059 -8.47173 -3.84101
6.77985 -10.8621 -5.24503
-13.3981 2.52016 -5.58007
14.9825 7.50906 -6.83188
-8.03389 15.5434 -7.11377
1.19037 -10.604 -4.33426
0.757759 -21.741 -8.81055
-12.9584 2.34709 -5.29875
-9.31366 -1.43801 -3.76276
-5.07171 5.62804 -3.00384
2.8346 -11.7567 -4.77043
14.2155 -11.2155 -7.07915
4.10139 -9.45568 -4.04025
1.52314 19.1579 -7.46864
3.94603 -13.1683 -5.31478
19.013 5.81241 -7.66303
0.882692 -26.2047 -10.0116
4.75081 -8.67749 -3.75529
11.7307 -10.1561 -5.89639
19.3729 5.5785 -7.64251
20.1979 23.9459 -11.6999
19.9654 5.42244 -7.71996
20.4936 23.8869 -11.7289
3.26604 -10.8554 -4.22974
-13.0949 17.6358 -8.10499
11.8982 -10.0974 -5.73812
20.3588 5.19734 -7.70356
21.0918 25.2152 -11.9429
-8.17534 -2.81894 -3.13302
19.2936 5.7239 -7.2462
2.28291 -13.2409 -4.83456
0.810875 15.7831 -5.66492
-4.29451 13.9982 -5.22127
-8.2293 -2.80212 -3.10185
6.74487 -10.5328 -4.44076
-16.0304 18.5228 -8.65999
15.9736 -12.0621 -7.09169
-11.1231 16.769 -7.03481
19.3358 5.89517 -7.02017
3.71907 -8.67372 -3.25518
-8.83052 16.0587 -6.23621
2.9918 -13.4989 -4.71612
18.9497 -13.5554 -7.97129
34.1365 -21.1496 -13.6494
-14.972 18.3416 -7.99185
20.0787 5.45558 -6.97629
37.0312 -20.9118 -14.2029
40.6668 -20.0141 -15.1066
16.4569 7.38176 -6.00908
3.45316 -10.2749 -3.61437
1.3486 -10.9241 -3.63858
-6.28099 14.9851 -5.29958
-12.7287 17.4587 -7.03258
15.7828 -12.1294 -6.47622
6.04844 -9.8545 -3.71661
3.34354 -10.1447 -3.42538
-1.13407 -23.7641 -7.59898
2.32555 -11.0326 -3.59191
3.23582 -10.0713 -3.35234
2.82788 -9.04457 -2.98856
13.6359 -10.7823 -5.46415
-17.9961 19.4531 -8.29815
-8.70527 -2.65151 -2.85023
28.6732 -15.7282 -10.2604
1.36789 -21.463 -6.64111
19.7878 25.6194 -9.75766
3.22709 -9.87783 -3.13312
3.45176 -8.98128 -2.89606
-14.3928 18.0013 -6.89516
-21.4239 19.9796 -8.67668
-7.96835 15.4958 -5.12703
4.77936 -12.0059 -3.78561
4.15415 -8.9305 -2.89567
2.07871 20.5575 -6.06774
-4.34741 14.6215 -4.46889
4.06061 -8.96559 -2.87781
-15.3129 18.4235 -6.9086
-32.3523 -46.233 -16.1419
7.14125 -11.1198 -3.77044
2.5461 -9.48014 -2.78307
-8.40553 -2.20177 -2.44966
4.44257 -11.0272 -3.35193
-2.46212 -24.8322 -6.99269
-9.29075 16.0215 -5.10091
4.36457 -11.2624 -3.33027
8.58215 -8.371 -3.29429
-13.107 17.4637 -5.97694
45.5588 -15.1049 -13.0842
-8.7242 -2.44026 -2.45297
-24.475 20.5424 -8.6432
3.24757 -9.9821 -2.83698
3.39985 -9.98749 -2.84976
-4.25328 -30.5764 -8.28858
-26.881 20.6162 -9.03043
42.641 -14.0685 -11.8673
45.9303 -13.2957 -12.6513
-8.5374 -38.426 -10.3712
-8.304 -39.1583 -10.5515
-14.4759 18.1408 -6.02309
9.84242 -8.95063 -3.47723
11.3197 -10.0512 -3.93263
-10.6557 16.627 -5.10918
-4.28195 -28.0688 -7.37665
3.26294 -9.86461 -2.68616
3.52115 -10.3033 -2.81791
-26.2965 20.8471 -8.60746
4.27806 -11.0559 -2.99953
4.40437 -9.68298 -2.68337
9.47525 -9.16324 -3.32293
6.91335 -11.3594 -3.33763
-27.2758 21.0463 -8.60794
43.9188 -12.7841 -11.4138
-11.5384 17.0005 -5.09933
11.8112 -10.171 -3.85276
3.36637 -10.2397 -2.65243
-24.5842 20.6513 -7.8546
9.97218 -9.00588 -3.23283
-7.86046 15.3353 -4.13687
4.05159 -11.9706 -3.04531
15.0795 7.57383 -4.03803
3.38276 -11.1182 -2.78638
3.16651 -9.87586 -2.47191
-6.74822 -38.5956 -9.32514
-11.2058 -43.0466 -10.5464
3.96886 -9.0927 -2.34676
-28.9674 21.6483 -8.54343
14.8896 7.62077 -3.91731
-9.45391 16.3312 -4.43199
3.92848 -11.3268 -2.82223
-12.8546 17.526 -5.07958
-26.5019 21.0291 -7.85698
3.48062 -10.3109 -2.49559
11.0396 -9.4776 -3.35775
15.651 -11.7987 -4.4901
-37.5342 26.5573 -10.5147
-12.5384 -43.6496 -10.3514
10.909 -9.5385 -3.31516
-11.8209 -42.4863 -10.0051
-6.16097 -31.2432 -7.24692
40.6765 -12.5754 -9.64813
-27.1133 20.946 -7.73071
14.7031 -11.4101 -4.18503
-30.8492 22.4089 -8.55625
4.44623 -5.80081 -1.6406
5.29355 -9.17644 -2.37051
-28.2277 -72.8209 -17.2695
-9.65952 16.1712 -4.14909
-13.0117 -44.6831 -10.2401
4.106 -9.77541 -2.33348
13.4528 -10.8521 -3.81092
4.00758 -9.17654 -2.20224
41.0532 -12.1406 -9.37576
-23.5568 20.5341 -6.81513
3.3929 -10.0961 -2.28564
4.39757 -9.89916 -2.34391
14.9635 7.52173 -3.5977
-29.0076 21.7051 -7.7882
-21.2817 -33.7414 -8.57074
-8.35585 -35.3896 -7.77748
-24.4826 20.6491 -6.82473
-31.1258 22.6078 -8.18729
3.24827 -9.93072 -2.22991
4.87214 -8.86062 -2.14442
14.7762 7.71565 -3.52792
4.23192 -10.4938 -2.40802
41.7268 -10.8742 -9.13808
-10.5552 16.5347 -4.13876
4.33729 -9.14627 -2.12332
3.15196 -9.12496 -2.00046
5.15662 -9.04659 -2.18174
14.7815 7.43782 -3.44748
-38.1659 25.1323 -9.51239
-27.2415 -25.259 -7.67917
3.02468 -9.4648 -2.06554
-28.7289 -30.2947 -8.60238
-19.8482 -30.992 -7.57835
3.8537 -9.32912 -2.08284
3.73669 -8.73461 -1.94995
-15.6482 18.5044 -4.96047
-24.8417 -65.8462 -14.4457
3.98753 -8.78007 -1.97199
-13.9741 3.05707 -2.92268
-33.5305 -23.6973 -8.3731
-27.5819 -76.1889 -16.494
-11.2953 -36.3743 -7.74592
43.8884 -9.58497 -9.12532
14.9346 7.62979 -3.36036
-17.7799 -23.5534 -5.93025
12.3435 -10.0871 -3.20578
-18.889 -54.0361 -11.4247
4.18152 -10.7582 -2.30216
-12.0536 17.2844 -4.18617
-26.2035 20.6182 -6.6094
-35.4532 -20.9878 -8.19081
-32.1967 -25.1448 -8.0964
-9.20728 -35.6926 -7.33989
14.5343 -11.4589 -3.66713
4.02987 -9.82469 -2.09339
3.22522 -9.85865 -2.03356
-35.6509 23.5566 -8.30413
-23.1842 -55.8244 -11.6836
-15.9678 -46.1067 -9.30561
3.48813 -8.90566 -1.83175
-20.2335 -32.7698 -7.31212
-31.9944 -24.9695 -7.65265
-29.0338 -25.7811 -7.30916
-21.9527 -54.2476 -11.0714
3.88559 -9.09081 -1.88293
-16.6829 -45.5021 -9.07007
3.44166 -9.22049 -1.81719
-32.4665 -24.2326 -7.37522
-31.2714 -26.8128 -7.50755
-33.0098 23.2399 -7.27733
-20.2242 -50.0375 -9.62981
-31.2526 -25.1756 -7.05857
-24.3054 -62.9322 -11.8843
-34.2766 22.8104 -7.20936
-16.5638 -46.7096 -8.69
3.40364 -9.56752 -1.77498
14.095 7.82267 -2.79553
-35.0393 24.0105 -7.36736
-28.8793 -25.3115 -6.67899
3.47423 -9.51525 -1.75673
4.79848 -8.65775 -1.71545
-26.8816 21.1049 -5.90615
-30.7521 22.3665 -6.55872
-31.0342 -28.5849 -7.28041
3.88877 -10.0074 -1.85256
13.9456 7.51784 -2.7222
-23.605 -54.2378 -10.0597
-20.6613 19.6585 -4.81245
-31.5046 -25.0407 -6.82433
-19.7382 -48.9371 -8.94763
5.60809 -11.7508 -2.19858
42.2934 -11.945 -7.4506
-18.2033 -48.5828 -8.73484
41.4145 -10.7754 -7.19857
5.00056 -10.7307 -1.97088
6.69051 -11.117 -2.19209
-10.3562 16.4653 -3.15602
-30.327 -23.476 -6.24994
42.6791 -11.4615 -7.19158
-22.1355 20.1079 -4.85078
-20.4164 -50.5104 -8.65244
-22.9263 20.1579 -4.81532
-24.1418 20.5803 -4.9358
-32.9337 23.1991 -6.2329
3.81394 -10.1027 -1.65952
-32.0939 -24.8152 -6.20113
-13.7751 -41.5577 -6.72547
-31.1014 22.6341 -5.84762
-22.7392 -54.7274 -9.02532
-7.64465 15.48 -2.60328
-33.3415 -23.431 -6.13985
-32.6128 -23.9763 -6.13345
-27.7784 -26.0635 -5.73255
-33.2011 -23.8959 -6.13556
-31.3653 -25.1074 -6.00598
-34.7933 -23.2393 -6.21111
-24.8448 20.856 -4.78214
-33.122 -24.7862 -6.09672
-32.0952 -24.3048 -5.94536
-25.5117 21.0225 -4.83625
-12.4984 -41.4181 -6.34187
-12.594 17.2275 -3.07437
-7.65901 15.3232 -2.44296
3.50661 -9.55493 -1.44827
38.5242 -12.67 -5.76816
-33.4567 -24.6452 -5.87843
-30.6081 -24.3262 -5.50258
-30.0851 -25.3746 -5.54227
-20.5076 -49.4134 -7.45565
-6.8258 15.1247 -2.2528
-13.9796 17.861 -3.07694
-11.6981 -40.9496 -5.79943
-7.40467 15.0073 -2.24727
-24.2119 -63.0285 -9.1355
-22.3781 20.3511 -4.02857
-24.6179 -55.799 -8.10413
-31.3322 -24.1869 -5.22488
45.4831 -10.4808 -6.13814
44.8464 -9.8587 -6.04892
-13.4092 -41.6723 -5.75371
6.63237 -10.9307 -1.68161
-14.9922 18.3632 -3.08534
-22.7863 20.0693 -3.93638
-32.6314 -24.3607 -5.24266
10.7284 8.79929 -1.79116
-33.6251 23.1202 -5.23951
-29.6782 22.5837 -4.70134
-30.9503 -24.2317 -4.95909
-12.7483 -36.2708 -4.86163
9.66431 -9.04498 -1.65181
12.7844 -10.4482 -2.0787
-33.7475 23.6743 -5.1549
-36.0811 -22.4785 -5.29462
-30.6124 -25.3026 -4.93513
6.77294 -10.3006 -1.53862
-32.9386 -23.282 -4.99854
-13.5691 -42.3335 -5.46843
13.1773 -10.9851 -2.10602
41.8972 -10.8892 -5.34519
-16.1632 18.6074 -3.01281
-15.9021 -38.5446 -5.09743
-8.73561 15.6171 -2.17956
43.7831 -10.0858 -5.4404
15.0071 7.83411 -2.03328
9.40875 -8.92761 -1.54843
-33.7397 -23.5405 -4.87857
-17.8389 19.3883 -3.08302
-20.7659 9.18948 -2.69096
-31.7391 -24.5719 -4.73422
-25.5971 -57.9942 -7.44861
11.2801 -9.70356 -1.7422
42.2498 -11.3105 -5.15001
14.6968 -11.4114 -2.13879
14.9336 7.67615 -1.90899
-29.8966 22.7362 -4.285
7.26113 -11.0263 -1.49831
-10.2413 16.3514 -2.16097
9.4407 -9.30725 -1.47583
12.7634 -10.4831 -1.8418
13.9606 -11.019 -1.97845
9.44425 -9.10774 -1.45628
7.0512 -10.442 -1.38031
44.764 -9.7766 -4.98731
-10.8914 16.3607 -2.11959
-33.1454 23.3724 -4.40483
11.7028 -9.83231 -1.65056
6.17444 -12.6971 -1.48527
7.54997 -11.5569 -1.43665
9.83755 -8.89622 -1.39552
-15.3101 -44.2413 -4.90882
16.5467 -12.2536 -2.15957
-30.4303 -61.1359 -7.08438
14.876 7.49077 -1.70226
-31.0382 -24.7362 -4.07714
13.8147 -10.9304 -1.80548
-31.7994 -24.5977 -4.06801
14.8636 7.76594 -1.6849
-12.6563 16.9256 -2.07702
-20.3012 -51.4722 -5.3623
-32.5764 -65.8079 -7.03073
-23.388 20.4592 -2.93605
-30.8969 -25.311 -3.797
-30.8744 -25.6458 -3.82567
-21.5808 -56.4707 -5.70098
-14.0644 17.997 -2.13822
-31.1612 -24.379 -3.69272
-15.6466 -42.6178 -4.2298
-13.86 -43.0791 -4.22179
9.80776 -9.09064 -1.24274
-33.1278 -64.5311 -6.68366
8.55239 -8.64953 -1.10454
16.4796 -12.2788 -1.88032
-14.9631 18.3553 -2.12474
-35.7747 -22.2511 -3.81286
-33.0933 23.3653 -3.56838
-30.9569 -24.975 -3.51534
14.0248 -11.1546 -1.59091
-32.0906 -19.5554 -3.2067
11.0356 -9.68468 -1.25032
-26.6351 21.6051 -2.8809
-11.3168 -35.2223 -3.12694
9.3861 -8.99975 -1.09189
-33.8128 23.2475 -3.40971
8.67528 -8.67688 -1.00792
16.7424 -12.2103 -1.69288
-16.6502 -43.2654 -3.7263
-21.3582 -48.8577 -4.17451
-15.2436 -37.6321 -3.21878
-13.2681 -37.2273 -3.14043
9.18932 -8.93024 -1.00685
11.2704 -9.77007 -1.16946
14.8425 -11.6094 -1.49199
-29.9059 22.8056 -2.92696
-29.2133 -13.6361 -2.50482
11.8415 -10.0319 -1.20306
-23.09 -51.424 -4.31816
12.7581 -10.5897 -1.25627
-40.8149 -77.4335 -6.33575
9.93522 -9.11841 -0.977428
10.8916 -9.72209 -1.01767
-33.1738 -20.5941 -2.70149
11.9355 -10.0312 -1.07963
14.6896 -11.5659 -1.29956
-15.485 -39.1282 -2.86431
-15.0914 -39.9236 -2.92632
18.5447 -13.4021 -1.51911
-23.2856 20.3879 -2.05431
-24.752 -57.0983 -4.11597
12.8539 -10.5738 -1.1128
-14.6063 -40.5227 -2.79985
15.2516 -11.5157 -1.24195
-32.2891 -65.375 -4.57977
-14.9356 -46.2942 -3.02327
-32.8113 23.179 -2.45886
-32.7415 -64.7477 -4.41691
-16.9512 -41.2915 -2.72211
30.8866 -20.4778 -2.25606
42.0103 -10.9553 -2.63578
36.4763 -8.79441 -2.2734
-15.1056 -40.5555 -2.61525
-26.9586 21.8793 -1.96863
-28.9426 -14.2492 -1.86442
-15.8066 -41.1787 -2.46071
16.8711 -12.5888 -1.17933
-27.1161 -16.3175 -1.70386
42.5988 -9.48892 -2.2445
-9.39162 -12.5487 -0.795784
-15.3962 -40.9741 -2.18068
5.70311 -12.447 -0.680297
-14.1842 17.9813 -1.11695
-15.0691 -47.3643 -2.44156
14.8804 7.80669 -0.809547
-16.3084 -41.8024 -2.13301
-14.5282 -47.2503 -2.333
18.6922 -13.2623 -1.0985
-17.1738 -49.8052 -2.45801
36.7672 -9.03029 -1.77404
-28.843 -14.7488 -1.44971
-24.3348 -55.7603 -2.69854
-16.5221 -40.6522 -1.95382
9.64599 -9.1024 -0.59133
12.5858 -10.3301 -0.730822
44.2414 -10.123 -2.01831
-14.0277 -42.6697 -1.91223
-32.7367 23.1421 -1.66963
-53.5641 29.0905 -2.4314
-33.7812 23.2479 -1.50468
-18.8304 -49.2434 -1.97916
-34.5642 -21.7657 -1.46027
9.73297 -9.05786 -0.488836
6.59814 -10.8194 -0.439737
-13.0524 -38.9105 -1.35883
7.45123 -13.0788 -0.514103
18.5864 -13.1643 -0.769294
-26.6068 -58.2732 -2.10969
-13.3456 -37.8615 -1.301
21.11 24.3471 -1.03477
-23.1071 20.514 -0.97315
-20.8198 -53.3106 -1.77511
21.0016 -14.3218 -0.772737
-27.5993 -14.2029 -0.941023
-13.0003 -41.606 -1.29625
-24.0724 20.4543 -0.907299
-23.6732 -54.4813 -1.69002
-17.5382 -47.4669 -1.46
22.5288 -10.1384 -0.745618
-34.4246 -20.975 -1.11514
-9.78439 -12.8371 -0.461073
-22.8773 -53.951 -1.65437
18.005 -13.4134 -0.571493
30.4262 50.7753 -1.53372
-30.0601 22.9355 -0.972074
-31.2193 22.8345 -0.956564
-27.2148 -13.0765 -0.740043
9.55286 -8.98963 -0.317477
-20.8381 -33.5641 -0.921348
-40.2014 13.9449 -0.930372
21.2012 -14.1859 -0.541572
18.4138 -13.2754 -0.425841
12.7971 -10.5132 -0.27588
-7.22583 15.6411 -0.301659
-33.1197 10.474 -0.574191
-28.2732 -13.4636 -0.495872
-37.0374 -21.0923 -0.647623
-18.1064 -44.3865 -0.741763
-7.8727 16.5566 -0.249067
-32.5125 -24.2878 -0.562813
-33.8665 -23.0871 -0.524706
-34.756 -70.2264 -0.971135
17.2749 -12.8887 -0.261415
18.2013 -13.1048 -0.284325
28.9093 -17.8263 -0.453131
-21.3773 -54.7517 -0.713143
-30.2426 23.0572 -0.405619
-37.5518 -20.9915 -0.475188
-27.713 -59.1338 -0.695425
-18.6134 -42.6922 -0.498638
-53.242 29.1783 -0.505189
-33.6515 -59.3627 -0.62888
-20.0198 -52.5047 -0.533846
37.4689 -9.05209 -0.354192
-14.2929 18.1414 -0.162261
-35.2304 -78.4549 -0.58867
-17.9106 -43.4416 -0.320041
9.5605 -8.99614 -0.0408356
14.7788 7.77998 -0.0283552
-29.3932 -13.1123 -0.0583295
-11.6754 -16.999 0.0250495
-12.8714 -19.3734 0.0442135
-18.6753 -42.8687 0.192988
9.42657 -8.97484 0.0593678
-32.7685 23.1904 0.208588
-21.765 -54.947 0.28615
-30.1906 -14.012 0.199765
16.8023 -12.2596 0.116351
-13.1206 -20.1173 0.156644
14.681 -11.4361 0.146504
-53.1106 19.0287 0.499258
7.07098 -12.1495 0.118022
15.9639 -11.8295 0.168734
-36.4433 -22.0529 0.446753
38.155 -7.84218 0.405721
-35.2857 -22.1127 0.47425
-12.5682 -34.7131 0.430776
-13.0453 -35.0801 0.453425
-11.2055 -32.2669 0.415549
-9.63629 -29.8152 0.379146
25.7496 52.1385 0.757708
9.57251 -9.00376 0.169937
-12.8004 -19.8352 0.321347
-10.8903 -33.0584 0.476696
8.55381 -8.49751 0.182825
6.27396 -12.8354 0.208063
7.13478 -10.9943 0.200084
9.32859 -9.0434 0.187687
8.01477 -9.0941 0.193891
9.7078 -8.98876 0.21797
37.6334 -8.06292 0.631626
-23.9411 20.5309 0.564993
-33.2156 -22.3475 0.688763
-34.5081 -25.3183 0.749465
12.8853 -10.5853 0.273279
13.1953 -10.643 0.317741
-9.91185 -12.5673 0.302113
6.81209 -11.1643 0.255038
7.97066 -9.3676 0.241882
26.2961 54.1044 1.20597
6.96054 -10.9408 0.260714
9.16166 -8.6686 0.267998
11.5013 -9.88561 0.332388
17.2058 -7.68519 0.379425
7.19428 -10.9154 0.295902
-9.44886 -12.1982 0.390205
-12.8083 -19.6622 0.560502
7.62995 -9.28932 0.273857
7.8134 -9.34397 0.28281
-25.7218 21.6187 0.87283
-28.9537 -9.2849 0.76294
9.60043 -8.93265 0.337386
17.4387 -12.7393 0.544546
18.2697 -13.1553 0.559992
-23.0445 20.1759 0.798046
-27.8217 21.9879 0.925787
-28.9667 -8.69386 0.791689
-33.1844 -17.694 1.02126
-13.3714 -20.1914 0.643581
14.7171 -11.4351 0.497363
22.6718 -3.29871 0.644848
-12.2104 -19.0394 0.654269
24.8966 -4.71643 0.737655
16.2648 25.2412 0.900224
-28.0663 -20.676 1.03141
7.20661 -11.2887 0.402161
6.9475 -10.669 0.3878
14.6559 23.8748 0.860342
-7.62051 -8.80564 0.356052
12.994 -10.6324 0.512768
-7.3175 -9.5106 0.367487
-28.5951 -8.0711 0.988726
-11.9032 -17.3999 0.705891
7.8523 -9.32699 0.403473
16.0919 10.9943 0.698144
10.83 -9.43022 0.521748
11.8596 -10.0202 0.565807
22.5838 45.4766 1.90738
-7.44745 -8.13086 0.412092
9.62762 -8.93724 0.490491
22.7399 -3.19272 0.881694
26.3858 54.5437 2.34661
-7.44613 -9.88329 0.483968
10.4029 -9.48798 0.552398
12.6899 -10.4806 0.665054
21.4994 -2.63499 0.883218
-29.1892 -17.7085 1.39591
8.71801 -8.67883 0.508476
-6.92218 -8.46399 0.469969
9.41379 -8.90519 0.541816
12.6237 14.4913 0.848975
-28.9345 -8.49176 1.32511
14.6474 19.0784 1.08124
14.9213 25.6914 1.32415
21.4119 42.1048 2.08952
6.1515 -13.7057 0.669919
10.8139 -9.48717 0.650694
18.4292 -1.63555 0.846576
19.2545 36.6612 1.9426
14.8605 26.1831 1.41195
-11.1961 2.77702 0.555549
-7.24284 -9.54693 0.577865
9.14465 -8.96303 0.606533
11.3661 -8.72023 0.670966
20.0448 -2.29706 0.972062
11.5901 11.8118 0.821996
15.8912 38.2169 2.03511
7.74004 -9.43343 0.600694
10.157 -9.25071 0.680419
14.4764 24.5479 1.42735
19.8928 38.5758 2.2035
20.9318 -2.60753 1.07274
-7.40525 -8.50767 0.585146
9.36149 -8.91321 0.673172
16.5941 24.3341 1.54759
16.3701 29.6771 1.76932
12.9657 -10.6872 0.892882
10.5161 12.2933 0.865422
14.1399 19.1937 1.2809
11.0439 -9.5762 0.790512
14.9231 19.4435 1.35197
-26.3633 20.209 1.81546
-6.96818 -8.17515 0.594251
10.2124 12.3466 0.897504
-7.26252 -9.37544 0.664198
9.95016 12.3952 0.922036
-27.8214 19.5872 1.93224
6.0841 -12.8492 0.814047
11.1402 12.0428 0.9431
-6.88272 -6.79271 0.560837
11.2298 11.9749 0.966836
-6.80904 -8.41385 0.647793
6.22895 -12.5211 0.817235
14.5585 19.3702 1.45728
14.0238 22.9287 1.6036
13.2688 30.6651 2.00557
-6.14635 6.54637 0.551462
-8.16992 -7.74132 0.680784
-7.11808 -8.16574 0.665277
5.70192 -12.4005 0.825413
-7.48266 -6.88918 0.632755
6.9839 -11.1273 0.812436
6.96736 -10.5299 0.788152
11.3068 -9.76016 0.922605
12.0922 -10.1156 0.977105
16.1672 7.1601 1.12678
14.805 19.1789 1.53313
-7.23862 -6.3085 0.622776
10.2373 -9.34998 0.894884
-7.38009 -6.261 0.634862
11.4318 12.0629 1.13255
9.46696 21.3121 1.5881
-7.27441 -9.65605 0.807707
11.59 12.5704 1.1731
-6.95666 -4.45816 0.568351
-6.75428 -8.20334 0.724668
-6.70086 -4.43449 0.554261
9.25128 -8.84485 0.891148
9.97704 -7.82769 0.893408
12.649 15.9423 1.47163
-6.67129 -6.66376 0.655182
9.78989 -8.26713 0.937083
11.4021 17.0489 1.5421
11.3299 18.0631 1.59297
9.53288 18.144 1.54574
8.94925 19.3405 1.60294
7.26871 21.6638 1.71796
10.7042 18.4761 1.6269
9.99491 -7.58326 0.959398
-7.03029 -7.19141 0.770631
-17.2148 -6.24396 1.43189
9.45463 -7.66492 0.954234
9.27098 18.5169 1.63455
-6.38184 -4.26128 0.6084
-6.83233 -8.22305 0.84755
4.83138 -5.7293 0.595945
8.95088 19.6924 1.71582
7.70462 18.8379 1.63656
5.02459 -5.79102 0.617806
12.7351 11.4916 1.39011
11.7374 11.7901 1.36242
6.71659 -9.37003 0.937227
12.1932 11.6625 1.38709
6.62027 19.4344 1.68066
-6.35801 -4.38907 0.629666
-7.16513 -9.48304 0.975545
11.5061 12.0545 1.37894
10.4434 9.13618 1.18167
-5.04253 -11.5046 1.0611
6.12115 -6.04131 0.750808
9.20163 -7.16839 1.00332
-6.79736 -6.69501 0.810595
10.3933 12.317 1.40703
8.78262 -7.31819 0.993864
10.7906 12.1638 1.42321
-7.3124 -7.76738 0.935252
8.17781 -7.28034 0.972232
10.1698 12.4305 1.44398
-7.07419 -7.74467 0.930051
-6.94099 -8.34393 0.974082
10.5609 12.2763 1.47064
10.4602 13.493 1.54694
-7.11996 -8.33181 0.998357
11.185 10.8038 1.43052
-6.3161 -4.23227 0.699147
-6.86432 -8.59734 1.00658
-6.33 -4.3955 0.7104
11.057 8.53301 1.3108
10.6134 9.30422 1.31617
6.45278 15.3285 1.56438
10.4761 11.2703 1.45619
-11.2418 2.88071 1.09661
6.15282 -5.96075 0.816804
7.99469 -6.62767 0.997549
10.7136 9.17433 1.36944
9.49417 12.4924 1.51945
9.6791 12.4214 1.55161
7.63869 12.2164 1.43138
7.88068 13.1741 1.52823
11.1994 8.04231 1.40535
7.1117 12.655 1.46519
9.03274 11.3199 1.47372
6.9674 13.4887 1.5539
5.83951 13.8756 1.54563
9.17197 10.4565 1.43774
9.00169 12.2635 1.58075
11.3638 7.64156 1.42872
9.22776 9.97947 1.41531
4.97064 -5.8165 0.821487
-6.84848 -4.65784 0.873711
5.54948 13.8259 1.58147
-7.06176 -4.50839 0.893542
8.90241 10.667 1.49194
-6.76926 -6.77894 1.02479
5.90584 -5.82928 0.896453
9.66998 8.51386 1.3889
8.93996 9.33748 1.39056
9.23295 10.2925 1.49931
4.75699 13.7866 1.57419
4.23246 -8.04949 0.985246
6.44583 10.7838 1.38269
-6.80397 -3.92639 0.864749
6.32502 11.8595 1.49146
-6.89788 -3.86457 0.875996
9.69323 7.19227 1.34993
6.6483 11.3464 1.4648
9.78831 7.01808 1.35324
5.41533 11.5443 1.44198
5.41946 12.0505 1.49257
4.6842 12.1901 1.47778
9.81851 6.6734 1.35316
-6.89483 -4.56561 0.947138
7.40073 -6.22505 1.10243
-7.33428 -0.785849 0.845895
-6.27769 -5.39298 0.953228
5.24749 -5.56629 0.882812
8.86005 7.87676 1.38133
4.41655 -7.1807 0.9767
10.3996 5.14845 1.35911
8.94391 7.78072 1.3937
5.19892 -5.60994 0.903728
8.58792 7.90508 1.38517
8.8849 9.03887 1.48306
-7.05139 -5.65395 1.06951
10.1285 4.74264 1.33265
-6.92167 -3.85346 0.954623
9.12875 6.1367 1.33426
5.19515 11.3876 1.51751
-6.8961 -3.06686 0.917145
-6.88049 -3.25295 0.920468
4.87985 -5.95126 0.939466
5.97148 -6.12659 1.04177
9.36208 5.61551 1.34971
8.45047 7.21449 1.37396
-6.95363 -4.31254 1.00805
-6.88508 -4.53716 1.01636
8.24474 8.5708 1.47563
5.01683 11.2825 1.53342
-6.55381 -5.62082 1.0746
3.70768 -7.57225 1.05081
8.49047 7.7312 1.43702
6.0758 -5.6155 1.0374
9.15565 6.05369 1.39111
-6.13786 -5.416 1.03301
8.53839 6.60535 1.37684
8.07669 7.49889 1.40215
-7.10366 -1.78359 0.936945
-7.01633 -2.30695 0.943412
-6.44893 -5.32159 1.06687
8.81892 5.65389 1.34313
8.14244 8.0331 1.47439
-7.26628 -1.25371 0.945681
-6.9011 -4.12087 1.03929
7.42298 6.21384 1.25396
8.06764 7.03161 1.38789
7.9566 8.11275 1.47268
-6.91309 -2.82734 0.972519
-6.9144 -2.96729 0.972901
4.54117 10.0565 1.45031
8.9884 4.10665 1.30089
-7.25016 -1.6067 0.97608
6.83672 -4.2574 1.07051
4.92769 -5.94302 1.02366
-7.33556 -1.11752 0.993413
-7.01666 -2.20011 0.983829
-7.0538 -2.2694 0.990109
-5.99732 -4.39998 0.994196
5.18677 -6.56278 1.11495
6.90744 -4.1743 1.08666
8.06183 7.15989 1.46087
-7.15361 -1.71878 0.98927
-7.08491 -1.95634 0.988736
8.78414 4.84958 1.36296
8.32182 5.866 1.38447
-6.92398 -3.62058 1.06485
8.85788 4.15725 1.34228
3.33557 10.4834 1.50626
-7.315 -1.20031 1.01492
-6.01255 -4.44326 1.02836
-5.99306 -4.54213 1.0296
7.14499 -3.93254 1.12108
8.06141 6.47743 1.43039
5.34572 9.0353 1.45392
-6.38485 -4.32323 1.05723
4.9327 -5.52561 1.02908
7.18261 -3.82831 1.13289
7.55647 -3.68481 1.16338
3.60988 10.0146 1.48249
3.42406 10.3029 1.51382
-7.37141 -1.08245 1.04034
-7.07573 -2.00438 1.02502
4.97209 -5.28743 1.01473
7.24429 -3.73637 1.14526
7.36057 -3.67104 1.16673
7.86938 -3.35522 1.2163
-7.15673 -1.87524 1.05236
-7.0104 -2.94683 1.1022
-6.01038 -4.37521 1.06935
7.90404 -2.7819 1.22612
8.2259 4.61693 1.38222
4.9852 8.54012 1.44952
8.36316 4.50362 1.40402
7.82969 -2.34055 1.20478
7.14014 5.68395 1.36684
2.95477 9.43152 1.47794
-7.0956 -2.02 1.1059
7.48353 -3.10958 1.22182
8.22257 4.54425 1.42424
5.78033 7.43394 1.43012
5.28579 7.62566 1.41406
5.12137 7.93469 1.43469
5.07466 8.04293 1.43953
7.33387 -3.16986 1.22043
7.6794 -2.75615 1.2426
-6.75733 -1.68308 1.04914
7.83168 -2.25684 1.24998
7.23053 5.42283 1.38802
-7.10511 -1.95285 1.14368
-6.92171 -2.78661 1.15993
6.81068 5.5243 1.37573
-7.35716 -1.09601 1.16206
-7.1459 -1.82457 1.15529
-7.04812 -2.06798 1.15111
-7.12255 -1.8729 1.15595
-6.89688 -2.93503 1.17688
4.80684 7.45332 1.41069
3.44559 -6.03076 1.10919
-7.27752 -1.29974 1.18452
3.52731 -5.70648 1.08084
3.56423 -5.61196 1.07025
7.07634 4.76995 1.39081
4.66063 7.3765 1.42029
-7.07281 -2.02399 1.19918
-7.09484 -1.94742 1.20752
6.97176 4.83107 1.40298
3.81756 7.93086 1.45747
6.05454 -3.32002 1.15037
6.63963 4.87766 1.37388
4.66302 7.16704 1.42652
3.83571 -5.29963 1.09965
7.11234 4.42893 1.41098
7.48161 2.86084 1.35385
6.32638 5.28863 1.39776
-7.28109 -1.25608 1.25848
6.76006 4.08713 1.35685
-6.4522 -2.77255 1.19849
5.51051 -3.63037 1.13367
5.69202 -3.51936 1.1491
2.75537 7.85261 1.439
-7.37477 -1.03985 1.29146
5.33457 -3.78398 1.1402
-6.31219 -2.26012 1.16284
-6.27265 -2.41723 1.17729
4.28074 -4.66425 1.10718
4.49384 -4.47703 1.11283
4.5916 -4.44895 1.12174
-6.80279 -1.73302 1.23689
4.33569 6.50485 1.39475
-7.16171 -0.92857 1.29115
-6.14536 -2.2582 1.16644
6.64679 3.69604 1.36353
6.10671 4.36666 1.36192
3.60807 -5.32656 1.17009
5.15321 5.69137 1.40455
2.51715 7.20335 1.43361
6.49212 3.05552 1.35685
-1.70722 -5.78518 1.14178
6.42983 -1.38671 1.24814
6.28009 2.78098 1.32253
6.22498 2.38405 1.33011
-4.45661 3.94365 1.39938
4.32953 3.53805 1.33756
4.21481 3.29519 1.32468
4.66554 -1.67787 1.2451
4.81938 -1.38113 1.2543
-2.14704 4.8108 1.31632
3.72651 -2.95259 1.22237
3.67267 -2.54925 1.19363
3.40597 -2.96116 1.22571
4.00531 2.57013 1.33012
-2.59498 -3.53487 1.25123
-2.32645 -3.57116 1.21659
3.75514 2.05799 1.30206
3.73175 1.98031 1.30148
-2.8458 3.4897 1.38933
-2.29655 -2.41946 1.18755
1.95491 -2.78048 1.21273
-2.12561 2.77018 1.32654
-2.03049 2.75826 1.33272
2.2504 -1.86941 1.22533
2.37989 -1.49807 1.22242
-2.01704 1.87821 1.29725
-2.06439 -1.44296 1.22856
1.44929 -2.06981 1.2456
-1.99232 -1.0877 1.2146
-1.92481 -0.707615 1.22015
-1.92655 -0.703405 1.24575
-1.95572 -0.344335 1.22913
-1.89278 -0.564646 1.23007
-1.8924 -0.530857 1.23516
8.22088 -8.70036 -7.46617
12.1162 -10.2793 -8.79327
-8.78909 15.6894 -6.97809
20.4945 24.9571 -11.6012
-8.80809 -2.5225 -2.58169
-34.5607 -23.0867 -7.67783
-34.1579 -22.3384 -6.02208
-33.8876 -23.0295 -6.0846
-31.2568 -20.0461 -2.79248
9.28046 -8.83941 -0.39159
-7.70743 16.6135 -0.451827
-29.5092 -11.4191 0.728966
-6.92257 -8.27364 0.460822
16.6421 23.8972 1.58229
11.3645 15.9827 1.62221
-6.69766 -6.67068 0.883964
4.21496 12.2305 1.49094
8.7204 9.08356 1.47301
7.97892 -8.77111 -10.3879
8.83962 -8.54695 -10.5063
6.96237 -11.9462 -11.5227
6.87777 -11.3586 -10.9038
8.15913 -8.27147 -9.54044
7.02735 -12.0379 -11.3346
7.07178 -10.9816 -10.4644
8.00881 -8.38464 -9.21144
6.73305 -11.2937 -10.297
6.45042 -11.7063 -10.221
7.76396 -8.8581 -8.9797
6.21076 -14.3279 -11.8174
8.30585 -8.70851 -9.10922
6.30502 -11.9186 -10.1834
6.15224 -12.0971 -10.1202
7.49783 -9.45358 -9.009
7.91621 -9.06373 -8.93435
10.4763 -9.45781 -10.497
6.12509 -14.1247 -11.3796
6.10592 -13.678 -11.013
6.13619 -12.5866 -10.2991
9.20359 -8.83259 -9.35771
9.29156 -9.07952 -9.47511
5.8697 -12.5151 -10.0418
9.36745 -8.9961 -9.2689
6.86741 -11.1352 -9.28472
5.62023 -12.9803 -10.0113
9.69883 -9.08755 -9.41923
7.61548 -9.35205 -8.47958
10.0043 -9.19319 -9.5452
10.9256 -9.50057 -10.1594
11.4493 -9.7058 -10.0801
8.39199 -8.61546 -7.9627
7.43746 -9.30704 -7.87179
8.17488 -8.72632 -7.90354
7.63481 -9.36021 -7.90263
7.8439 -9.41039 -7.85173
8.32799 -8.54296 -7.62672
0.358855 15.8796 -10.1342
7.53439 -9.33239 -7.63281
10.9186 -9.61408 -9.24983
7.23259 -10.7118 -8.18024
8.16255 -8.50505 -7.43427
4.61639 -15.4164 -10.1209
8.72112 -8.70817 -7.62519
7.92848 -9.04051 -7.41714
4.05137 -18.0301 -11.3832
8.20508 -8.63524 -7.28218
4.08823 -17.3148 -10.8557
0.144736 14.8841 -9.05658
6.66063 -11.2728 -7.97174
7.74938 -9.27612 -7.33394
10.1332 -9.31941 -8.35362
6.82686 -11.2616 -7.90586
8.06777 -9.21271 -7.3508
11.2764 -9.70325 -8.89435
5.40563 -13.869 -8.82814
7.74191 -9.27445 -7.16455
9.35871 -9.04094 -7.71055
6.90865 -11.1255 -7.75094
7.9905 -9.1361 -7.12188
9.76062 -9.1949 -7.81486
14.8583 7.42459 -9.64676
8.67493 -8.83881 -7.15624
6.93899 -10.9741 -7.46202
2.64171 -11.2192 -6.62881
7.8668 -9.0796 -6.88051
9.61262 -9.14728 -7.5376
10.8007 -9.5022 -8.11524
3.28001 -20.5971 -11.7291
6.80681 -10.9914 -7.24778
10.1135 -9.29804 -7.69359
12.3479 -10.3609 -9.03929
9.24771 -9.01462 -7.21644
4.61961 -14.3042 -8.38014
8.01099 -9.22454 -6.78542
14.7807 7.55672 -9.1138
9.70476 -9.1139 -7.31172
0.836119 17.4768 -9.55465
2.7414 -19.85 -10.9265
11.1378 -9.65165 -8.00198
4.2371 -14.434 -8.14289
14.694 7.68434 -8.93185
15.0845 10.4148 -9.8421
14.0288 7.73947 -8.5611
10.9577 -9.62406 -7.75538
13.2716 -10.8076 -9.10453
3.04356 -19.3265 -10.2852
11.3626 -9.8309 -7.64518
2.16876 -20.377 -10.343
10.2675 -9.34788 -6.98228
14.2758 -11.2915 -9.13869
13.8124 -11.172 -8.89346
11.0142 -9.66065 -7.29903
7.51339 -9.34378 -5.93764
3.56424 -8.47088 -4.52915
-8.70518 -1.91135 -4.38184
2.22293 -20.1519 -9.94399
4.53323 -9.30173 -5.06064
0.402938 13.663 -6.69118
7.61237 -9.27561 -5.85538
-8.50551 16.2306 -8.87427
-9.20596 -2.4337 -4.58807
15.0001 -11.5836 -9.10759
19.3798 5.54496 -9.63992
-10.3201 -2.55511 -5.02863
1.90975 -20.5519 -9.81468
17.2114 16.1743 -11.1865
7.58665 -11.216 -6.3893
20.032 5.407 -9.77135
14.0333 -11.1104 -8.32348
2.93107 -17.3414 -8.17775
19.3579 5.72757 -9.32624
17.8477 -13.0067 -10.2011
9.86205 -2.49104 -4.69992
20.2869 5.14194 -9.65601
17.3372 16.3035 -10.9667
1.80989 -20.2167 -9.28941
9.67566 -9.0476 -6.06582
-9.21575 -1.67276 -4.27153
9.4495 -3.46736 -4.58445
6.71594 -11.3215 -5.98744
9.90933 -2.61742 -4.64896
19.2508 5.87017 -9.06081
17.7245 17.5811 -11.2231
9.36561 -3.08516 -4.43859
15.4337 -11.8761 -8.73923
7.03992 -11.5665 -6.05643
7.15347 -10.92 -5.8188
9.55575 -3.40351 -4.52046
-10.0247 16.4298 -8.5682
17.6567 -12.8861 -9.71342
19.5375 5.62821 -9.01185
16.1079 7.30632 -7.83256
17.8324 18.0119 -11.2097
16.4294 -12.2188 -9.02414
-11.2765 17.1468 -9.01993
-6.57525 15.0249 -7.19041
-5.23923 4.91395 -3.12947
20.1359 5.46722 -9.07109
9.55467 -3.40378 -4.37741
18.227 18.4743 -11.1546
15.8252 -12.1783 -8.59261
14.8665 7.4332 -7.09379
3.83915 -9.30342 -4.27607
-11.2006 17.0342 -8.63015
6.94594 -10.9089 -5.4532
-13.5967 3.33217 -5.89793
0.743407 -22.3777 -9.43549
15.8096 -11.9704 -8.29303
-5.16841 5.69105 -3.21615
0.998618 -22.2397 -9.33218
1.23231 -20.7824 -8.72171
14.1749 7.60242 -6.72784
18.5592 19.3413 -11.2
3.7831 -8.95559 -4.0542
14.7786 7.73353 -6.94316
17.9274 19.1469 -10.8854
-9.51841 -1.09245 -3.95489
4.00738 -8.50256 -3.85114
14.0418 7.75351 -6.5849
6.84538 -10.9892 -5.2931
-13.6361 2.54727 -5.67465
-7.99017 15.4781 -7.07798
19.2646 20.9334 -11.5256
15.0809 7.24637 -6.74148
-5.29113 14.4478 -6.16851
13.9559 -11.0334 -6.96816
1.53253 19.2648 -7.50612
-8.77774 15.8522 -7.04107
18.9973 5.79354 -7.69553
-1.75692 13.3035 -5.19739
5.29658 -9.39553 -4.15944
-2.38942 13.5218 -5.27379
19.5965 22.6697 -11.4903
4.66095 -8.51621 -3.68693
19.4242 5.57243 -7.68967
0.876156 -26.5014 -10.077
14.9085 -11.4885 -7.08322
19.9837 5.41397 -7.74905
9.44019 -3.43942 -3.75644
0.533046 -22.6586 -8.4465
3.24952 -10.7977 -4.21265
20.1978 23.4988 -11.5074
0.909581 -8.72085 -3.25167
14.0305 -11.1114 -6.59946
20.3921 5.18651 -7.73657
17.8918 17.6794 -9.19214
-13.0503 2.28629 -4.81679
20.8512 24.9001 -11.7795
2.28791 -13.2627 -4.8486
13.0371 -10.5429 -6.0333
0.795812 15.4504 -5.53581
-8.20416 -2.79971 -3.10061
0.409946 -21.8364 -7.8073
-4.23249 13.8884 -5.16401
0.638272 -21.9203 -7.79317
15.86 -11.9785 -7.04447
-15.8045 18.2708 -8.51346
5.92954 -11.3403 -4.49952
-11.0737 16.7105 -7.00134
0.0938329 -18.5059 -6.50533
14.2674 -11.3072 -6.36554
20.3471 5.35862 -7.34432
0.657555 -23.0367 -7.95912
-5.03577 14.6168 -5.29672
3.63969 -8.4492 -3.16681
4.87721 -9.0343 -3.51818
-14.5732 18.0925 -7.95169
2.27562 -10.8887 -3.81212
-8.92815 16.1952 -6.30354
3.02987 -13.7076 -4.78617
-15.0508 18.4727 -8.07749
20.1651 5.48263 -7.02401
22.0549 27.2836 -11.7257
36.0801 -20.3673 -13.8456
-5.33004 14.1358 -5.01715
1.91581 20.7718 -6.92196
1.26748 -10.2483 -3.41436
-5.27745 14.5299 -5.02061
-12.6478 17.3145 -6.95549
18.569 -13.2321 -7.40448
3.55994 -8.67286 -3.00583
6.22128 -10.1152 -3.80575
2.31387 -11.0092 -3.57999
-4.56701 -34.3114 -11.0019
-1.13858 -23.8657 -7.60554
15.0264 10.3489 -5.75826
-13.2741 17.6632 -6.98356
-18.0777 19.4983 -8.35813
6.96407 -11.0983 -4.05075
1.38554 -21.8977 -6.78758
-2.57772 -27.4612 -8.46645
7.19123 33.2157 -10.3714
0.770984 15.0421 -4.57517
-11.1875 16.8795 -6.10326
-2.70448 -26.5594 -8.03991
-14.4136 18.0212 -6.88518
-5.30911 -34.8181 -10.487
0.838359 -25.0523 -7.49496
-5.41871 14.9023 -4.71653
2.08254 20.7278 -6.13816
-21.3762 19.9314 -8.6226
18.2188 5.79763 -5.62777
-4.31666 14.4966 -4.44714
-7.96476 15.4514 -5.09978
4.25681 -9.1454 -2.96487
4.63872 -11.6228 -3.65914
-12.629 2.22477 -3.68546
-33.0951 -46.8799 -16.5126
-15.2683 18.3676 -6.86594
6.96159 -11.0877 -3.76907
2.56407 -9.54688 -2.80871
12.939 -10.4732 -4.73728
-8.45403 -2.46039 -2.49658
21.0846 27.1927 -9.74935
-8.58149 -2.26176 -2.50769
-2.55674 -26.0934 -7.35788
-13.036 1.99761 -3.67258
4.39028 -11.3355 -3.37389
-9.35331 16.0849 -5.10802
-13.1187 17.4958 -6.00614
-5.41882 14.4611 -4.22068
-8.53477 -41.4507 -11.5792
-21.5653 20.1243 -7.92945
-9.77537 16.2092 -5.07249
-26.8284 20.609 -8.99994
11.4422 11.5164 -4.28385
4.3294 -11.3018 -3.20614
47.1152 -13.6964 -12.998
-8.22584 -38.8208 -10.4305
4.09042 -8.65933 -2.52166
11.1759 -9.94047 -3.91275
-14.5157 18.1747 -6.04795
6.53874 -10.4274 -3.18564
3.17893 -9.64864 -2.62624
-30.2168 -44.2558 -13.8377
-4.3704 -28.6678 -7.50309
3.54252 -10.3763 -2.82714
4.06942 -9.38992 -2.63036
15.615 -11.7414 -4.98482
-7.18741 15.3116 -4.28107
-31.6527 -42.213 -13.3797
4.31405 -11.1499 -3.0258
4.25594 -7.70599 -2.24044
6.53933 -10.6667 -3.12027
44.8004 -13.545 -11.6691
-28.3829 21.4138 -8.79008
-11.5799 17.0126 -5.07316
-27.6917 -40.3964 -12.0423
-9.92715 -39.0749 -9.94486
-24.5774 20.643 -7.88739
4.35103 -10.3342 -2.75491
-12.1153 17.3534 -5.13134
-7.87925 15.3515 -4.15882
10.2786 -9.27137 -3.31439
40.2756 -13.3786 -10.1556
15.1243 7.56384 -4.0259
-6.33311 -36.2716 -8.77119
3.96601 -9.08825 -2.34959
46.9851 -12.5752 -11.5438
-12.2019 -44.9285 -11.029
4.2027 -8.99238 -2.36794
3.86132 -11.0748 -2.76415
4.90942 -8.69506 -2.34904
-12.832 17.4867 -5.04754
11.0117 -9.65011 -3.34646
-6.20846 -31.4853 -7.32255
-27.2536 21.0493 -7.80586
41.5098 -9.07796 -9.64257
-30.6061 22.2216 -8.47982
-35.5189 -23.2765 -9.5153
40.707 -12.5838 -9.56652
5.45553 -9.47586 -2.44122
-12.4175 2.83339 -2.79459
40.5807 -11.8921 -9.3431
42.5579 -12.143 -9.73668
-5.40143 14.1711 -3.31571
13.3969 -10.7803 -3.78498
38.0442 -12.2261 -8.78485
-23.4711 20.4563 -6.75334
-29.6954 -73.2122 -17.1435
4.31015 -9.70106 -2.302
4.53965 -9.1813 -2.2123
-14.6338 18.2321 -4.99252
-31.0408 22.5475 -8.19213
-31.9211 22.6532 -8.3672
-28.3175 -75.1309 -17.2104
-10.7303 16.7667 -4.22078
-8.46884 -35.951 -7.85428
3.19079 -9.68669 -2.17477
3.96701 -9.83123 -2.26039
45.7565 -10.6087 -10.0265
14.9565 7.49153 -3.54648
-15.2106 18.7241 -5.10736
5.16458 -9.05585 -2.19024
26.6187 38.5137 -9.78392
14.9969 7.84865 -3.51436
-30.2164 -23.3363 -7.92007
-33.1888 -85.0982 -18.9106
-11.4889 16.9274 -4.15716
-15.6741 18.5318 -4.94107
-35.2859 23.6865 -8.63579
44.3928 -9.68303 -9.26566
-13.3038 -42.8084 -9.11104
4.1362 -9.73506 -2.15201
11.6077 -9.64916 -3.07112
-12.0374 17.2743 -4.2028
-20.0121 -57.4354 -12.1557
-13.0172 -40.4375 -8.41063
4.07015 -9.92216 -2.12337
-34.1908 -23.3793 -8.16526
-26.808 21.04 -6.7071
-33.2211 -23.7636 -7.96209
-6.91262 15.2746 -3.25414
-26.7011 -62.7393 -13.2443
-33.6313 -22.3894 -7.78578
3.43599 -9.36269 -1.92583
45.8353 -10.6198 -9.03458
-12.7849 17.4554 -4.13608
3.98946 -9.34562 -1.93919
-36.5218 -22.1844 -8.08901
-21.3319 -34.6531 -7.73904
-15.645 -45.1421 -9.04005
37.8789 -12.4954 -7.5402
-36.0449 24.2088 -8.12591
-33.7654 -23.3191 -7.70882
-32.716 -23.9363 -7.60954
-21.4059 -53.0314 -10.7608
-16.9508 -46.0434 -9.10124
3.82046 -9.2074 -1.84127
42.5461 -11.467 -8.1826
5.75881 -9.71478 -2.06975
-24.6331 -55.8565 -11.1767
-20.533 -50.965 -9.93808
-14.5974 18.196 -4.13626
-31.1656 -25.1358 -7.11705
-20.3431 -27.1079 -6.06084
-39.4663 24.9037 -8.23375
-26.8164 21.056 -5.93428
-34.1624 23.3771 -7.18732
3.90997 -10.051 -1.87007
4.77235 -8.61346 -1.7113
14.0118 7.52476 -2.74321
14.0863 8.08334 -2.78164
-30.8925 22.4646 -6.54818
42.2253 -11.9465 -7.47092
42.0203 -10.8829 -7.3892
-31.3228 -24.8762 -6.78546
-21.1081 20.1028 -4.8948
-20.4738 -50.8901 -9.26857
14.8688 7.45227 -2.78945
-31.7652 22.4878 -6.5011
-23.6628 -56.4165 -10.1091
43.5503 -11.7321 -7.33096
-10.3734 16.4684 -3.1407
-20.7603 -51.5034 -8.85658
-34.9612 -24.1339 -6.69431
