ply
format ascii 1.0 
element vertex 1862
comment /media/mkaihara/Seagate Backup Plus Drive/model_iterations/model_111.ply
property float32 x 
property float32 y 
property float32 z 
end_header 
9.46048 -8.96134 -9.16933
-0.307024 14.1301 -8.84602
10.1306 -9.30519 -8.17006
8.41621 -8.63739 -7.11569
9.30345 -8.95818 -7.60194
9.40663 -9.00429 -7.56262
8.40615 -8.70771 -6.98314
8.60192 -8.83931 -7.04146
9.19112 -8.99743 -7.34599
2.57915 -20.5002 -11.0905
2.02426 -20.0867 -10.1294
11.1614 -9.62641 -7.31221
11.205 -9.73419 -7.27193
4.53992 -8.17299 -4.56285
17.1451 -12.5037 -10.3098
17.736 -12.7821 -10.5264
17.6897 -12.8053 -10.3578
13.6763 -10.9323 -8.1862
9.28484 -3.51088 -4.6104
9.89258 -2.30721 -4.6865
9.32663 -3.46841 -4.57614
17.5389 17.1171 -11.1946
9.716 -2.63253 -4.59201
16.0936 -12.261 -9.02604
-5.06036 5.67488 -3.28359
-5.08236 5.69 -3.20014
-6.71419 -6.81074 -3.99501
-5.12776 5.69633 -3.17479
14.7651 7.54634 -6.8344
10.479 -9.24345 -5.77437
19.3355 20.8567 -11.3102
-7.589 -3.52665 -3.14909
-7.73807 -3.48597 -3.14649
-7.78201 -3.39939 -3.1296
12.447 -10.1506 -5.90994
9.4936 -3.43857 -3.67886
-6.66142 -6.78256 -3.40122
8.77578 -8.86422 -4.43853
13.2094 -10.7054 -5.92834
20.6426 25.3435 -11.2818
12.8618 -10.4255 -5.08035
31.913 -17.4147 -10.6043
46.6351 -15.602 -14.1886
11.3877 -10.1378 -4.26543
4.41039 -5.92318 -2.05395
45.5496 -14.3473 -13.1291
-25.4523 -35.7384 -11.5582
48.6969 -12.6646 -13.0586
-26.7714 -37.386 -11.8958
-25.0766 -35.2452 -10.9621
11.263 -9.83223 -3.75699
41.8563 -10.6859 -10.392
41.0736 -11.4362 -9.96934
42.533 -10.693 -10.2948
41.0264 -11.653 -9.82432
-35.6744 -23.0763 -9.7275
-36.9205 -23.4462 -9.77013
14.4992 -11.2201 -4.0553
44.189 -10.0966 -10.0936
4.11581 -9.43911 -2.18109
-33.4771 -26.7203 -8.96523
-31.9637 -25.0393 -8.44565
11.8727 -10.0768 -3.25296
-34.85 -28.0357 -9.1602
45.7065 -10.5075 -9.63343
-34.3122 -22.9055 -8.39153
-27.8123 -23.2913 -7.30019
-33.3135 -25.5434 -8.36957
41.5147 -10.9068 -8.60342
-32.8414 -24.4877 -8.1347
-28.3408 -24.7563 -7.44678
12.9904 -10.4159 -3.30112
-29.2158 -24.7448 -7.54555
-30.1386 -25.8872 -7.84434
-34.581 -23.5352 -8.23081
-29.5837 -24.6179 -7.57149
-30.7007 -25.2496 -7.79759
-36.4437 -22.6416 -8.34268
45.6896 -10.4952 -9.11531
-28.4248 -25.938 -7.41717
-33.3274 -24.9413 -7.95886
-34.6246 -23.6417 -7.945
-32.5281 -22.718 -7.52732
-30.9326 -25.1345 -7.48276
-31.4285 -25.873 -7.688
-30.9178 -25.7596 -7.59517
-23.6846 -31.6831 -7.45945
42.5593 -11.1069 -8.24547
-35.6515 -22.1733 -7.83538
-34.7361 -23.99 -7.84486
-32.6327 -24.6314 -7.61189
-31.496 -24.7583 -7.48827
-22.9496 -54.9859 -11.0849
-32.5003 -24.8325 -7.48387
-31.7099 -26.2911 -7.54837
-23.677 -55.1252 -11.0279
-17.5169 -48.8937 -9.51402
-34.7915 -24.294 -7.73429
39.7424 -10.4028 -7.50131
3.8534 -9.81712 -1.91165
-31.5107 -25.8913 -7.34033
3.9446 -9.28559 -1.81487
41.4609 -11.612 -7.70272
-31.6687 -26.258 -7.2604
-15.4823 -22.444 -4.82471
8.82208 -4.25779 -1.70673
44.3189 -10.1294 -8.02785
43.2834 -12.3943 -7.89593
-30.3085 -26.0276 -6.96674
40.3473 -12.4438 -7.29113
-31.532 -24.7252 -6.88988
-30.9423 -26.1857 -6.83402
-31.2927 -24.4825 -6.61517
41.0554 -11.8962 -7.06665
44.3046 -10.1533 -7.37821
-25.0423 -59.0605 -10.1084
-32.3051 -25.139 -6.30423
44.8189 -10.2642 -6.99534
-32.0026 -25.271 -6.14948
-33.7805 -23.9742 -6.10803
-29.6278 -25.1915 -5.72405
-34.4215 -23.2781 -6.04196
-22.0548 -53.9929 -8.49638
-34.6485 -23.6453 -5.9329
41.7083 -10.8623 -6.14556
-32.9179 -24.8062 -5.81185
-32.3864 -24.8309 -5.79793
-30.9972 -25.7996 -5.65112
-29.8525 -26.6324 -5.62312
-31.2895 -25.5768 -5.62774
38.68 -12.7037 -5.68159
-35.9109 -22.9524 -5.87751
-33.3124 -24.8851 -5.69346
-32.5346 -24.7375 -5.60487
-33.6051 -23.8232 -5.58742
-33.4286 -24.3704 -5.64169
-31.2683 -25.8111 -5.51079
13.2158 -10.5066 -2.28532
-34.9894 -22.1517 -5.54191
-33.9373 -23.6073 -5.55965
-32.9037 -24.8088 -5.48363
6.79201 -10.1924 -1.62772
-35.4661 -22.2565 -5.45899
-34.2886 -23.6823 -5.40408
10.3416 -9.13672 -1.78451
-34.3104 -23.3868 -5.30892
-23.4317 -53.4586 -7.37785
-35.3688 -22.3571 -5.25109
-34.072 -23.6832 -5.19063
-31.6264 -25.3236 -5.08732
10.7666 -9.38196 -1.79677
11.542 -9.71067 -1.8778
-33.5145 -22.6923 -4.97694
-34.1153 -23.4648 -5.09962
-33.1145 -24.9862 -5.10828
10.5669 -9.2966 -1.74253
-38.1633 23.9082 -5.40253
-20.2136 10.3011 -2.70184
-19.3236 9.62391 -2.58533
-27.727 -14.9889 -3.67489
-27.0672 -16.6543 -3.65984
44.0395 -9.86312 -5.17529
7.13956 -10.2087 -1.41053
9.88848 -8.84792 -1.47695
40.9817 -10.7263 -4.70772
-27.8329 -17.0213 -3.54994
45.0635 -10.2949 -5.01658
-29.5844 -15.2035 -3.58326
10.3451 -9.07832 -1.47553
10.0795 -8.94614 -1.43052
12.9426 -10.5128 -1.77279
14.6765 -11.2956 -1.95412
9.4491 -4.71971 -1.10625
9.44429 -3.49286 -1.06091
9.44228 -3.38525 -1.05208
-28.4143 -16.9601 -3.45973
10.0927 -9.02756 -1.37595
15.1453 -11.4051 -1.91524
-28.5613 -13.1318 -3.15312
41.7782 -10.8529 -4.22615
9.67128 -8.79313 -1.26665
13.7774 -10.9329 -1.69135
14.5489 -11.201 -1.7594
9.43609 -3.38599 -0.962677
15.1715 -11.6088 -1.80865
-24.9308 21.2143 -3.00962
-24.6111 -55.9817 -5.64119
9.37442 -8.27376 -1.1695
-25.7462 21.5084 -2.98693
11.4744 -9.76244 -1.33684
15.6469 -11.8335 -1.72522
16.6109 -12.2211 -1.79653
9.7948 -9.02251 -1.14581
-36.7054 -70.846 -6.85923
13.3362 -10.7306 -1.45937
-35.7399 -22.3829 -3.5708
11.4668 -9.83314 -1.27162
44.9741 -9.77936 -3.81918
38.6874 -12.6673 -3.26392
-30.4552 -14.5988 -2.70112
18.0088 -12.9338 -1.68765
16.8267 -12.34 -1.46918
-17.7823 -47.5526 -3.46242
-15.5023 -40.058 -2.88414
40.7967 -10.6744 -2.8601
42.3558 -9.61011 -2.85883
11.688 -9.93564 -0.99379
13.1045 -10.6396 -1.0868
13.4648 -10.6737 -1.08579
-17.4865 -43.586 -2.90191
-35.214 24.2367 -2.51827
16.6116 -12.2902 -1.21443
15.5981 -11.7801 -1.12722
17.2228 -12.5927 -1.22984
-38.0743 23.8956 -2.44997
-9.59151 -12.5733 -0.842394
-16.4191 -41.6734 -2.42351
-14.6888 -41.6263 -2.36742
-28.7538 -16.8427 -1.74198
-17.8837 -43.836 -2.48532
-15.3603 -42.5395 -2.37195
-28.1776 -13.758 -1.62286
37.6385 -8.0339 -1.98437
-44.0902 -84.0513 -4.67254
17.8274 -12.8353 -1.06767
-27.9485 -14.0252 -1.48923
-17.0327 -42.2341 -2.10059
-26.7063 -16.5811 -1.3544
-38.1942 23.9909 -1.62505
43.4956 -9.38728 -1.52336
-28.5241 -61.2522 -2.08176
-13.3031 -38.6407 -1.26084
-32.7646 -24.7024 -1.22993
-26.9559 21.998 -0.939613
35.6753 -8.47629 -0.994315
-35.8941 -22.3023 -1.0339
-35.5399 -22.4782 -1.02199
-36.1995 -71.9756 -1.84736
-19.5312 -44.6237 -1.03181
-35.8355 -22.4784 -0.800526
16.816 -12.3091 -0.40127
-35.3118 -22.33 -0.572405
16.9378 -12.4016 -0.241999
12.9975 14.7864 -0.204547
-34.4505 -22.9778 -0.401909
11.1 -9.58916 -0.132123
-36.6643 -21.2946 -0.353441
-29.0807 -8.75109 -0.126075
-29.7392 -9.53944 -0.085102
11.4633 -9.91484 -0.00334773
-13.0876 -20.1464 0.0349777
41.6834 -9.24604 0.12987
9.07087 -8.868 0.103606
15.0095 -11.4663 0.15123
11.2928 -9.76026 0.138862
13.2353 -10.6373 0.178045
18.0454 -12.9482 0.215319
-27.997 -13.5643 0.343238
-33.9194 -22.5367 0.467966
-35.3478 -18.9778 0.456334
-36.3339 -22.3756 0.531131
-13.7694 -20.9026 0.287695
-12.9528 -20.326 0.319425
-13.4387 -20.1306 0.346611
14.9446 -11.4619 0.277576
-30.5433 -13.2161 0.586689
-37.1121 -19.9888 0.814971
-14.2707 -22.3921 0.528199
-30.7118 -13.4718 0.709062
-36.4616 -20.3008 0.850505
18.0852 -12.9813 0.464997
10.4707 -9.20754 0.297718
10.3783 -9.21432 0.344561
-8.2462 -9.78329 0.361406
10.4979 -9.24573 0.415232
13.4646 -10.7544 0.533138
10.34 -9.42627 0.459957
13.1775 -10.6202 0.558436
-9.30788 -13.1375 0.598771
10.4808 -9.44212 0.525962
13.1712 -10.5541 0.665565
-30.667 -17.1094 1.42014
-32.6041 -18.8557 1.53193
9.51775 -9.0913 0.55609
-29.4426 -17.5794 1.50216
21.8537 43.3248 2.15292
9.58479 -8.92526 0.581128
10.4473 -9.35348 0.665348
12.2443 -10.2244 0.745867
-6.18804 6.66134 0.450123
-6.89526 -8.18724 0.536381
-7.15782 -9.28765 0.57758
-28.6174 -11.289 1.61265
-6.85378 -8.49035 0.563618
11.8092 11.6557 0.882106
16.2451 24.2573 1.55091
15.6872 23.7541 1.49665
8.86382 -8.61296 0.663619
8.64758 -8.55617 0.669616
14.5049 24.8852 1.60147
-28.9489 -8.68193 1.68585
-7.55218 -8.04824 0.620681
10.3611 -9.34985 0.802183
-6.78296 -8.23138 0.639202
-6.74336 -8.4715 0.651245
-7.58692 -7.98314 0.683427
-6.92046 -8.25474 0.674519
9.53117 -8.86241 0.815079
10.4397 -9.33957 0.87896
10.4016 12.1602 1.04156
-7.36138 -9.53669 0.794672
12.3538 18.7557 1.51634
12.8626 20.5321 1.63109
9.03742 22.4777 1.68667
-7.1188 -8.32704 0.76037
-7.12108 -7.63952 0.742463
9.49376 -8.83266 0.920406
11.2631 11.8409 1.21079
11.6558 16.5695 1.5244
12.4774 11.4147 1.30026
12.7507 11.357 1.33065
12.1591 11.4654 1.30162
11.9378 11.5921 1.31793
-7.24195 -9.41021 0.941267
11.5043 11.8394 1.32959
-7.38131 -6.1502 0.759756
-7.07788 -8.12045 0.867283
-6.77814 -8.32703 0.864938
-7.28739 -6.26142 0.765725
9.23204 -7.56524 0.989194
-7.3813 -8.12695 0.914336
-7.41618 -9.92736 1.03553
-7.30592 -7.89443 0.904781
9.17175 -6.94859 0.974325
11.5471 11.8158 1.40507
-6.36711 -4.34021 0.660073
-7.09615 -8.38205 0.946552
-6.85173 -8.4326 0.965352
8.97258 -6.84323 1.00663
8.19642 -7.11724 0.976077
5.9289 -5.90359 0.772565
10.7336 11.0106 1.4733
-7.04117 -5.74052 0.867595
10.6993 9.24482 1.37457
-7.1753 -5.72532 0.895541
7.72438 -6.55927 0.997226
10.9881 9.75989 1.45321
10.8482 9.03008 1.41802
9.51013 11.4417 1.49019
-6.51553 -6.51071 0.923556
-6.88093 -4.52105 0.834046
-6.98931 -7.32915 1.02628
10.7082 9.02937 1.44933
10.063 9.39451 1.41158
9.23237 10.044 1.42567
-6.86556 -4.46139 0.86294
-7.15 -5.68264 0.976888
-7.12124 -5.72246 0.975715
-6.92621 -4.63476 0.910016
-7.07192 -5.51167 0.974903
8.62919 10.2031 1.4848
-6.90429 -3.43381 0.864462
-6.97768 -4.35333 0.917464
-6.85059 -3.49384 0.864028
-6.89384 -3.57833 0.871103
-6.90013 -4.23731 0.911134
-6.92133 -4.4084 0.926465
-6.92131 -4.49421 0.929182
8.69352 8.76099 1.39795
-6.95894 -3.85715 0.912819
-6.92339 -4.07473 0.910595
-6.92287 -4.15852 0.918311
5.84525 -5.77208 0.94938
-6.93569 -3.41951 0.901292
-6.9469 -4.37663 0.95297
-6.91642 -4.44825 0.954591
-6.91008 -2.83251 0.875937
-6.89141 -3.62037 0.911594
-6.97651 -4.13885 0.954729
-6.92283 -4.20766 0.949411
8.46974 8.011 1.38342
-6.92577 -2.98562 0.910067
-6.90388 -3.97386 0.956861
-6.88694 -3.65943 0.947101
-6.93083 -4.13065 0.988268
-6.91663 -4.31453 0.999564
-6.4767 -5.36499 1.02833
6.00016 -5.94923 1.03246
-6.91538 -3.75572 0.975846
-6.91368 -3.92059 0.987419
-7.02009 -4.74589 1.05731
-6.94323 -4.39272 1.03707
-6.87535 -3.48194 0.976582
-7.08788 -2.1728 0.94766
-6.89262 -3.08559 0.968995
-6.91136 -3.16328 0.978185
-6.15157 -5.49227 1.07476
-6.93253 -3.23377 1.00051
-6.38641 -4.36697 1.01945
-6.80425 -3.78792 1.03223
-6.89154 -4.18889 1.07029
-7.05892 -2.13753 0.985501
-7.0089 -2.33836 0.99439
-6.91491 -3.26981 1.02201
-6.91413 -3.54295 1.04027
-6.92184 -3.39699 1.05344
-7.0402 -2.16368 1.02375
-6.9382 -3.18284 1.05713
-6.90799 -3.26653 1.05667
-6.8555 -3.65335 1.07246
-6.91167 -2.94847 1.05055
-6.87692 -3.41392 1.0718
-6.89223 -3.75818 1.10453
-6.94158 -3.23932 1.08352
-6.0086 -4.4945 1.06785
-6.89609 -3.5881 1.11671
7.65812 6.3164 1.43491
5.16844 8.2877 1.41282
-6.89979 -3.49624 1.12012
7.29202 -3.51864 1.17522
-6.89179 -3.28244 1.11403
-6.88825 -3.39427 1.12011
-6.87197 -3.20353 1.11569
-7.17442 -1.75559 1.08893
-6.92358 -2.94495 1.11765
-6.92904 -3.03242 1.12213
7.10076 5.59014 1.39927
-6.38251 -2.28697 1.05206
7.0359 5.15367 1.39188
-7.02161 -2.41335 1.19472
-6.4686 -2.82294 1.15147
3.76338 7.88659 1.44042
-6.31601 -2.2636 1.11409
-6.48533 -2.29194 1.17199
-6.15375 -2.28202 1.14348
2.54234 7.34883 1.47463
7.82088 -8.51038 -10.1598
7.94838 -8.79322 -10.3742
7.68063 -8.73722 -10.123
8.17843 -8.31033 -9.98821
6.9317 -11.4503 -10.9681
8.1307 -8.25793 -9.50918
6.93509 -11.8644 -11.1588
8.00876 -8.39493 -9.22143
7.95333 -9.14649 -9.43746
8.22311 -8.68231 -9.29891
7.84267 -8.96819 -9.08709
8.28279 -8.69113 -9.11056
6.31309 -13.9586 -11.4355
7.47379 -9.40183 -8.97715
7.91066 -9.06423 -8.90758
6.20929 -14.3198 -11.4969
6.25072 -12.8426 -10.4972
9.20848 -8.81283 -9.33415
9.19398 -8.96911 -9.34872
5.9482 -12.6998 -10.1771
5.88559 -13.0711 -10.2657
9.34104 -8.96997 -9.26682
9.19801 -9.01227 -9.1476
6.90023 -11.1733 -9.3169
5.59919 -12.9277 -9.97062
6.49562 -10.9766 -8.77362
11.7235 -9.94837 -10.3227
8.23052 -8.61392 -7.88557
7.42167 -9.25878 -7.82656
8.23404 -8.76894 -7.93583
9.14705 -8.77181 -8.34473
7.59544 -9.3134 -7.85049
12.0632 -10.0752 -10.2302
4.66073 -15.7822 -10.6409
9.16805 -8.8099 -8.17699
5.00205 -15.3331 -10.3984
7.74775 -9.29093 -7.74406
8.24037 -8.46153 -7.55277
0.355579 15.6975 -10.0137
4.73274 -15.1166 -10.0858
10.8639 -9.55452 -9.20126
7.90663 -9.06672 -7.62514
8.15251 -8.48553 -7.42662
4.71353 -15.7479 -10.328
-0.390577 13.6191 -8.51926
8.8258 -8.79201 -7.69387
4.2242 -18.6789 -11.8275
7.90984 -9.04643 -7.41972
8.25901 -8.56189 -7.3464
4.25744 -15.3963 -9.78457
8.21097 -8.63231 -7.28514
4.24499 -18.146 -11.3668
0.158008 15.0633 -9.17501
3.75326 -17.8372 -11.0329
4.17152 -15.7499 -9.85269
7.04001 -10.8099 -7.74311
8.04343 -9.20021 -7.34127
4.19462 -16.5718 -10.1886
8.28307 -8.65867 -7.13933
9.39602 -8.98771 -7.7495
7.00806 -11.0523 -7.78409
7.72086 -9.2544 -7.15431
9.04858 -8.80245 -7.4812
7.98984 -9.1553 -7.11157
8.56964 -8.76343 -7.15523
9.68243 -9.14015 -7.76175
6.76072 -13.311 -8.61966
9.23073 -8.96274 -7.43128
5.78507 -13.3477 -8.39693
6.87762 -10.8564 -7.40799
9.54367 -9.09342 -7.50727
11.9066 -10.212 -8.85706
10.7675 -9.46383 -8.06533
6.87545 -11.0934 -7.32684
9.12749 -9.07281 -7.21761
9.24256 -9.0106 -7.21817
12.5812 -10.5027 -9.15511
4.64735 -14.353 -8.43416
10.1814 -9.36951 -7.73542
8.51788 -8.69651 -6.77656
2.7441 -17.3225 -9.67578
14.7031 7.51954 -9.02816
2.71154 -19.8994 -10.924
2.42533 -8.79047 -4.946
2.97446 -19.8947 -10.8699
14.6735 7.64229 -8.88384
2.36419 -20.2144 -10.8087
10.9347 -9.59017 -7.7381
9.76582 -9.01945 -7.04088
14.8639 7.45843 -8.80037
2.36093 -8.80876 -4.82018
1.65767 -19.8451 -10.2863
2.38764 -20.8737 -10.7767
13.8867 -11.0958 -9.10995
-9.31626 -2.61103 -4.92555
11.3131 -9.79722 -7.60178
2.17317 -20.2957 -10.2872
0.855135 17.4852 -8.70527
10.9681 -9.62271 -7.2749
-8.88615 -1.95471 -4.46348
2.21258 -20.2427 -9.99875
3.84893 -9.18179 -4.89063
11.2327 -9.63887 -7.24714
1.99655 -19.9199 -9.78571
-8.47602 16.2694 -8.8976
2.50285 -11.2006 -5.49171
1.99555 -21.1391 -10.1111
14.8244 7.57766 -7.85996
17.2221 16.1292 -11.1586
17.5716 16.8354 -11.3052
14.2977 -11.3066 -8.45363
9.79091 -2.60619 -4.69661
17.1513 16.142 -10.882
9.73856 -2.46481 -4.64747
-10.3868 17.057 -9.10563
-9.5911 -2.07813 -4.45108
9.83981 -2.60349 -4.62016
10.1691 -2.3946 -4.73229
9.74697 -2.97327 -4.6124
-5.41511 4.4644 -3.165
8.07331 -8.3093 -5.22433
17.7037 17.2492 -11.097
17.5765 17.4202 -11.1232
19.102 5.81078 -8.95694
7.12751 -10.8796 -5.79527
20.2232 5.30973 -9.29042
9.54801 -3.41672 -4.50895
-10.0287 16.4871 -8.5718
-5.36721 4.91899 -3.22613
19.2041 5.54787 -8.83618
-11.463 17.4783 -9.20063
17.8475 17.7016 -11.0206
-6.61172 15.1625 -7.2638
9.57523 -3.59444 -4.45728
19.9645 5.41029 -8.96829
17.9823 18.2435 -11.0428
17.775 18.3906 -11.0224
14.7907 7.56919 -7.08167
3.85506 -9.33862 -4.28306
-11.3981 17.3415 -8.77099
-13.5394 3.31628 -5.87672
1.26332 -21.4796 -9.01685
3.2486 -10.1828 -4.4722
14.1157 7.6034 -6.70349
18.544 19.3572 -11.2125
3.86324 -9.17087 -4.14475
14.7363 7.68334 -6.89365
18.2229 19.4247 -11.059
13.9517 7.70624 -6.55448
3.9982 -8.46705 -3.83888
6.76085 -10.8321 -5.23091
-13.4677 2.53332 -5.60952
14.895 7.465 -6.79086
-8.12681 15.7268 -7.19938
1.19057 -10.6098 -4.33659
0.756796 -21.778 -8.82556
-13.0234 2.35892 -5.32576
-9.34011 -1.44207 -3.7737
-5.09834 5.65834 -3.0208
2.83333 -11.7542 -4.76946
14.1435 -11.1588 -7.04389
1.51821 19.048 -7.42409
3.93484 -13.1333 -5.30113
18.8912 5.77512 -7.61314
0.886294 -26.3974 -10.0844
4.74473 -8.66663 -3.75068
11.6837 -10.1155 -5.8732
19.2477 5.5424 -7.59236
19.9312 23.6283 -11.5424
19.834 5.38671 -7.66842
20.2292 23.5773 -11.5747
3.25731 -10.8274 -4.21924
-13.2742 17.8789 -8.21833
11.8486 -10.0553 -5.71462
20.2234 5.16274 -7.65165
20.803 24.8684 -11.7763
-8.19331 -2.82512 -3.14008
19.1687 5.68677 -7.19853
2.27969 -13.2272 -4.82978
0.810942 15.7167 -5.63979
-4.33969 14.1536 -5.28071
-8.24754 -2.80832 -3.10889
6.72646 -10.5044 -4.4291
-16.2617 18.7913 -8.78702
15.8796 -11.9912 -7.0506
-11.2734 16.9974 -7.13227
19.2089 5.85644 -6.97337
3.71423 -8.66258 -3.25114
-8.95013 16.2789 -6.32338
2.98074 -13.4523 -4.70041
18.8108 -13.4561 -7.91368
33.6938 -20.8756 -13.4741
-15.1874 18.6066 -8.10883
19.9447 5.41912 -6.92906
36.5372 -20.6332 -14.0151
40.0843 -19.7276 -14.8918
16.3533 7.3352 -5.97036
3.44602 -10.2544 -3.60743
1.3482 -10.9247 -3.63885
-6.36132 15.1812 -5.37055
-12.909 17.7074 -7.13427
15.689 -12.0574 -6.43836
6.03518 -9.83325 -3.7088
3.33873 -10.131 -3.42094
-1.14766 -24.0063 -7.67537
2.32465 -11.0308 -3.59139
3.22969 -10.0529 -3.34647
2.82599 -9.0391 -2.98682
13.5677 -10.7284 -5.43728
-18.2738 19.754 -8.42792
-8.72618 -2.65787 -2.8572
1.37105 -21.547 -6.66685
19.5024 25.2483 -9.61412
3.22125 -9.86056 -3.12786
3.45101 -8.98003 -2.89563
-14.6058 18.2686 -6.99895
-21.7615 20.295 -8.81483
-8.08209 15.7196 -5.20264
4.76497 -11.9708 -3.77493
4.14785 -8.91713 -2.89148
2.06557 20.3902 -6.01659
-4.40071 14.809 -4.52764
4.05529 -8.95413 -2.87424
-15.5426 18.7007 -7.01388
-33.2053 -47.4514 -16.5653
7.11586 -11.0805 -3.75749
2.5451 -9.47743 -2.78231
-8.42489 -2.20682 -2.4554
4.42908 -10.9943 -3.34229
-2.50147 -25.2133 -7.09852
-9.4271 16.2584 -5.17781
4.35242 -11.2319 -3.32157
8.55874 -8.34815 -3.28546
-13.3027 17.7254 -6.06784
44.884 -14.8813 -12.8915
-8.74523 -2.44613 -2.45897
-24.8747 20.8783 -8.7855
3.24086 -9.96205 -2.83152
3.39227 -9.9657 -2.8438
-4.34197 -31.2012 -8.45608
-27.3319 20.9621 -9.18291
42.0545 -13.8751 -11.7051
45.2501 -13.0988 -12.465
-8.74415 -39.3475 -10.6179
-8.53576 -40.2432 -10.8414
-14.7013 18.4238 -6.11833
9.80844 -8.91965 -3.46545
11.2743 -10.0111 -3.91721
-10.8168 16.8797 -5.18821
-4.37222 -28.6526 -7.52821
3.25718 -9.84778 -2.68177
3.51347 -10.2815 -2.81219
-26.739 21.1981 -8.75331
4.2664 -11.0265 -2.99185
4.39425 -9.66091 -2.67748
9.44454 -9.13357 -3.31239
6.88929 -11.3202 -3.32646
-27.7402 21.4048 -8.75542
43.2989 -12.6036 -11.2536
-11.7151 17.2619 -5.17904
11.7617 -10.1285 -3.83697
3.35849 -10.2163 -2.64663
-24.9952 20.9967 -7.98688
9.93923 -8.97615 -3.22237
-7.98219 15.5747 -4.20289
4.03205 -11.9135 -3.03131
14.9858 7.52668 -4.01222
3.37141 -11.0817 -2.7776
3.16108 -9.85956 -2.46802
-6.92484 -39.5931 -9.56417
-11.5429 -44.3354 -10.8599
3.96319 -9.08 -2.3436
-29.4797 22.0312 -8.69534
14.7966 7.57312 -3.89214
-9.60588 16.5951 -4.50498
3.91232 -11.2806 -2.81119
-13.055 17.7999 -5.16016
-26.9582 21.3913 -7.99311
3.47628 -10.2991 -2.49285
10.9968 -9.44084 -3.34499
15.5589 -11.7293 -4.46414
-38.3442 27.1305 -10.7424
-12.9319 -45.0154 -10.6731
10.8678 -9.50247 -3.30289
-12.2048 -43.8634 -10.327
-6.30257 -31.9557 -7.41048
40.1395 -12.4093 -9.52158
-27.5772 21.3045 -7.86375
14.6237 -11.3486 -4.16286
-31.4151 22.8201 -8.71396
4.44562 -5.79996 -1.64027
5.28258 -9.15753 -2.36578
-29.6836 -76.5732 -18.1559
-9.81229 16.4281 -4.21626
4.09674 -9.75364 -2.3285
13.385 -10.7973 -3.79208
3.99894 -9.15677 -2.19768
40.5102 -11.98 -9.25254
-23.9519 20.8787 -6.93026
3.387 -10.0793 -2.282
4.38657 -9.8746 -2.33833
14.87 7.47465 -3.57455
-29.5268 22.0936 -7.9283
-21.6763 -34.3666 -8.72857
-8.55181 -36.2136 -7.95705
-24.896 20.9979 -6.94076
-31.7047 23.0283 -8.34023
3.23967 -9.90472 -2.22432
4.86369 -8.84536 -2.14085
14.6837 7.66729 -3.50517
4.21779 -10.4589 -2.40034
41.1698 -10.7289 -9.01682
-10.724 16.8 -4.20632
4.32922 -9.12939 -2.11955
5.14588 -9.0278 -2.17737
14.6912 7.39227 -3.42577
-38.9647 25.6584 -9.71207
-27.6178 -25.6078 -7.78464
3.02341 -9.46168 -2.0649
-29.1977 -30.7889 -8.74198
-20.1747 -31.5014 -7.7021
3.84658 -9.31209 -2.0792
3.73179 -8.72331 -1.94753
-15.8989 18.8012 -5.04096
-26.0218 -68.9715 -15.1284
3.98163 -8.7672 -1.96921
-14.0516 3.07404 -2.93897
-34.0192 -24.0426 -8.49454
-29.2032 -80.6647 -17.4593
-11.5582 -37.2176 -7.92413
43.2749 -9.45087 -8.99844
14.8405 7.58167 -3.33856
-17.9905 -23.8322 -5.99993
12.288 -10.0417 -3.19166
-19.6191 -56.1221 -11.8634
4.16838 -10.7248 -2.29531
-12.2486 17.5646 -4.25508
-26.6499 20.9695 -6.7226
-35.9604 -21.2881 -8.30748
-32.6723 -25.5162 -8.2154
-9.46531 -36.6908 -7.54337
14.4539 -11.3955 -3.64724
4.02056 -9.80225 -2.08881
3.21826 -9.8378 -2.02945
-36.3579 24.0238 -8.46929
-24.064 -57.941 -12.1245
-16.4934 -47.6223 -9.60966
3.48198 -8.89 -1.82868
-20.5956 -33.3558 -7.44208
-32.4628 -25.3351 -7.76415
-29.4483 -26.1491 -7.41295
-22.7602 -56.2413 -11.4764
3.87615 -9.06859 -1.87853
-17.2151 -46.9523 -9.35741
3.43569 -9.2047 -1.81422
-32.9353 -24.5825 -7.4812
-31.7481 -27.2214 -7.62143
-33.6486 23.6896 -7.41858
-20.9091 -51.7305 -9.95395
-31.7067 -25.5414 -7.16064
-25.3946 -65.7501 -12.4143
-34.9375 23.2502 -7.34871
-17.1298 -48.3049 -8.98504
3.39683 -9.54866 -1.77165
14.0067 7.77357 -2.7774
-29.2873 -25.6692 -6.77287
3.46646 -9.49413 -1.75301
4.78971 -8.64192 -1.71243
-27.3498 21.4725 -6.00946
-31.3236 22.7822 -6.68101
-31.5251 -29.0369 -7.39499
3.87862 -9.98149 -1.84798
13.8602 7.47178 -2.70497
-24.4646 -56.2117 -10.4242
-21.0024 19.9831 -4.89248
-31.9638 -25.4057 -6.92331
-20.4017 -50.5811 -9.24667
5.586 -11.7049 -2.19031
41.7123 -11.7808 -7.34896
-18.7925 -50.1528 -9.01567
40.8647 -10.6323 -7.10367
4.98401 -10.6954 -1.96465
-10.5327 16.7463 -3.2108
-30.744 -23.7988 -6.33543
42.0858 -11.3021 -7.09231
-22.5065 20.445 -4.93257
-21.1334 -52.2834 -8.95466
-23.3115 20.4967 -4.89666
-24.5549 20.9325 -5.02067
-33.5713 23.6481 -6.35381
3.80289 -10.0737 -1.65496
-32.5621 -25.1772 -6.29115
-14.1853 -42.7937 -6.92426
-31.6876 23.0606 -5.95809
-23.596 -56.7884 -9.36373
-7.78952 15.7742 -2.65385
-33.8205 -23.7676 -6.22763
-33.0821 -24.3213 -6.22129
-28.1737 -26.4344 -5.8137
-33.6825 -24.2423 -6.2241
-31.8212 -25.4723 -6.09285
-35.3018 -23.5789 -6.30146
-25.2757 21.2177 -4.86541
-33.6109 -25.152 -6.18627
-32.5569 -24.6544 -6.03047
-25.9572 21.3896 -4.92102
-12.8789 -42.6767 -6.5334
-12.8029 17.5135 -3.12606
-7.80187 15.6098 -2.48964
3.49947 -9.53573 -1.4455
38.0309 -12.5077 -5.69498
-33.9518 -25.0099 -5.96501
-31.0364 -24.6665 -5.57917
-30.5194 -25.741 -5.62189
-21.1977 -51.0755 -7.7053
-6.96203 15.4275 -2.29897
-14.2128 18.1591 -3.12885
-12.0671 -42.2392 -5.98095
-7.54536 15.2931 -2.29102
-25.3447 -65.9763 -9.5612
-22.7604 20.6987 -4.09768
-25.5512 -57.9137 -8.41011
-31.7758 -24.5293 -5.29848
44.8161 -10.327 -6.0488
44.203 -9.71717 -5.96277
-13.8334 -42.9896 -5.93454
6.60666 -10.8883 -1.67535
-15.2449 18.6728 -3.13785
-23.1703 20.4074 -4.00295
-33.1048 -24.7141 -5.31835
10.6595 8.74263 -1.77904
-34.2793 23.5699 -5.3415
-30.2347 23.0071 -4.78961
-31.384 -24.5712 -5.02823
-13.0625 -37.1637 -4.9806
9.63215 -9.01487 -1.64648
12.7235 -10.3983 -2.06905
-34.4168 24.1437 -5.25717
-36.6124 -22.8096 -5.37222
-31.0532 -25.6669 -5.00585
6.7501 -10.2659 -1.53364
-33.4054 -23.612 -5.06903
-14.009 -43.7052 -5.64466
13.1114 -10.9302 -2.09577
41.3289 -10.7414 -5.27332
-16.4332 18.9183 -3.06354
-16.2932 -39.4917 -5.22205
-8.89239 15.8978 -2.21946
43.166 -9.9435 -5.36433
14.9092 7.783 -2.01957
9.379 -8.8994 -1.54369
-34.2266 -23.8803 -4.94864
-18.1431 19.7188 -3.13589
-20.969 9.27931 -2.71718
-32.1946 -24.9246 -4.80183
11.2346 -9.6644 -1.73538
41.6711 -11.1555 -5.0801
14.614 -11.3471 -2.12705
14.8374 7.62666 -1.89627
-30.4616 23.1658 -4.366
7.23259 -10.983 -1.49266
-10.4223 16.6406 -2.19975
9.40834 -9.27532 -1.47094
12.7026 -10.4331 -1.83328
13.8868 -10.9606 -1.96827
9.41284 -9.07743 -1.4516
7.02714 -10.4064 -1.3758
44.1257 -9.63715 -4.9168
-11.0785 16.6419 -2.1565
-33.7949 23.8303 -4.49109
11.6518 -9.78937 -1.64358
6.14166 -12.6299 -1.47773
7.51854 -11.5088 -1.43093
9.80463 -8.86643 -1.391
-15.8185 -45.71 -5.07107
16.4399 -12.1745 -2.146
-31.6686 -63.6234 -7.37188
14.7811 7.44295 -1.69101
-31.4813 -25.0894 -4.13507
13.7423 -10.8731 -1.79629
-32.2563 -24.9511 -4.12617
14.7672 7.71553 -1.67357
-12.8669 17.2072 -2.1119
-21.0492 -53.3684 -5.55922
-34.0206 -68.725 -7.34172
-23.7907 20.8114 -2.98659
-31.3435 -25.6769 -3.85162
-31.3248 -26.0199 -3.88121
-22.4785 -58.8191 -5.9374
-14.3049 18.3048 -2.17504
-31.6011 -24.7231 -3.74459
-16.1224 -43.9133 -4.35789
-14.3225 -44.516 -4.36204
9.77401 -9.05933 -1.23862
-34.537 -67.2759 -6.96737
8.52804 -8.6249 -1.10152
16.3739 -12.2 -1.86862
-15.2191 18.6693 -2.16128
-36.2928 -22.5734 -3.86778
-33.7421 23.8232 -3.63812
-31.3998 -25.3323 -3.5654
13.9486 -11.0941 -1.58255
-32.4979 -19.8036 -3.24714
10.9915 -9.64595 -1.24552
-27.1158 21.9949 -2.93276
-11.613 -36.1439 -3.2084
9.35528 -8.97017 -1.08846
-34.4771 23.7041 -3.47643
8.64993 -8.65151 -1.0051
16.6343 -12.1314 -1.68229
-17.1595 -44.5886 -3.83994
-22.0534 -50.4474 -4.31007
-15.6271 -38.5788 -3.2995
-13.6197 -38.2137 -3.22335
9.15989 -8.9016 -1.00377
11.2241 -9.72989 -1.16485
14.7566 -11.5422 -1.48364
-30.4742 23.2389 -2.98236
-29.5174 -13.7781 -2.53064
11.7892 -9.98755 -1.19795
-23.8939 -53.2141 -4.4682
12.6959 -10.538 -1.25037
-42.931 -81.4478 -6.66393
9.90053 -9.08654 -0.974168
10.8481 -9.68321 -1.01379
-33.6139 -20.8673 -2.73709
11.8823 -9.98643 -1.07502
14.6051 -11.4993 -1.29236
-15.8973 -40.1696 -2.94041
-15.5142 -41.0421 -3.00814
18.4089 -13.304 -1.50836
-23.6863 20.7386 -2.08946
-25.7282 -59.3497 -4.27812
12.791 -10.522 -1.10757
-15.0341 -41.7091 -2.88169
15.161 -11.4471 -1.23485
-33.7105 -68.2527 -4.78128
-15.4783 -47.976 -3.13297
-33.4507 23.6305 -2.50637
-34.1508 -67.5346 -4.60698
-17.4262 -42.4486 -2.79833
30.485 -20.2114 -2.22742
41.4382 -10.8061 -2.60045
36.0517 -8.69198 -2.24738
-15.5402 -41.7223 -2.69042
-27.4513 22.2791 -2.00427
-29.2455 -14.3983 -1.8837
-16.2629 -42.3673 -2.53173
16.7582 -12.5044 -1.17176
-27.3989 -16.4877 -1.72144
42.0125 -9.3582 -2.21412
-9.43721 -12.6096 -0.799601
-15.8433 -42.1639 -2.24407
5.67042 -12.3756 -0.676607
-14.429 18.2915 -1.13612
-15.64 -49.1582 -2.53411
14.7824 7.75526 -0.803947
-16.7797 -43.0101 -2.19473
-15.0877 -49.0699 -2.42294
18.5525 -13.1631 -1.09064
-17.8248 -51.6927 -2.5513
36.3322 -8.92336 -1.75348
-29.1455 -14.9035 -1.4647
-25.2779 -57.9213 -2.80333
-16.9785 -41.775 -2.00791
9.6124 -9.07064 -0.589409
12.5255 -10.2805 -0.727521
43.6046 -9.97718 -1.98981
-14.4831 -44.0544 -1.97444
-33.3734 23.5921 -1.70156
-54.9561 29.8463 -2.49372
-34.4412 23.7019 -1.53348
-19.5052 -51.0078 -2.05035
-35.0459 -22.069 -1.48044
9.69927 -9.02645 -0.487279
6.57252 -10.7774 -0.438173
-13.4286 -40.032 -1.39826
7.407 -13.0012 -0.511258
18.449 -13.0669 -0.763931
-27.6611 -60.5821 -2.19369
-13.7065 -38.8852 -1.33643
20.7654 23.9496 -1.01721
-23.5075 20.8693 -0.989566
-21.6055 -55.3218 -1.84249
20.8244 -14.2008 -0.766587
-27.8754 -14.345 -0.950237
-13.4258 -42.9675 -1.339
-24.4875 20.8069 -0.922458
-24.5645 -56.5325 -1.7541
-18.1513 -49.1261 -1.51143
-34.8948 -21.2615 -1.1302
-9.8336 -12.9016 -0.463364
-23.7369 -55.978 -1.71698
17.8743 -13.316 -0.567655
29.3885 49.0432 -1.48006
-30.6348 23.3738 -0.990045
-31.8155 23.2704 -0.974193
-27.4777 -13.2028 -0.746982
9.52103 -8.95965 -0.316546
-21.2255 -34.1879 -0.938675
-40.8623 14.1741 -0.944956
21.0228 -14.0665 -0.537372
18.2782 -13.1776 -0.423008
12.7348 -10.462 -0.274726
-33.5615 10.6136 -0.58124
-28.5576 -13.599 -0.50065
-37.5696 -21.3954 -0.656754
-18.6569 -45.7359 -0.76483
-8.05688 16.9437 -0.254734
-32.9754 -24.6336 -0.570764
-34.3453 -23.4135 -0.532027
17.1556 -12.7997 -0.259886
18.0685 -13.0091 -0.28254
28.5742 -17.6195 -0.44837
-22.2325 -56.9418 -0.742422
-30.8231 23.4997 -0.41268
-28.7975 -61.4476 -0.723402
-19.1362 -43.8914 -0.513172
-54.6219 29.9344 -0.51716
-34.8911 -61.5493 -0.652748
-20.7786 -54.494 -0.554833
37.0138 -8.94204 -0.350314
-14.5421 18.4575 -0.164647
-37.2139 -82.8718 -0.623027
-18.4357 -44.7149 -0.330026
9.52819 -8.96569 -0.0408176
14.681 7.72852 -0.02802
-29.6959 -13.2474 -0.0587075
-11.7627 -17.126 0.025164
-12.9878 -19.5487 0.0444961
-19.2008 -44.075 0.197716
9.3954 -8.94514 0.0590557
-33.4015 23.6383 0.213499
-22.633 -57.1381 0.29652
-30.5123 -14.1613 0.202103
16.6908 -12.1782 0.115339
-13.246 -20.3096 0.157995
14.5976 -11.371 0.145468
-54.2578 19.4396 0.511133
7.03444 -12.0866 0.117301
15.8629 -11.7545 0.167445
-36.9674 -22.37 0.453278
37.6881 -7.74613 0.400355
-35.7842 -22.4251 0.481031
-12.8635 -35.5284 0.440235
-13.348 -35.8937 0.463285
-11.4501 -32.9709 0.424003
-9.83597 -30.4328 0.386427
24.7528 50.1199 0.729229
9.53995 -8.97307 0.169244
-12.9201 -20.0207 0.32419
-11.1462 -33.8351 0.48722
8.52951 -8.47333 0.182207
6.23573 -12.7571 0.20671
7.1054 -10.949 0.199162
9.29724 -9.01295 0.186944
7.99072 -9.06676 0.193212
9.67452 -8.9579 0.217107
37.1765 -7.96493 0.623562
-24.3516 20.8828 0.575495
-33.6687 -22.6523 0.698197
-35.0238 -25.6967 0.760647
12.8211 -10.5325 0.271752
13.1285 -10.5891 0.315965
-9.95999 -12.6283 0.303574
6.78322 -11.1169 0.253869
7.94573 -9.33824 0.241029
25.2545 51.9607 1.15895
6.9322 -10.8961 0.259562
9.13305 -8.64148 0.267056
11.4518 -9.84308 0.330818
17.1119 -7.64319 0.377175
7.16519 -10.8712 0.294615
-12.9264 -19.8436 0.565487
7.60683 -9.26111 0.272936
7.78929 -9.31508 0.281844
-26.1834 22.0066 0.88941
-29.2318 -9.3741 0.770564
9.56808 -8.9025 0.336139
17.3166 -12.65 0.540503
18.1354 -13.0585 0.555632
-23.436 20.5185 0.812455
-28.3309 22.3902 0.943679
-29.2433 -8.77691 0.79956
-33.5928 -17.9118 1.03397
-13.4987 -20.3836 0.649507
14.6315 -11.3685 0.494283
22.5155 -3.27593 0.640224
-12.3176 -19.2066 0.659826
24.7048 -4.68003 0.731751
15.9646 24.7752 0.883907
-28.3991 -20.9212 1.04364
7.17532 -11.2396 0.400333
6.92092 -10.6281 0.386238
14.3913 23.4437 0.845099
-7.641 -8.82932 0.357076
12.9284 -10.5787 0.510022
-7.33854 -9.53794 0.368586
-28.8631 -8.14677 0.998316
-11.9957 -17.5352 0.711232
7.82815 -9.29825 0.402143
15.9573 10.9023 0.692382
10.7872 -9.39283 0.519559
11.8066 -9.97532 0.56314
21.8046 43.9075 1.84195
-7.46531 -8.15036 0.413165
9.59489 -8.90681 0.488717
22.5825 -3.17057 0.875405
25.3113 52.3223 2.25147
-7.46915 -9.91385 0.485495
10.3628 -9.45128 0.550148
12.6279 -10.4294 0.661661
21.3595 -2.6178 0.877304
-29.5161 -17.9068 1.41162
8.69176 -8.65265 0.50685
-6.93843 -8.48388 0.471142
9.38242 -8.87546 0.539908
12.4889 14.3365 0.840025
-29.2092 -8.57241 1.33801
14.4446 18.8142 1.0664
14.6272 25.1849 1.29823
20.7315 40.7668 2.02339
6.10685 -13.6061 0.665062
10.7712 -9.44957 0.647999
18.328 -1.62654 0.841801
18.7178 35.6393 1.88865
14.5603 25.654 1.38358
-11.247 2.78967 0.558477
-7.26377 -9.57452 0.579573
9.11473 -8.93365 0.60445
11.3221 -8.68643 0.668248
19.924 -2.28319 0.966053
11.4879 11.7076 0.814826
15.3725 36.9694 1.96884
7.71584 -9.40387 0.598735
10.1196 -9.2166 0.677805
14.2037 24.0853 1.40058
19.3103 37.4461 2.13913
20.7996 -2.59103 1.06579
-7.42382 -8.52901 0.586688
9.33059 -8.88374 0.67085
16.3011 23.9044 1.52037
15.9972 29.0009 1.72913
12.9002 -10.6331 0.888228
10.4172 12.1777 0.857362
13.9403 18.9228 1.26291
10.9988 -9.5371 0.787172
14.7129 19.1695 1.333
-26.8087 20.5504 1.84722
-6.98386 -8.19354 0.595669
10.1152 12.2291 0.889024
-7.28288 -9.40173 0.666103
9.85424 12.2757 0.913202
-28.2811 19.9108 1.96527
6.04737 -12.7716 0.809144
11.0391 11.9335 0.934594
-6.89509 -6.80492 0.56197
11.1286 11.8669 0.958169
-6.8246 -8.43309 0.649346
6.19383 -12.4505 0.812627
14.3526 19.0963 1.43672
13.7779 22.5266 1.57552
12.9175 29.853 1.95247
-6.19071 6.59367 0.555954
-8.19045 -7.76078 0.682605
-7.1344 -8.18447 0.666887
5.66992 -12.3308 0.820798
-7.49798 -6.90329 0.634181
6.9546 -11.0806 0.808984
6.94155 -10.4908 0.78518
11.259 -9.71877 0.918582
12.0368 -10.0692 0.972499
16.0591 7.11222 1.1192
14.5991 18.9121 1.51183
-7.25182 -6.32001 0.624059
10.1988 -9.3148 0.891417
-7.39392 -6.27273 0.636202
11.3284 11.9538 1.12231
9.28323 20.8983 1.5572
-7.29563 -9.68422 0.810095
11.4811 12.4522 1.16208
-6.9668 -4.46465 0.56938
-6.76902 -8.22125 0.72633
-6.7099 -4.44047 0.555208
9.22122 -8.81606 0.888158
9.94603 -7.80331 0.890528
12.4991 15.7533 1.45416
9.75864 -8.24069 0.933991
11.2506 16.8223 1.52155
11.1679 17.8047 1.57014
9.38409 17.8607 1.52153
8.79196 19.0004 1.57465
7.09984 21.1602 1.67781
10.5427 18.1971 1.60226
9.96458 -7.5602 0.956383
-7.04402 -7.20546 0.772257
-17.3075 -6.2776 1.43987
9.42755 -7.64293 0.951402
9.12004 18.2153 1.60782
-6.38944 -4.26635 0.609335
-6.84744 -8.24125 0.849507
4.83026 -5.72795 0.595733
8.78965 19.3375 1.68476
7.5621 18.4892 1.60609
5.02275 -5.78888 0.617506
12.6263 11.3933 1.37818
11.6339 11.6861 1.35035
6.69747 -9.3433 0.934505
12.0872 11.5611 1.37498
6.48022 19.0229 1.64482
-6.36558 -4.3943 0.630624
-7.18531 -9.50976 0.978327
11.402 11.9454 1.36641
10.37 9.07187 1.1733
-5.06111 -11.547 1.0649
6.11494 -6.03516 0.749965
9.17739 -7.14947 1.00058
-6.80911 -6.70659 0.812136
10.2949 12.2004 1.39363
8.76035 -7.29959 0.99125
10.6907 12.0513 1.40996
-7.32856 -7.78455 0.937426
8.15902 -7.26357 0.96991
10.072 12.3109 1.43
-7.08921 -7.76112 0.932132
-6.95688 -8.36304 0.976392
10.4617 12.161 1.45673
10.3509 13.352 1.53068
-7.13664 -8.35134 1.00078
11.0935 10.7155 1.41874
-6.32341 -4.23717 0.700178
-6.88053 -8.61765 1.00903
-6.33743 -4.40066 0.711451
10.9836 8.47632 1.30201
10.5373 9.23748 1.30665
6.35297 15.0911 1.53991
10.3859 11.1732 1.44354
-11.2932 2.89391 1.10213
6.1465 -5.9546 0.815881
7.97852 -6.61423 0.995439
10.6377 9.10935 1.35965
9.40025 12.3687 1.50429
9.5846 12.3 1.53633
7.55846 12.088 1.41618
7.79086 13.0239 1.51062
11.128 7.991 1.39629
7.03077 12.5109 1.44831
8.9514 11.2179 1.46031
6.88024 13.3198 1.53422
5.75582 13.6765 1.52316
9.09648 10.3704 1.42577
8.91296 12.1425 1.565
11.2939 7.59455 1.41983
9.15552 9.90131 1.40411
4.96899 -5.81456 0.821122
-6.85827 -4.6645 0.875183
5.46767 13.6218 1.55779
-7.07244 -4.51521 0.895124
8.82703 10.5766 1.47915
-6.78105 -6.79075 1.02673
5.90068 -5.82416 0.895579
9.60543 8.457 1.37951
8.87403 9.26858 1.38017
9.15842 10.2094 1.48706
4.68051 13.5646 1.54843
4.22736 -8.03973 0.98401
6.38277 10.6782 1.36894
-6.81334 -3.93179 0.866191
6.25473 11.7276 1.47462
-6.90768 -3.87006 0.877495
9.63711 7.15061 1.342
6.58009 11.2299 1.44953
9.73266 6.97816 1.34542
5.35206 11.4092 1.42482
5.35255 11.9015 1.4738
4.62085 12.0247 1.45738
9.76472 6.63683 1.34562
-6.90476 -4.57219 0.948737
7.38863 -6.21486 1.10054
-7.349 -0.787401 0.847952
-6.2856 -5.39978 0.954629
5.24513 -5.56376 0.882318
8.80456 7.8274 1.37254
4.41351 -7.17572 0.975953
10.3505 5.12412 1.35257
8.8886 7.73257 1.38494
5.19669 -5.60752 0.903242
8.53377 7.85519 1.37629
8.82135 8.97418 1.47229
-7.06288 -5.66317 1.07145
10.0831 4.72139 1.32656
-6.93156 -3.85897 0.956252
9.08216 6.10535 1.32732
5.13397 11.2533 1.49926
-6.90604 -3.07127 0.918757
-6.89029 -3.25758 0.922062
4.87807 -5.94904 0.939023
5.96554 -6.12046 1.04064
9.31695 5.58842 1.34307
8.40136 7.17253 1.36583
-6.96374 -4.31881 1.00977
-6.89496 -4.54367 1.01806
8.18802 8.51179 1.4653
4.95735 11.1485 1.51483
-6.56308 -5.62879 1.07632
3.70544 -7.5676 1.0501
8.4379 7.6833 1.42796
6.07023 -5.61032 1.03635
9.10933 6.02304 1.38393
-6.14522 -5.42251 1.03445
8.4924 6.56974 1.36928
8.02782 7.45346 1.3935
-7.11568 -1.7866 0.938871
-7.02735 -2.31056 0.945217
-6.45748 -5.32866 1.0685
8.77666 5.62678 1.33655
8.08983 7.98115 1.46468
-7.27986 -1.25604 0.94781
-6.91093 -4.12674 1.04103
7.38478 6.18182 1.24735
8.02166 6.9915 1.37981
7.90447 8.05955 1.46284
-6.92323 -2.83148 0.974252
-6.92448 -2.97162 0.974622
4.49251 9.94844 1.43435
8.95279 4.09037 1.29561
-7.26317 -1.60957 0.978184
6.82932 -4.25277 1.06924
4.92572 -5.94061 1.02315
-7.34967 -1.11965 0.995698
-7.02778 -2.20359 0.985722
-7.06503 -2.273 0.992016
-6.00344 -4.40448 0.995461
5.18274 -6.55764 1.11399
6.89976 -4.16964 1.08534
8.01509 7.11833 1.45221
-7.16595 -1.72173 0.991328
-7.09662 -1.95956 0.990713
8.74618 4.8286 1.35692
8.28108 5.83725 1.37753
-6.93391 -3.62578 1.06666
8.82279 4.14077 1.33682
3.29046 10.3409 1.48522
-7.32887 -1.20257 1.01722
-6.01876 -4.44786 1.02967
-5.99923 -4.54682 1.03091
7.13632 -3.92775 1.1196
8.01864 6.44303 1.42263
5.29979 8.95751 1.4411
-6.39254 -4.32845 1.05876
4.93132 -5.52403 1.02868
7.17379 -3.82359 1.13138
7.54589 -3.67963 1.16163
3.56626 9.89296 1.46398
3.3794 10.1679 1.49342
-7.38576 -1.08454 1.04275
-7.08734 -2.00765 1.02705
4.97089 -5.28613 1.01438
7.23519 -3.73166 1.1437
7.35093 -3.66621 1.16508
7.85728 -3.35003 1.2143
-7.16886 -1.87841 1.0545
-7.0208 -2.95119 1.10416
-6.01655 -4.37972 1.07071
7.89161 -2.7775 1.22406
8.192 4.59789 1.37636
4.94402 8.46937 1.43717
8.32907 4.48524 1.39813
7.81735 -2.33685 1.20275
7.10622 5.6569 1.36015
2.91816 9.31372 1.45888
-7.10728 -2.02332 1.10808
7.47326 -3.10529 1.22001
8.18899 4.52567 1.41825
5.74249 7.38516 1.42047
5.24881 7.57216 1.40384
5.08326 7.87547 1.42366
5.03602 7.98151 1.42822
7.32439 -3.16574 1.21872
7.66805 -2.75206 1.24063
-6.76797 -1.68573 1.05116
7.81927 -2.25325 1.24787
7.19748 5.398 1.38148
-7.1169 -1.95609 1.14595
-6.93194 -2.79073 1.16198
6.77905 5.49859 1.36912
-7.37141 -1.09812 1.16472
-7.15802 -1.82765 1.15762
-7.05951 -2.07132 1.15334
-7.13452 -1.87604 1.15826
-6.90691 -2.9393 1.17892
4.77267 7.40015 1.40029
3.4473 -6.03366 1.10959
-7.29103 -1.30213 1.18712
3.52938 -5.70975 1.08133
3.56635 -5.61523 1.07074
7.04723 4.75028 1.38488
4.62753 7.32391 1.40982
-7.08437 -2.02729 1.20151
-7.1066 -1.95064 1.20989
6.94285 4.811 1.39695
3.78459 7.86201 1.44436
6.05047 -3.31777 1.14946
6.61186 4.85722 1.36791
4.631 7.11765 1.41633
3.8376 -5.30217 1.10004
7.08468 4.41167 1.40528
7.45888 2.85213 1.34956
6.29794 5.26479 1.39123
-7.29468 -1.25841 1.26125
6.73547 4.07222 1.35171
-6.46038 -2.77606 1.20035
5.50845 -3.62899 1.1331
5.6893 -3.51766 1.1484
2.72766 7.77283 1.42376
-7.38919 -1.04187 1.29442
5.33308 -3.7829 1.13973
-6.32019 -2.26298 1.16468
-6.28031 -2.42018 1.17909
4.28208 -4.66567 1.10737
4.49472 -4.47786 1.11289
4.59222 -4.44951 1.12173
-6.81348 -1.73573 1.23923
4.3085 6.46384 1.38559
-7.1752 -0.930293 1.29401
-6.15259 -2.26085 1.16819
6.62435 3.68353 1.35872
6.08358 4.35006 1.35652
3.61035 -5.32984 1.17066
5.12719 5.66252 1.39714
2.4938 7.13557 1.41947
6.47294 3.04645 1.35263
-1.70525 -5.779 1.1408
6.4227 -1.38516 1.24659
6.26279 2.77329 1.31868
6.20933 2.37803 1.32655
-4.47521 3.96041 1.40614
4.31587 3.52678 1.33298
4.20241 3.28539 1.32042
4.66484 -1.67761 1.24469
4.81782 -1.38068 1.25367
-2.16181 4.84559 1.32705
3.72924 -2.9547 1.22301
3.67527 -2.551 1.1942
3.40931 -2.964 1.22663
3.99613 2.56413 1.32669
-2.59237 -3.53152 1.25046
-2.3236 -3.56706 1.21561
3.74828 2.05413 1.29929
3.7252 1.97674 1.2988
-2.85656 3.50362 1.39581
-2.29384 -2.41681 1.18677
1.95953 -2.78667 1.21505
-2.13135 2.77866 1.33152
-2.03582 2.7666 1.33768
2.25427 -1.87245 1.22692
2.38325 -1.50007 1.22364
-2.02004 1.88172 1.30049
-2.06219 -1.44158 1.22805
1.45307 -2.07458 1.248
-1.99037 -1.08676 1.21427
-1.92321 -0.707092 1.22008
-1.92498 -0.702901 1.24569
-1.95459 -0.344119 1.2294
-1.89133 -0.564254 1.23011
-1.89098 -0.530491 1.23523
8.20137 -8.67987 -7.44879
12.068 -10.2386 -8.75889
-8.89622 15.8836 -7.06613
20.2191 24.6201 -11.4423
-8.82948 -2.5286 -2.58805
-35.0642 -23.423 -7.78917
-34.643 -22.6556 -6.1072
-34.3748 -23.3606 -6.17166
-31.6513 -20.2991 -2.82749
9.25078 -8.81111 -0.390462
-7.88921 17.0053 -0.462458
-29.8044 -11.5333 0.736511
-6.9382 -8.29232 0.461938
16.3555 23.4857 1.55513
11.2245 15.7858 1.60214
-6.70881 -6.68178 0.88558
4.15396 12.0529 1.46886
8.65764 9.01814 1.46225
7.96195 -8.75271 -10.3663
8.81929 -8.52752 -10.4826
6.94795 -11.9227 -11.5003
6.86388 -11.3367 -10.8831
8.1417 -8.25397 -9.52042
7.01381 -12.0161 -11.3142
7.05719 -10.9598 -10.4439
7.99153 -8.36671 -9.19193
6.71925 -11.2716 -10.2771
6.43747 -11.684 -10.2019
7.74746 -8.83952 -8.96107
6.19761 -14.3 -11.7949
8.28669 -8.68862 -9.08863
6.29241 -11.896 -10.1645
6.14071 -12.0759 -10.1028
7.48084 -9.43247 -8.98918
7.89935 -9.04473 -8.91581
10.4426 -9.42763 -10.4639
6.11441 -14.1026 -11.3621
6.09724 -13.661 -10.9995
6.12434 -12.5639 -10.2809
9.179 -8.80916 -9.33315
9.26663 -9.05538 -9.45019
5.85836 -12.4926 -10.0241
9.34245 -8.97231 -9.24463
6.85128 -11.1098 -9.26396
5.60965 -12.9578 -9.99435
9.67027 -9.06093 -9.39198
7.59878 -9.33186 -8.4615
9.97414 -9.16563 -9.51691
10.8912 -9.47097 -10.128
11.4094 -9.67219 -10.0456
8.37267 -8.59582 -7.94472
7.42067 -9.28629 -7.85451
8.15525 -8.7055 -7.88493
7.61723 -9.33893 -7.88492
7.82579 -9.38897 -7.8341
8.30839 -8.52299 -7.60909
0.362624 15.8811 -10.1346
7.51698 -9.31107 -7.61564
10.8821 -9.58217 -9.21948
7.21387 -10.6846 -8.15987
8.1436 -8.48543 -7.41731
4.60977 -15.3986 -10.1095
8.70166 -8.68902 -7.60852
7.91037 -9.0201 -7.4006
4.04571 -18.0126 -11.3724
8.18624 -8.61558 -7.26578
4.08526 -17.3092 -10.8524
0.148373 14.8879 -9.05839
6.64421 -11.2458 -7.95303
7.73216 -9.25581 -7.31808
10.0993 -9.28826 -8.32611
6.81037 -11.2351 -7.88768
8.04846 -9.1909 -7.33363
11.2359 -9.66855 -8.86294
5.3943 -13.8423 -8.81158
7.72402 -9.25328 -7.14843
9.33301 -9.01631 -7.68978
6.89148 -11.0986 -7.73255
7.97172 -9.11487 -7.10555
9.73126 -9.16739 -7.79178
14.7768 7.3836 -9.59237
8.65188 -8.81545 -7.13758
6.92235 -10.9485 -7.44493
2.63765 -11.2041 -6.62023
7.84829 -9.05845 -6.86471
9.58359 -9.11977 -7.51525
10.7654 -9.47136 -8.0892
3.28055 -20.6144 -11.7389
6.79157 -10.9676 -7.23235
10.0816 -9.26885 -7.66975
12.2956 -10.3172 -9.00164
9.22197 -8.9897 -7.19673
4.60921 -14.275 -8.36354
7.99053 -9.20116 -6.7685
14.6985 7.51444 -9.06168
9.67554 -9.08659 -7.2901
0.839151 17.4583 -9.54365
2.74315 -19.8776 -10.9416
11.0991 -9.61831 -7.97466
4.22508 -14.3963 -8.12224
14.6124 7.64133 -8.88076
14.9875 10.3474 -9.77697
13.9517 7.69665 -8.51259
10.9194 -9.59059 -7.72875
13.2113 -10.7586 -9.06384
3.04563 -19.3523 -10.2988
11.3213 -9.79527 -7.61782
2.16921 -20.4011 -10.3552
10.2321 -9.31572 -6.95863
14.2089 -11.2388 -9.09655
13.7448 -11.1174 -8.85063
10.9734 -9.62495 -7.27246
7.49475 -9.32078 -5.92329
3.56094 -8.46324 -4.52516
-8.7276 -1.91626 -4.39346
2.22565 -20.1956 -9.96529
4.5291 -9.29387 -5.05641
0.405926 13.6502 -6.68417
7.59368 -9.25301 -5.84136
-8.58988 16.3961 -8.96629
-9.23112 -2.44035 -4.60091
14.9208 -11.5225 -9.06018
19.2573 5.50984 -9.57807
-10.3527 -2.56316 -5.04477
1.90977 -20.5749 -9.8257
17.0593 16.0303 -11.0851
7.56442 -11.1837 -6.37128
19.9021 5.37186 -9.70706
13.9683 -11.0592 -8.2856
2.92335 -17.3046 -8.16101
19.234 5.69085 -9.26563
17.7355 -12.9253 -10.1379
9.83909 -2.48517 -4.68862
20.1547 5.10838 -9.59222
17.182 16.1565 -10.8661
1.81134 -20.2559 -9.30727
9.6474 -9.02134 -6.04843
-9.24148 -1.67742 -4.28377
9.42905 -3.45979 -4.57426
6.69574 -11.288 -5.97017
9.88615 -2.61123 -4.63775
19.1271 5.83239 -9.00167
17.5538 17.4107 -11.1125
9.3456 -3.0785 -4.4288
15.3463 -11.8089 -8.69046
7.01795 -11.531 -6.03828
7.13389 -10.8906 -5.8035
9.53471 -3.39595 -4.51024
-10.1284 16.6034 -8.6601
17.5449 -12.8047 -9.65276
19.4116 5.59189 -8.9529
16.011 7.2622 -7.78428
17.6576 17.8343 -11.0972
16.3345 -12.1484 -8.97281
-11.4144 17.3591 -9.13332
-6.64153 15.1816 -7.26696
-5.26322 4.93703 -3.14491
20.0034 5.4312 -9.01056
9.53368 -3.39624 -4.36754
18.0427 18.2863 -11.0392
15.7359 -12.1098 -8.54487
14.7807 7.3901 -7.05169
3.83361 -9.29038 -4.27027
-11.3337 17.2394 -8.73569
6.92657 -10.8789 -5.43859
-13.6717 3.35062 -5.93097
0.743392 -22.4476 -9.46471
15.7264 -11.9077 -8.25008
-5.19546 5.7216 -3.23423
0.999624 -22.314 -9.36303
1.23133 -20.8017 -8.72993
14.0944 7.55903 -6.68845
18.3628 19.1355 -11.0789
3.77856 -8.94515 -4.04962
14.6924 7.68818 -6.90148
17.7414 18.9471 -10.7698
-9.54671 -1.09567 -3.96693
4.00464 -8.49711 -3.84868
13.9614 7.70887 -6.546
6.82604 -10.9586 -5.27874
-13.7079 2.56075 -5.705
-8.0819 15.6595 -7.16256
19.0438 20.6922 -11.3907
14.9929 7.20396 -6.70109
-5.34186 14.5932 -6.23194
13.8859 -10.9781 -6.93374
1.52714 19.1493 -7.45935
-8.88377 16.0468 -7.12915
18.876 5.75645 -7.64554
-1.76319 13.3761 -5.22632
5.28665 -9.37818 -4.15196
-2.40124 13.607 -5.3077
19.3541 22.388 -11.3453
4.65546 -8.50639 -3.68275
19.2983 5.53626 -7.63906
0.879883 -26.7028 -10.1527
14.8278 -11.4264 -7.04545
19.852 5.37826 -7.69728
9.41999 -3.43201 -3.74818
0.535045 -22.8391 -8.51276
3.24109 -10.7706 -4.20252
19.9398 23.1972 -11.3575
0.91064 -8.73226 -3.25576
13.9611 -11.0566 -6.56736
20.2561 5.1519 -7.6843
17.7072 17.4962 -9.09517
-13.116 2.29784 -4.84139
20.5699 24.5627 -11.6176
2.28201 -13.2331 -4.83822
12.9776 -10.4949 -6.00625
0.79632 15.3931 -5.51407
-8.22228 -2.80588 -3.10762
0.410458 -21.9768 -7.8568
-4.27623 14.0401 -5.22187
0.639111 -22.0247 -7.82985
15.7676 -11.9088 -7.00406
-16.0295 18.532 -8.63665
5.91671 -11.3166 -4.49039
-11.223 16.9377 -7.09812
0.0927912 -18.6078 -6.54056
14.1963 -11.251 -6.33435
20.2109 5.3227 -7.29447
0.658762 -23.162 -8.00189
-5.09551 14.7968 -5.36355
3.63602 -8.44082 -3.16375
4.87009 -9.02139 -3.51327
-14.7816 18.3523 -8.06744
2.27319 -10.8791 -3.80896
-9.04898 16.4171 -6.39156
3.01674 -13.6514 -4.76725
-15.2662 18.7384 -8.19515
20.0298 5.44581 -6.97622
21.7158 26.8629 -11.5424
35.6048 -20.0993 -13.6648
-5.39657 14.3174 -5.08329
1.90422 20.6045 -6.86428
1.26751 -10.2516 -3.41547
-5.34183 14.7131 -5.08545
-12.8266 17.5607 -7.05589
18.436 -13.1373 -7.35223
3.5586 -8.67008 -3.00485
6.20676 -10.092 -3.79723
2.31286 -11.0068 -3.57928
-4.64326 -34.8624 -11.1769
-1.15211 -24.1063 -7.68117
14.9176 10.2738 -5.71541
-13.4639 17.917 -7.08539
-18.3566 19.7998 -8.4888
6.94173 -11.0631 -4.03825
1.38855 -21.9811 -6.8132
-2.61298 -27.8128 -8.5736
7.07368 32.654 -10.1928
0.771222 14.9807 -4.55536
-11.3504 17.1267 -6.19415
-2.74545 -26.9428 -8.15452
-14.6265 18.2883 -6.98865
-5.39117 -35.3366 -10.6419
0.842437 -25.2535 -7.55444
-5.49364 15.1138 -4.78513
2.06806 20.5465 -6.08258
-21.7122 20.2452 -8.75956
18.1036 5.76093 -5.59153
-4.36973 14.683 -4.50577
-8.07777 15.6732 -5.17455
4.24997 -9.13095 -2.96035
4.62615 -11.5923 -3.64987
-12.6905 2.23563 -3.70363
-33.9472 -48.0857 -16.9355
-15.4961 18.6424 -6.96999
6.93682 -11.0484 -3.75612
2.56199 -9.54002 -2.80678
12.8815 -10.4268 -4.71663
-8.47346 -2.46602 -2.50242
20.7636 26.7771 -9.59818
-8.60183 -2.2671 -2.51374
-2.60112 -26.5292 -7.47915
-13.1003 2.00748 -3.69088
4.37705 -11.3021 -3.36432
-9.49229 16.3256 -5.18595
-13.3143 17.7577 -6.09736
-5.49735 14.6753 -4.28482
-8.73524 -42.4108 -11.8454
-21.913 20.4492 -8.05855
-9.92101 16.4523 -5.14998
-27.2774 20.9542 -9.15159
11.3547 11.4278 -4.24976
4.31595 -11.2674 -3.19675
46.4001 -13.4885 -12.8018
-8.44692 -39.8557 -10.7062
4.08327 -8.64417 -2.51741
11.1321 -9.90151 -3.8977
-14.7399 18.4562 -6.14288
6.52198 -10.4011 -3.17782
3.17417 -9.63477 -2.62263
-30.978 -45.3703 -14.1844
-4.46491 -29.2796 -7.6613
3.53434 -10.353 -2.82105
4.06189 -9.37278 -2.62574
15.5231 -11.6723 -4.95598
-7.30265 15.5595 -4.35199
-32.4078 -43.2197 -13.6972
4.30135 -11.1178 -3.0174
4.25035 -7.6957 -2.23754
6.51855 -10.6331 -3.11073
44.142 -13.3459 -11.4985
-28.8797 21.7887 -8.94484
-11.758 17.2753 -5.15278
-28.2933 -41.2731 -12.3023
-10.1866 -40.0901 -10.2012
-24.9885 20.9884 -8.02029
4.34129 -10.3116 -2.74911
-12.3018 17.6215 -5.21185
-8.00034 15.5895 -4.22469
10.2436 -9.23989 -3.30335
39.7473 -13.2031 -10.0232
15.0303 7.51673 -4.00015
-6.48931 -37.1548 -8.98289
3.96066 -9.07629 -2.34661
46.2771 -12.3857 -11.3708
-12.5745 -46.2945 -11.362
3.84477 -11.0276 -2.75283
4.90033 -8.67897 -2.34484
-13.0317 17.7595 -5.12747
10.9702 -9.61377 -3.33411
-6.33451 -32.117 -7.46803
-27.7209 21.4104 -7.94049
40.9612 -8.95785 -9.51578
-31.1642 22.6269 -8.63517
-36.0485 -23.6234 -9.65655
40.1709 -12.4181 -9.44136
5.44313 -9.45446 -2.43589
-12.4796 2.8476 -2.8087
40.0422 -11.7342 -9.21989
41.9773 -11.9774 -9.60466
-5.49262 14.4137 -3.37403
13.3294 -10.726 -3.7663
37.5765 -12.0759 -8.67761
-23.8641 20.7989 -6.86722
-31.2152 -76.9561 -18.0168
4.29995 -9.67826 -2.2968
4.5299 -9.16163 -2.20774
-14.868 18.5243 -5.07356
-31.618 22.9667 -8.34512
-32.5217 23.0795 -8.5253
-29.8891 -79.2977 -18.1612
-10.9041 17.0392 -4.29055
-8.681 -36.8462 -8.04821
3.18339 -9.66452 -2.17001
3.95627 -9.80475 -2.25456
45.0852 -10.4529 -9.88013
14.8636 7.44492 -3.52379
-15.457 19.028 -5.19124
5.15383 -9.03706 -2.18585
26.0125 37.6351 -9.55811
14.9011 7.79845 -3.49124
-30.6326 -23.6577 -8.02859
-11.6749 17.202 -4.22569
-15.9258 18.8298 -5.02143
-35.9879 24.1577 -8.80814
43.7635 -9.54564 -9.13501
