ply
format ascii 1.0 
element vertex 1878
comment /media/mkaihara/Seagate Backup Plus Drive/model_iterations/model_52.ply
property float32 x 
property float32 y 
property float32 z 
end_header 
-27.7482 21.9298 0.923207
-28.9265 -8.68178 0.790568
-33.1251 -17.6624 1.01945
-13.3529 -20.1635 0.642742
14.73 -11.4451 0.497816
22.6951 -3.30211 0.645517
-12.1948 -19.0152 0.65348
24.9253 -4.72186 0.738514
16.3098 25.311 0.902631
-28.018 -20.6405 1.02967
7.21137 -11.2961 0.402436
6.95155 -10.6752 0.388034
14.6956 23.9394 0.86259
-7.61751 -8.80218 0.35591
13.0038 -10.6405 0.513171
-7.31443 -9.50662 0.367334
-28.5561 -8.0601 0.987356
-11.8896 -17.3801 0.705128
7.85598 -9.33136 0.40367
16.112 11.008 0.698976
10.8365 -9.43585 0.522069
11.8676 -10.0269 0.5662
22.7031 45.7168 1.91734
-7.44483 -8.128 0.411941
9.63257 -8.94184 0.490752
22.7635 -3.19603 0.882612
26.5505 54.8843 2.36113
-7.44275 -9.8788 0.483751
10.409 -9.49352 0.55273
12.6992 -10.4883 0.665556
21.5203 -2.63755 0.884079
-29.1419 -17.6797 1.39367
8.72199 -8.6828 0.508715
-6.91979 -8.46106 0.469803
9.41853 -8.90968 0.542097
12.6438 14.5144 0.850283
-28.8946 -8.48005 1.32326
14.6778 19.1179 1.08343
14.9655 25.7675 1.32801
21.5152 42.3081 2.09952
6.15832 -13.7209 0.67066
10.8204 -9.49284 0.651092
18.4443 -1.63689 0.84727
19.3358 36.816 1.95072
14.9056 26.2625 1.41616
-11.1887 2.77518 0.555123
-7.23976 -9.54287 0.577622
9.14918 -8.96748 0.606841
11.3727 -8.72531 0.671366
20.0628 -2.29913 0.972939
11.6053 11.8273 0.823038
15.9702 38.4068 2.04515
7.74372 -9.43792 0.600987
10.1627 -9.25586 0.680806
14.5173 24.6172 1.43132
19.9809 38.7468 2.21319
20.9515 -2.61 1.07375
-7.40253 -8.50454 0.584927
9.36617 -8.91767 0.673516
16.638 24.3985 1.55164
16.4263 29.779 1.77534
12.9756 -10.6953 0.893573
10.5307 12.3104 0.866597
14.1697 19.2342 1.28356
11.0506 -9.58209 0.791008
14.9545 19.4844 1.35477
-26.2989 20.1597 1.81087
-6.96588 -8.17245 0.594049
10.2268 12.3641 0.898742
-7.25954 -9.37159 0.663926
9.96444 12.413 0.923329
-27.7549 19.5404 1.92748
6.08973 -12.8611 0.814796
11.1552 12.059 0.94434
-6.88091 -6.79092 0.560676
11.2449 11.9909 0.968102
-6.80675 -8.41102 0.647572
6.23432 -12.5319 0.817937
14.5892 19.4112 1.46032
14.0607 22.989 1.60778
13.3219 30.7877 2.01355
-6.1399 6.53949 0.550803
-8.16693 -7.73848 0.680525
-7.11569 -8.163 0.665048
5.70684 -12.4112 0.826119
-7.48042 -6.88712 0.632552
6.98837 -11.1344 0.812959
6.9713 -10.5358 0.788601
11.3141 -9.76639 0.923203
12.1006 -10.1226 0.97779
16.1833 7.16723 1.12788
14.8357 19.2188 1.53628
-7.23668 -6.30681 0.622593
10.2431 -9.3553 0.8954
-7.37807 -6.25928 0.634672
11.4472 12.0792 1.13406
9.49458 21.3743 1.59271
-7.2713 -9.65192 0.807365
11.6062 12.588 1.17472
-6.95518 -4.4572 0.568204
-6.75212 -8.20071 0.72443
-6.69954 -4.43362 0.554126
9.25584 -8.84921 0.891593
9.98173 -7.83137 0.893834
12.6714 15.9704 1.4742
-6.6697 -6.66217 0.655011
9.79463 -8.27114 0.937543
11.4247 17.0828 1.54514
11.3541 18.1016 1.59635
9.55513 18.1864 1.54934
8.9728 19.3915 1.60715
7.29413 21.7396 1.72397
10.7284 18.5178 1.63055
9.9995 -7.58675 0.959845
-7.02828 -7.18935 0.770398
-17.2013 -6.23905 1.43074
9.45874 -7.66825 0.954655
9.29355 18.562 1.63853
-6.38073 -4.26053 0.608266
-6.83011 -8.22038 0.847269
4.8316 -5.72956 0.595978
8.97496 19.7454 1.72044
7.72596 18.8901 1.6411
5.02492 -5.7914 0.617852
12.7513 11.5062 1.39186
11.7528 11.8056 1.36419
6.71953 -9.37413 0.937639
12.2089 11.6775 1.38887
6.64128 19.4961 1.68601
-6.35691 -4.38831 0.62953
-7.16218 -9.47913 0.975144
11.5216 12.0707 1.38078
10.4544 9.14576 1.18289
-5.03981 -11.4984 1.06055
6.12214 -6.04229 0.750934
9.20531 -7.17126 1.00373
-6.79565 -6.69333 0.810376
10.408 12.3344 1.409
8.786 -7.32102 0.994252
10.8054 12.1806 1.42515
-7.31004 -7.76487 0.934941
8.18067 -7.2829 0.972579
10.1844 12.4483 1.44604
-7.072 -7.74227 0.929754
-6.93867 -8.34113 0.97375
10.5757 12.2935 1.47268
10.4764 13.514 1.54934
-7.11752 -8.32895 0.998009
11.1985 10.817 1.43225
-6.31503 -4.23156 0.698999
-6.86195 -8.59436 1.00623
-6.32892 -4.39475 0.71025
11.0679 8.54143 1.31208
10.6247 9.31414 1.31756
6.46769 15.3639 1.56801
10.4895 11.2848 1.45805
-11.2343 2.87879 1.09581
6.15381 -5.96172 0.816943
7.99717 -6.62972 0.997864
10.7248 9.18398 1.37087
9.50814 12.5108 1.52169
9.69314 12.4394 1.55386
7.65062 12.2355 1.43362
7.89404 13.1965 1.53083
11.21 8.04994 1.40668
7.12373 12.6765 1.46767
9.04483 11.335 1.47569
6.98038 13.5139 1.55681
5.85198 13.9053 1.54896
9.1832 10.4693 1.43949
9.01491 12.2815 1.58308
11.3742 7.64856 1.43002
9.23847 9.99107 1.41696
4.97094 -5.81686 0.821545
-6.84706 -4.65687 0.8735
5.56166 13.8563 1.58497
-7.0602 -4.50739 0.893314
8.91361 10.6804 1.49382
-6.76755 -6.77721 1.02452
5.90666 -5.8301 0.896585
9.67957 8.5223 1.39027
8.94973 9.3477 1.39207
9.24402 10.3049 1.50111
4.7684 13.8198 1.57801
4.23329 -8.05107 0.985443
6.45521 10.7996 1.38471
-6.80261 -3.9256 0.864542
6.33548 11.8792 1.49395
-6.89646 -3.86377 0.875781
9.70157 7.19846 1.35109
6.65844 11.3638 1.46705
9.79658 7.02402 1.35438
5.42475 11.5645 1.44452
5.42943 12.0727 1.49535
4.69367 12.2148 1.48081
9.8265 6.67884 1.35426
-6.89338 -4.56465 0.946908
7.40259 -6.22662 1.10272
-7.33214 -0.785621 0.845596
-6.27654 -5.39199 0.953027
5.24789 -5.56672 0.882888
8.86829 7.8841 1.38262
4.41706 -7.18155 0.976821
10.4069 5.15207 1.36006
8.95213 7.78788 1.39498
5.19931 -5.61037 0.903804
8.59596 7.91249 1.38647
8.89432 9.04846 1.48463
-7.04971 -5.6526 1.06923
10.1352 4.74581 1.33354
-6.92022 -3.85266 0.954388
9.13567 6.14136 1.33527
5.20424 11.4076 1.5202
-6.89466 -3.06621 0.916912
-6.87907 -3.25227 0.920238
4.88018 -5.95166 0.939537
5.97243 -6.12756 1.04194
9.36879 5.61954 1.35068
8.45776 7.22072 1.37515
-6.95215 -4.31162 1.0078
-6.88364 -4.5362 1.01611
8.25316 8.57956 1.47715
5.02567 11.3024 1.53616
-6.55246 -5.61966 1.07435
3.70808 -7.57307 1.05092
8.49827 7.73831 1.43835
6.07668 -5.61632 1.03756
9.16252 6.05824 1.39216
-6.13678 -5.41504 1.0328
8.54521 6.61064 1.37795
8.08395 7.50563 1.40342
-7.10192 -1.78316 0.936667
-7.01472 -2.30642 0.943151
-6.44769 -5.32056 1.06663
8.8252 5.65793 1.34409
8.15025 8.04082 1.47581
-7.2643 -1.25337 0.945373
-6.89967 -4.12001 1.03903
7.42865 6.21859 1.25492
8.07446 7.03757 1.38907
7.96433 8.12065 1.47412
-6.91162 -2.82674 0.972269
-6.91293 -2.96666 0.972653
4.54841 10.0726 1.45267
8.99369 4.10907 1.30166
-7.24828 -1.60628 0.975776
6.83787 -4.25812 1.0707
4.92804 -5.94344 1.02375
-7.3335 -1.11721 0.993081
-7.01504 -2.1996 0.983555
-7.05217 -2.26887 0.989833
-5.99643 -4.39932 0.994014
5.18743 -6.56362 1.1151
6.90863 -4.17503 1.08686
8.06877 7.16607 1.46214
-7.15181 -1.71834 0.988972
-7.0832 -1.95587 0.98845
8.78978 4.8527 1.36384
8.32788 5.87028 1.38549
-6.92254 -3.61983 1.06458
8.8631 4.15971 1.34307
3.34228 10.5046 1.50938
-7.31299 -1.19998 1.01459
-6.01165 -4.44259 1.02817
-5.99216 -4.54144 1.02942
7.14633 -3.93328 1.1213
8.06776 6.48254 1.43153
5.35253 9.04685 1.45581
-6.38373 -4.32247 1.05701
4.93296 -5.5259 1.02914
7.18397 -3.82904 1.13311
7.55809 -3.68561 1.16363
3.61637 10.0327 1.48523
3.43071 10.323 1.51684
-7.36932 -1.08214 1.03999
-7.07405 -2.0039 1.02473
4.97232 -5.28768 1.01479
7.24569 -3.73709 1.14549
7.36205 -3.67178 1.16697
7.87123 -3.356 1.21659
-7.15496 -1.87478 1.05205
-7.00888 -2.94619 1.10192
-6.00948 -4.37455 1.06916
7.90594 -2.78256 1.22642
8.23093 4.61977 1.38308
4.99131 8.55062 1.45133
8.36823 4.50635 1.40488
7.83156 -2.34111 1.20507
7.14519 5.68798 1.36782
2.96023 9.44907 1.48077
-7.0939 -2.01952 1.10558
7.4851 -3.11023 1.22209
8.22756 4.54701 1.42511
5.78595 7.44119 1.43154
5.29127 7.6336 1.41556
5.12702 7.94348 1.43631
5.08039 8.05205 1.4412
7.33533 -3.17049 1.22068
7.68113 -2.75678 1.24289
-6.75578 -1.6827 1.04885
7.83357 -2.25738 1.2503
7.23544 5.42653 1.38898
-7.10339 -1.95238 1.14335
-6.92022 -2.78601 1.15964
6.81538 5.52813 1.37669
-7.3551 -1.0957 1.16168
-7.14414 -1.82412 1.15495
-7.04647 -2.0675 1.15079
-7.12081 -1.87245 1.15561
-6.89543 -2.93441 1.17658
4.81191 7.4612 1.41221
3.44539 -6.03042 1.10914
-7.27556 -1.29939 1.18414
3.52705 -5.70607 1.08078
3.56396 -5.61155 1.07019
7.08067 4.77287 1.39167
4.66554 7.3843 1.42183
-7.07113 -2.02351 1.19884
-7.09314 -1.94695 1.20717
6.97605 4.83406 1.40386
3.82245 7.94108 1.4594
6.05519 -3.32037 1.15051
6.64375 4.8807 1.37475
4.66776 7.17437 1.42801
3.83548 -5.29932 1.0996
7.11645 4.4315 1.41181
7.485 2.86214 1.35448
6.33061 5.29218 1.39871
-7.27911 -1.25574 1.25808
6.76372 4.08935 1.3576
-6.45102 -2.77203 1.19822
5.51086 -3.6306 1.13376
5.69247 -3.51964 1.1492
2.75948 7.86447 1.44125
-7.37268 -1.03956 1.29103
5.33484 -3.78417 1.14027
-6.31103 -2.2597 1.16257
-6.27154 -2.4168 1.17703
4.28058 -4.66409 1.10715
4.49376 -4.47695 1.11282
4.59156 -4.44891 1.12174
-6.80124 -1.73262 1.23655
4.33972 6.51094 1.39609
-7.15975 -0.928317 1.29073
-6.1443 -2.25781 1.16619
6.65012 3.69791 1.36423
6.11015 4.36913 1.36271
3.60778 -5.32614 1.17001
5.15707 5.69565 1.40564
2.52062 7.21343 1.4357
6.49498 3.05687 1.35747
-1.7075 -5.78607 1.14192
6.43092 -1.38695 1.24837
6.28266 2.78213 1.3231
6.22732 2.38495 1.33063
-4.45391 3.94122 1.3984
4.33156 3.53972 1.33823
4.21665 3.29665 1.3253
4.66567 -1.67792 1.24516
4.81964 -1.38121 1.25439
-2.14491 4.80577 1.31476
3.72614 -2.9523 1.22228
3.67232 -2.54901 1.19354
3.40551 -2.96077 1.22558
4.00669 2.57103 1.33062
-2.59536 -3.53536 1.25135
-2.32687 -3.57176 1.21674
3.75616 2.05857 1.30247
3.73273 1.98085 1.30187
-2.84424 3.48769 1.38838
-2.29695 -2.41985 1.18766
1.95425 -2.77959 1.2124
-2.12478 2.76896 1.32581
-2.02972 2.75706 1.332
2.24985 -1.86897 1.2251
2.37941 -1.49778 1.22224
-2.01661 1.8777 1.29678
-2.06472 -1.44316 1.22863
1.44874 -2.06912 1.24525
-1.99261 -1.08784 1.21465
-1.92505 -0.707691 1.22016
-1.92679 -0.703479 1.24576
-1.95589 -0.344365 1.22909
-1.893 -0.564703 1.23007
-1.89261 -0.530909 1.23515
8.22371 -8.70333 -7.46869
12.1233 -10.2852 -8.79829
-8.7732 15.6606 -6.96505
20.5349 25.0065 -11.6245
-8.80493 -2.5216 -2.58075
-34.4875 -23.0378 -7.6616
-34.0875 -22.2923 -6.00969
-33.8169 -22.9814 -6.07192
-31.1997 -20.0094 -2.78737
9.28493 -8.84368 -0.391768
-7.68113 16.5568 -0.450299
-29.4663 -11.4025 0.727895
-6.92028 -8.2709 0.460664
16.6849 23.9587 1.58631
11.3854 16.0121 1.62517
-6.69605 -6.66908 0.883735
4.22408 12.2571 1.49422
8.72972 9.09328 1.47459
7.98133 -8.77373 -10.391
8.84253 -8.54974 -10.5097
6.96436 -11.9495 -11.5258
6.87971 -11.3617 -10.9067
8.16162 -8.27398 -9.54332
7.02922 -12.041 -11.3374
7.07382 -10.9847 -10.4672
8.01128 -8.3872 -9.21424
6.73498 -11.2968 -10.2998
6.45222 -11.7094 -10.2237
7.76632 -8.86076 -8.98238
6.21253 -14.3316 -11.8205
8.3086 -8.71137 -9.11219
6.30676 -11.9217 -10.186
6.15382 -12.1 -10.1226
7.50025 -9.4566 -9.01183
7.91863 -9.06646 -8.93702
10.4811 -9.46216 -10.5018
6.12651 -14.1276 -11.3819
6.10707 -13.6802 -11.0148
6.13782 -12.5897 -10.3016
9.20713 -8.83597 -9.36125
9.29515 -9.083 -9.47871
5.87125 -12.5182 -10.0442
9.37106 -8.99954 -9.27241
6.86968 -11.1388 -9.28765
5.62166 -12.9833 -10.0136
9.70295 -9.09139 -9.42317
7.61788 -9.35494 -8.48217
10.0087 -9.19717 -9.54929
10.9305 -9.50486 -10.164
11.4551 -9.71068 -10.0852
8.39479 -8.61831 -7.96531
7.43987 -9.31002 -7.87428
8.17771 -8.72933 -7.90623
7.63734 -9.36328 -7.90518
7.84651 -9.41348 -7.85428
8.33083 -8.54585 -7.62928
0.358266 15.8784 -10.1335
7.5369 -9.33546 -7.63529
10.9239 -9.61871 -9.25425
7.23525 -10.7156 -8.18315
8.1653 -8.50789 -7.43673
4.61721 -15.4185 -10.1223
8.72395 -8.71096 -7.62763
7.9311 -9.04346 -7.41954
4.052 -18.0318 -11.3842
8.20782 -8.6381 -7.28457
4.08848 -17.3148 -10.8558
0.14418 14.8827 -9.0558
6.66296 -11.2767 -7.9744
7.75187 -9.27906 -7.33624
10.1381 -9.32392 -8.35761
6.82921 -11.2653 -7.90845
8.07057 -9.21587 -7.3533
11.2823 -9.7083 -8.89893
5.40717 -13.8725 -8.83037
7.74449 -9.27751 -7.16689
9.36245 -9.04453 -7.71358
6.9111 -11.1294 -7.75357
7.99322 -9.13918 -7.12426
9.76489 -9.1989 -7.81823
14.8701 7.43058 -9.65474
8.67828 -8.84221 -7.15896
6.94137 -10.9778 -7.46447
2.64225 -11.2212 -6.62993
7.86948 -9.08267 -6.88281
9.61684 -9.15128 -7.54087
10.8059 -9.5067 -8.11906
3.27971 -20.5932 -11.7269
6.80898 -10.9948 -7.24999
10.1182 -9.30229 -7.69707
12.3555 -10.3673 -9.04478
9.25146 -9.01826 -7.21932
4.621 -14.3081 -8.38235
8.01396 -9.22794 -6.78789
14.7927 7.56291 -9.12145
9.70902 -9.11789 -7.31489
0.835598 17.4783 -9.55558
2.74096 -19.8446 -10.9236
11.1435 -9.65652 -8.00598
4.23873 -14.4391 -8.14568
14.7059 7.69062 -8.93934
15.0986 10.4247 -9.85164
14.04 7.74574 -8.56822
10.9633 -9.62895 -7.75928
13.2804 -10.8147 -9.11048
3.04307 -19.3215 -10.2826
11.3687 -9.83611 -7.6492
2.16853 -20.372 -10.3405
10.2726 -9.35257 -6.98574
14.2856 -11.2992 -9.14487
13.8223 -11.1799 -8.89972
11.0202 -9.66586 -7.30293
7.51611 -9.34713 -5.93973
3.56471 -8.47195 -4.52971
-8.70187 -1.91062 -4.38012
2.22236 -20.1441 -9.94015
4.53382 -9.30283 -5.06124
0.402463 13.6641 -6.69181
7.6151 -9.2789 -5.85743
-8.49287 16.2058 -8.8605
-9.20224 -2.43272 -4.58617
15.0117 -11.5925 -9.11455
19.3977 5.55011 -9.64902
-10.3153 -2.55391 -5.02623
1.90958 -20.5468 -9.81226
17.2336 16.1953 -11.2013
7.58988 -11.2207 -6.39192
20.0511 5.41216 -9.78082
14.0428 -11.1179 -8.32906
2.93202 -17.3457 -8.1797
19.3761 5.73297 -9.33519
17.8641 -13.0187 -10.2103
9.86544 -2.4919 -4.70159
20.3063 5.14688 -9.66541
17.3599 16.325 -10.9814
1.80953 -20.2093 -9.28605
9.67982 -9.05147 -6.06839
-9.21197 -1.67207 -4.26973
9.45252 -3.46847 -4.58597
6.71886 -11.3263 -5.98994
9.91275 -2.61833 -4.65063
19.269 5.87574 -9.06955
17.7495 17.6061 -11.2394
9.36856 -3.08614 -4.44004
15.4465 -11.8859 -8.74639
7.0431 -11.5716 -6.05905
7.15631 -10.9242 -5.82103
9.55886 -3.40462 -4.52198
-10.0092 16.404 -8.55452
17.6732 -12.8981 -9.72235
19.556 5.63356 -9.02055
16.1222 7.31281 -7.83968
17.8579 18.0379 -11.2261
16.4433 -12.2291 -9.0317
-11.256 17.1153 -9.00312
-6.56531 15.0014 -7.17893
-5.23569 4.91055 -3.12719
20.1553 5.47253 -9.08002
9.55777 -3.40489 -4.37888
18.254 18.5018 -11.1716
15.8384 -12.1884 -8.59964
14.8791 7.43953 -7.09999
3.83994 -9.30527 -4.27689
-11.1808 17.0038 -8.61451
6.94876 -10.9132 -5.45532
-13.5857 3.32946 -5.89306
0.743323 -22.3651 -9.43023
15.8219 -11.9796 -8.29938
-5.16442 5.68654 -3.21348
0.998359 -22.2265 -9.3267
1.23233 -20.7775 -8.71966
14.1867 7.60879 -6.73363
18.5879 19.3714 -11.2178
3.78375 -8.95707 -4.05486
14.7912 7.74018 -6.94929
17.9545 19.1762 -10.9023
-9.51425 -1.09198 -3.95311
4.00776 -8.50333 -3.85149
14.0536 7.76006 -6.59062
6.84819 -10.9936 -5.2952
-13.6255 2.54529 -5.67019
-7.97651 15.4511 -7.0654
19.297 20.9688 -11.5454
15.0938 7.25261 -6.74743
-5.28347 14.4259 -6.15896
13.9663 -11.0416 -6.97323
1.53315 19.2799 -7.51227
-8.762 15.8233 -7.028
19.0152 5.799 -7.70291
-1.75588 13.2919 -5.19276
5.29803 -9.39805 -4.16053
-2.38753 13.5084 -5.26846
19.632 22.711 -11.5117
4.66175 -8.51764 -3.68754
19.4428 5.57776 -7.69715
0.875473 -26.4681 -10.0645
14.9204 -11.4977 -7.08879
20.003 5.41923 -7.7567
9.44319 -3.44052 -3.75768
0.532689 -22.6299 -8.43596
3.2507 -10.8015 -4.21407
20.2357 23.5431 -11.5294
0.909409 -8.71903 -3.25102
14.0407 -11.1195 -6.60421
20.4121 5.19161 -7.7443
17.9189 17.7063 -9.20644
-13.0407 2.28459 -4.81316
20.8924 24.9497 -11.8033
2.28867 -13.2665 -4.84992
13.0458 -10.5499 -6.0373
0.795653 15.4575 -5.53853
-8.20149 -2.7988 -3.09957
0.409817 -21.8135 -7.79921
-4.22587 13.8655 -5.15529
0.638065 -21.9024 -7.78687
15.8737 -11.9888 -7.05044
-15.7714 18.2324 -8.49535
5.93138 -11.3436 -4.50083
-11.0517 16.677 -6.98708
0.0939696 -18.4894 -6.49963
14.278 -11.3155 -6.37016
20.3671 5.36391 -7.35168
0.657281 -23.0153 -7.95179
-5.0268 14.5898 -5.2867
3.64022 -8.4504 -3.16725
4.87826 -9.03618 -3.5189
-14.5426 18.0542 -7.93467
2.27592 -10.8898 -3.81249
-8.91029 16.1624 -6.29054
3.03169 -13.7153 -4.78878
-15.0191 18.4336 -8.06021
20.1851 5.48806 -7.03108
22.1049 27.3458 -11.7528
36.1507 -20.4072 -13.8725
-5.3201 14.1087 -5.00729
1.91727 20.7939 -6.92964
1.26744 -10.2475 -3.4141
-5.26781 14.5025 -5.01091
-12.6215 17.2783 -6.94074
18.5886 -13.246 -7.4122
3.56013 -8.67323 -3.00596
6.22341 -10.1186 -3.807
2.31396 -11.0093 -3.58
-4.55519 -34.2256 -10.9746
-1.13649 -23.8278 -7.59363
15.0424 10.36 -5.76462
-13.2462 17.6259 -6.96861
-18.0369 19.4541 -8.33899
6.96735 -11.1035 -4.0526
1.38488 -21.8821 -6.78279
-2.57226 -27.4063 -8.44971
7.20754 33.2941 -10.3964
0.770856 15.0496 -4.57762
-11.1636 16.8432 -6.08991
-2.69828 -26.5011 -8.02247
-14.3824 17.982 -6.87002
-5.29619 -34.7361 -10.4625
0.837597 -25.0182 -7.48489
-5.40753 14.8708 -4.70631
2.08437 20.7518 -6.14554
-21.327 19.8855 -8.60258
18.2358 5.80305 -5.63314
-4.30864 14.4686 -4.43831
-7.94808 15.4187 -5.08876
4.25781 -9.14751 -2.96554
4.64052 -11.6272 -3.66047
-12.62 2.22317 -3.68278
-32.9718 -46.7054 -16.4514
-15.2349 18.3273 -6.8507
6.96523 -11.0935 -3.77098
2.56434 -9.54776 -2.80896
12.9475 -10.4801 -4.74035
-8.45117 -2.45956 -2.49572
21.1317 27.2538 -9.77162
-8.57849 -2.26097 -2.5068
-2.5501 -26.028 -7.33967
-13.0266 1.99616 -3.66989
4.39219 -11.3403 -3.37528
-9.33287 16.0495 -5.09656
-13.09 17.4574 -5.99277
-5.40715 14.4293 -4.21116
-8.50447 -41.3054 -11.5388
-21.5145 20.0768 -7.9106
-9.75397 16.1735 -5.06111
-26.763 20.5587 -8.97783
11.4551 11.5294 -4.2889
4.33135 -11.3067 -3.2075
47.2222 -13.7275 -13.0274
-8.19348 -38.6691 -10.39
4.09147 -8.66157 -2.52229
11.1825 -9.94625 -3.91499
-14.4828 18.1335 -6.03406
6.54122 -10.4313 -3.1868
3.17961 -9.6506 -2.62676
-30.1075 -44.0959 -13.7879
-4.35659 -28.5783 -7.47994
3.54369 -10.3796 -2.82802
4.07053 -9.39243 -2.63104
15.6286 -11.7516 -4.98911
-7.17044 15.2751 -4.27063
-31.5445 -42.0687 -13.3341
4.31589 -11.1546 -3.02701
4.25678 -7.70753 -2.24088
6.54242 -10.6717 -3.12169
44.8986 -13.5747 -11.6945
-28.3107 21.3592 -8.76756
-11.5538 16.9741 -5.06149
-27.6041 -40.2688 -12.0044
-9.88922 -38.9264 -9.90733
-24.5175 20.5926 -7.86802
4.35244 -10.3375 -2.75575
-12.088 17.3142 -5.11956
-7.86143 15.3165 -4.14914
10.2838 -9.27606 -3.31604
40.3546 -13.4048 -10.1754
15.1382 7.57079 -4.02972
-6.30989 -36.1401 -8.73964
3.9668 -9.09001 -2.35003
47.0909 -12.6035 -11.5697
-12.1476 -44.7296 -10.9805
4.20423 -8.99567 -2.36877
3.86376 -11.0818 -2.76582
4.91078 -8.69747 -2.34968
-12.8028 17.4467 -5.03586
11.0179 -9.65552 -3.34831
-6.18969 -31.3911 -7.30084
-27.1856 20.9968 -7.78627
41.5914 -9.09581 -9.66145
-30.5251 22.1627 -8.45726
-35.4419 -23.2259 -9.4947
40.7871 -12.6086 -9.58525
5.45738 -9.47905 -2.44202
-12.4083 2.8313 -2.79251
40.6609 -11.9157 -9.36148
42.6447 -12.1678 -9.75646
-5.38796 14.1353 -3.30711
13.4069 -10.7884 -3.78777
38.1141 -12.2486 -8.8009
-23.4139 20.4064 -6.73675
-29.4823 -72.6872 -17.0209
4.31166 -9.70444 -2.30277
4.5411 -9.18424 -2.21298
-14.5996 18.1894 -4.9807
-30.957 22.4865 -8.16989
-31.8338 22.5912 -8.34421
-28.0989 -74.5514 -17.0781
-10.7049 16.7269 -4.21058
-8.43782 -35.82 -7.82588
3.19187 -9.68992 -2.17547
3.96859 -9.83515 -2.26126
45.8566 -10.6319 -10.0483
14.9702 7.49841 -3.54985
-15.1746 18.6798 -5.09512
5.16619 -9.05867 -2.1909
26.7089 38.6445 -9.81761
15.0111 7.85607 -3.5178
-30.1562 -23.2897 -7.90431
-32.897 -84.3504 -18.7449
-11.4618 16.8873 -4.14716
-15.6374 18.4884 -4.92935
-35.184 23.6181 -8.61076
44.4866 -9.7035 -9.28516
-13.2433 -42.6139 -9.0699
4.1377 -9.73857 -2.15276
11.6148 -9.65513 -3.07299
-12.0089 17.2334 -4.1927
-19.8939 -57.0964 -12.0842
-12.9657 -40.2778 -8.37762
4.07164 -9.92576 -2.12411
-34.1182 -23.3297 -8.14797
-26.7405 20.987 -6.69012
-33.1511 -23.7135 -7.94536
-6.89479 15.2349 -3.24549
-26.5405 -62.3622 -13.165
-33.5622 -22.3434 -7.76982
3.43711 -9.36573 -1.92643
45.9352 -10.6429 -9.05419
-12.7545 17.4139 -4.12611
3.99081 -9.34877 -1.93982
-36.4436 -22.1369 -8.07173
-21.2719 -34.5557 -7.71739
-15.5727 -44.9337 -8.99854
37.9493 -12.5186 -7.55413
-35.9387 24.1375 -8.10189
-33.6944 -23.2701 -7.69264
-32.6473 -23.886 -7.5936
-21.2954 -52.7578 -10.7055
-16.8737 -45.8341 -9.06007
3.82133 -9.20944 -1.84166
42.6335 -11.4905 -8.19932
5.76109 -9.71862 -2.07054
-24.5006 -55.556 -11.1168
-20.4336 -50.7184 -9.89019
-14.5623 18.1522 -4.12618
-31.0998 -25.0827 -7.10207
-20.3015 -27.0524 -6.04848
-39.345 24.8272 -8.2084
-26.7484 21.0026 -5.91916
-34.0654 23.3107 -7.16684
3.91149 -10.0549 -1.87076
4.77365 -8.6158 -1.71175
14.0246 7.53161 -2.74581
14.0996 8.09101 -2.78439
-30.809 22.4038 -6.53041
42.312 -11.971 -7.48617
42.1051 -10.9049 -7.40404
-31.257 -24.824 -6.77124
-21.0565 20.0535 -4.88273
-20.3714 -50.6356 -9.22241
14.8826 7.45917 -2.79214
-31.679 22.4268 -6.4834
-23.5345 -56.1107 -10.0545
43.6426 -11.757 -7.34641
-10.3478 16.4276 -3.13279
-20.6547 -51.2415 -8.8117
-34.8851 -24.0814 -6.67977
-22.7631 19.9993 -4.7446
-24.1602 20.6247 -4.92323
-40.0512 24.2497 -7.25524
-11.2161 16.7869 -3.11649
3.47381 -9.53362 -1.56925
3.8719 -10.2388 -1.69488
-7.61182 15.4385 -2.62886
-31.0364 22.5891 -5.86784
-31.7569 -24.5281 -6.10181
-27.9421 -26.1367 -5.79637
42.296 -10.9957 -6.64266
44.9548 -9.7941 -7.00942
-6.53449 14.5543 -2.38683
9.83726 -5.15644 -1.64848
-33.4844 -24.1508 -6.14825
-26.4089 -66.7754 -10.6503
10.2032 -9.17384 -2.04477
45.098 -10.4329 -6.87418
-36.6393 -24.3903 -6.47793
-31.5056 -25.9871 -5.97433
-12.6627 -41.9571 -6.44871
16.9436 -12.2586 -3.06332
-25.3671 20.8855 -4.77513
-24.6767 -55.2914 -8.72525
-7.60981 15.2415 -2.43571
-12.7017 17.318 -3.06187
6.04157 -11.5423 -1.86157
-13.4002 17.9107 -3.14196
-34.6597 23.4134 -5.88043
6.76636 -11.0525 -1.81125
37.668 -12.4312 -5.57888
-31.146 -24.9573 -5.57029
-32.9626 23.6886 -5.62318
-20.5687 -49.5744 -7.41335
45.25 -10.123 -6.39376
-6.86031 15.1717 -2.27517
-22.605 -58.9964 -8.5829
7.75736 -9.38779 -1.63431
-13.9923 17.8659 -3.05902
13.2334 -10.5547 -2.29034
-22.2031 20.1964 -4.03594
42.219 -10.9158 -5.78924
44.9722 -9.85079 -6.09359
-22.5854 19.8754 -3.93401
-32.6796 -24.4537 -5.33134
-14.8824 18.224 -3.04212
-33.9852 22.6833 -5.30469
-38.324 -16.1819 -5.37135
7.02291 -10.4445 -1.61484
10.7917 8.83548 -1.79108
-33.7961 -23.2901 -5.25256
-31.3986 22.9217 -4.91757
-35.5701 -22.1961 -5.25533
42.0803 -10.8827 -5.43927
6.80196 -10.3767 -1.55035
-7.64437 15.2901 -2.11644
-24.9895 20.9832 -3.99559
-33.3503 23.5043 -5.03291
6.30264 -12.0876 -1.66068
44.9237 -9.58442 -5.62623
15.0269 7.87274 -2.03977
-17.9442 -43.4604 -5.66987
7.09309 -10.5419 -1.52985
-20.5193 9.09392 -2.65651
-14.3045 -43.2709 -5.35893
-31.8417 -24.5494 -4.70142
-31.3274 -25.0539 -4.69418
42.1651 -11.2948 -5.13039
11.2431 -9.68231 -1.719
-29.8426 22.6281 -4.30882
6.64871 -10.8332 -1.45513
7.49438 -9.22695 -1.35973
11.5962 -9.73474 -1.71966
9.45453 -4.61236 -1.19127
15.0049 7.71062 -1.90143
-10.3361 16.4549 -2.1929
-32.1398 23.4848 -4.45937
38.9779 -12.8311 -4.60178
9.36475 -9.03078 -1.43931
-11.0521 16.5758 -2.16563
6.80272 -12.8073 -1.57083
45.0665 -9.79459 -4.9996
10.7902 8.86701 -1.50538
16.7994 -12.4791 -2.24602
42.3623 -10.987 -4.68935
9.62736 -8.98646 -1.39528
8.38498 -8.47017 -1.24858
-30.8921 -24.7209 -4.11999
-30.1034 -60.3816 -7.0387
15.0015 7.52344 -1.71477
-31.7831 -24.5068 -4.11794
-12.8403 17.504 -2.2042
-12.7598 17.095 -2.12029
10.2169 -9.09634 -1.3401
-20.8161 -52.8655 -5.57035
6.32501 -12.1127 -1.32254
16.6679 -12.1945 -1.98518
42.2514 -11.3535 -4.19365
-30.6301 -61.9152 -6.56683
-20.7812 -54.5362 -5.54278
-23.2827 20.3651 -2.89175
45.7737 -10.1829 -4.37986
9.72494 -8.99485 -1.22629
39.8142 -13.1337 -3.90666
-14.9999 18.3875 -2.14896
-29.6863 -13.5349 -2.97407
-32.2327 -62.8352 -6.5096
15.8807 -11.8865 -1.80449
8.64263 -8.73368 -1.11265
12.9067 -10.6539 -1.45735
45.3586 -10.5133 -3.9886
9.40983 -9.03562 -1.09663
10.9626 -9.65397 -1.22784
-34.0978 23.4167 -3.44228
16.8686 -12.3012 -1.72921
-16.9028 -43.9841 -3.77429
14.7027 -11.4965 -1.4883
-11.7193 -32.8087 -2.74996
-29.7732 22.6383 -2.89261
-33.0369 23.3517 -3.12334
-22.6707 -51.786 -4.36443
-51.0184 27.7665 -4.3987
-21.3592 20.1023 -2.13373
-33.2626 23.5278 -2.9529
16.4043 -12.2572 -1.49803
42.2795 -11.3141 -3.18862
-39.1532 -74.0815 -6.04715
13.993 -11.0713 -1.27698
-15.531 -41.1997 -3.03903
10.7768 -9.62446 -0.989957
-23.3056 20.4062 -2.09222
12.8852 -10.6323 -1.11829
17.9827 -13.0427 -1.481
16.0658 -12.1519 -1.33036
-14.6427 -40.5982 -2.79187
44.053 -11.4572 -2.8452
-31.7476 -64.3259 -4.37754
35.9369 -8.71834 -2.26946
43.2143 -9.89108 -2.72161
6.05949 -13.0983 -0.862606
30.9983 -20.5115 -2.2242
-9.82032 16.3936 -1.12345
-15.5369 -40.5292 -2.47161
16.636 -12.4329 -1.16612
-9.6828 -12.5522 -0.86877
14.9932 7.69207 -0.911206
13.9195 -11.0187 -0.950656
-12.7631 17.296 -1.12283
-16.4403 -40.7485 -2.33366
14.8875 7.82832 -0.824475
-16.2642 -41.5735 -2.19046
-14.1266 17.9055 -1.09078
9.57367 -9.03052 -0.603646
-23.9114 -54.85 -2.70759
12.4652 -10.2475 -0.748123
-15.9685 -44.5139 -2.09968
-17.1754 -42.3168 -1.95526
6.86561 -12.6774 -0.639643
-13.8823 -42.3178 -1.89716
-52.4168 28.5062 -2.41737
18.3685 -13.1965 -0.917914
16.8283 -12.5084 -0.816612
-41.2441 -80.051 -3.3973
-18.1801 -47.6743 -1.87919
-33.5658 23.0629 -1.48965
42.7608 -11.0179 -1.59003
-34.3182 -68.2649 -2.55629
-25.7778 -56.4921 -2.09073
20.2283 23.3952 -1.02702
-21.4018 20.0556 -0.955735
8.13129 -14.3512 -0.554007
9.42957 -9.00199 -0.422602
11.3112 -9.95789 -0.489871
18.6241 -13.1687 -0.749647
34.9311 -13.1749 -1.23893
22.0438 26.6839 -1.10992
-27.3711 -13.7291 -0.959836
-22.8586 20.3557 -0.932906
-31.6312 22.4029 -1.2098
-24.8845 -57.2102 -1.93228
-13.7793 -38.9814 -1.27355
-21.4322 -54.6708 -1.77801
-16.5736 -44.9181 -1.37172
-33.9981 -20.6138 -1.05899
11.4604 -9.72236 -0.402621
16.363 -12.1706 -0.537605
-40.9457 25.3304 -1.26989
-30.2222 22.9963 -0.939631
-30.7427 22.5306 -0.901169
9.57604 -9.01475 -0.304679
-41.2639 14.2619 -0.965052
-31.33 -52.4625 -1.37628
21.3094 -14.2519 -0.563524
30.5833 -18.5448 -0.807265
14.2459 3.93698 -0.301501
27.6161 48.2584 -1.02222
23.5865 -10.9808 -0.458209
47.33 -10.8986 -0.903403
-30.6144 -22.0006 -0.687452
-29.5529 -29.0268 -0.656851
-18.9313 -46.4528 -0.835373
12.7353 -10.4726 -0.271294
18.5537 -13.4068 -0.349842
-29.2579 -13.0044 -0.420338
-32.8017 -24.548 -0.57004
-33.2084 -66.9456 -1.00895
-27.6134 -58.7701 -0.88982
-33.9025 -23.1536 -0.536
-30.2407 23.0068 -0.447415
17.0252 -12.7141 -0.252316
29.3958 -18.2269 -0.407029
-30.7018 22.5395 -0.424127
-19.0414 -43.6705 -0.509764
-11.9977 -36.1121 -0.383258
-33.2644 -58.6112 -0.620942
-14.2958 18.134 -0.177243
-26.7 -13.4613 -0.241414
-14.9852 18.2669 -0.161591
-22.5188 20.1114 -0.155418
-20.9623 19.662 -0.130784
-10.5568 -13.5717 -0.0603611
14.755 7.75118 -0.0201255
11.1193 -9.77752 -0.00779197
-34.4708 -18.8803 0.0599939
-11.3241 -33.6553 0.115592
16.9841 -12.3395 0.0911281
-18.7647 -43.0802 0.208848
18.8141 -13.256 0.122257
7.18631 -12.3531 0.104296
26.0619 -10.6926 0.173319
-55.2123 19.7147 0.55901
16.2741 -12.0608 0.193418
37.568 -7.67002 0.361905
-29.0697 -8.19697 0.35332
-36.2537 -21.882 0.467067
-11.3155 -32.4204 0.368323
-12.6916 -35.169 0.445147
-10.2726 -31.5758 0.39842
6.34103 -12.9612 0.184202
7.22148 -11.1252 0.174404
-28.1342 22.0845 0.547666
11.3249 -9.89051 0.226067
-24.0808 20.5934 0.523008
10.9112 -9.7424 0.229596
12.9881 -10.6922 0.265069
36.511 -7.81392 0.621303
-34.5297 -23.1343 0.756063
-31.1798 22.2938 0.752651
6.153 -12.8557 0.27656
7.0295 -11.0625 0.252523
8.0324 -9.42551 0.241844
27.7293 57.0179 1.37905
7.73478 -9.45083 0.276118
10.1384 -9.18278 0.330023
-28.8063 -9.23702 0.728716
-23.277 20.3173 0.835986
-27.5378 21.7135 0.941239
-28.9352 -8.68825 0.796148
9.19698 -8.90251 0.345788
9.63235 -8.95256 0.358474
-25.5484 21.5325 0.907873
25.4172 -5.14196 0.722082
12.9978 -10.6629 0.500834
14.8645 24.2153 0.876673
6.19979 -12.7899 0.447267
7.46613 -11.6385 0.43393
-28.4627 -8.02736 0.970342
-12.6089 -19.3056 0.759717
-28.1464 -8.79712 1.01961
16.1374 11.0453 0.706815
-29.8218 -18.4794 1.22632
15.8238 27.4873 1.13197
-30.4407 -16.6045 1.28499
23.5689 -4.25596 0.865369
-27.8286 -19.7922 1.26543
-7.29806 -7.95738 0.407505
9.05803 -8.83294 0.470305
12.45 13.6191 0.711529
26.1997 54.048 2.27486
25.051 53.3362 2.21906
-11.5598 -9.1501 0.581363
8.72906 -8.67472 0.486834
-25.637 21.1188 1.34846
21.8629 -2.96303 0.893911
-28.7986 -17.4923 1.3804
9.42119 -8.93314 0.532331
12.476 14.3688 0.818771
6.58563 -12.4718 0.59891
14.8865 19.3428 1.07314
20.8396 28.785 1.55649
-9.49637 -13.8078 0.736621
-9.9813 -15.6103 0.822521
7.6046 -10.9603 0.587744
8.62978 -8.7193 0.554397
24.2186 -3.7101 1.10633
-29.8642 -8.70285 1.41989
6.74834 -11.0941 0.597464
-8.27696 -8.1455 0.546564
21.4228 43.223 2.30812
-28.5606 -17.6515 1.58712
-9.76998 -13.7042 0.801087
9.66735 -8.96962 0.621136
15.5481 43.2072 2.22297
-30.258 -13.4021 1.57958
-6.76556 -8.2482 0.524972
14.5932 33.937 1.88513
-29.7483 -11.6495 1.60333
-7.59599 -6.98477 0.521654
-6.70286 -7.59841 0.51261
16.1624 29.2782 1.73663
10.5512 12.3377 0.877407
14.2385 19.3762 1.29113
9.35092 -8.93116 0.692831
14.8273 19.2923 1.3436
15.2976 23.627 1.54999
-27.4988 19.362 1.84345
-6.97633 -8.19868 0.597025
-26.4268 20.2773 1.85199
6.10186 -12.8837 0.797583
-7.10962 -9.16241 0.661404
9.95811 12.4383 0.937154
14.9237 25.1445 1.70836
6.47037 -12.9953 0.83544
13.8478 22.5924 1.56531
-8.26384 -8.12303 0.698225
11.5351 11.6147 0.97625
14.6767 19.5202 1.46743
-7.40151 -10.0195 0.774759
7.01378 -11.177 0.804154
11.2673 -9.71874 0.902076
5.86992 -10.7606 0.760614
-7.19894 -6.65405 0.612625
14.4806 20.5418 1.59034
16.1439 7.16608 1.14691
-7.0408 -6.1516 0.613545
6.47169 -13.4641 0.995543
9.39851 21.2297 1.56635
10.4138 12.5519 1.11506
13.5473 18.2165 1.58352
12.3947 20.5503 1.66073
11.3416 11.9808 1.15806
6.59923 -9.84174 0.839137
11.4897 11.7552 1.18967
9.80434 -6.92091 0.853945
12.3526 11.9584 1.2628
9.92498 -8.38154 0.951681
-6.16182 6.67824 0.678393
10.4248 9.17936 1.04351
11.9133 17.8123 1.61247
11.4659 18.2674 1.62523
-6.95004 -7.70371 0.804596
10.8444 18.7174 1.65989
9.51307 -8.95657 1.00977
-6.41938 -4.30144 0.609483
9.17656 18.3851 1.64216
10.0782 -6.89646 0.977836
12.4461 11.5476 1.37256
9.73488 18.9013 1.71212
-7.27004 -9.64309 0.983728
6.71657 -9.37854 0.938693
12.2333 11.7028 1.38728
12.1375 11.9368 1.41377
11.4134 11.9296 1.36694
-5.05528 -11.538 1.05971
10.3041 12.8918 1.40439
-6.96502 -6.08632 0.796749
-6.82153 -6.70033 0.80772
-5.2164 -11.4408 1.06936
-7.30591 -7.75252 0.917413
9.28157 -7.25365 1.01778
-7.12615 -8.06402 0.941834
-7.02218 -7.69617 0.916306
9.38085 12.5216 1.38725
-6.95765 -8.3788 0.973056
10.8045 9.06566 1.2855
10.4536 13.4636 1.54017
10.5135 9.23358 1.281
7.71214 13.9994 1.47028
-6.50348 -8.14249 0.954866
-6.90878 -9.02604 1.04918
11.1875 10.79 1.43426
11.2382 9.16925 1.35738
10.8577 10.7924 1.43519
6.48237 14.9801 1.53397
-11.4366 2.92989 1.10718
-6.36457 -4.17305 0.713053
-6.81018 -6.29804 0.860252
9.42368 13.2902 1.5718
-6.03309 6.55558 0.877322
7.95841 -6.60755 1.00814
7.92486 13.214 1.5307
-7.07376 -7.62308 1.04774
9.29867 11.6269 1.50181
7.00205 12.4325 1.44826
7.05856 13.004 1.50858
9.52421 9.08393 1.36223
5.85992 13.9696 1.57034
9.13268 12.4212 1.60753
-6.10993 -4.45875 0.79287
5.95847 13.6916 1.57305
6.21895 13.6223 1.57453
-6.97338 -4.42963 0.883686
8.75924 9.00961 1.33977
9.12782 10.1687 1.48625
7.32366 10.9968 1.43604
5.82353 11.4704 1.39877
-6.30324 -7.41515 1.06381
10.2568 6.44612 1.34047
8.98259 8.13002 1.33565
7.30742 11.6806 1.52156
6.8425 11.6297 1.49199
5.35623 11.8941 1.45153
4.86903 12.1031 1.45976
4.70499 13.6832 1.59208
9.85652 7.04747 1.35309
8.74992 9.30111 1.4271
5.38103 11.5139 1.43139
-6.84519 -6.72715 1.06829
6.86278 10.7118 1.43326
4.32004 13.1788 1.5677
9.75078 -3.19524 1.14414
-6.10677 -5.41636 0.945103
7.2875 -6.11851 1.08018
10.4041 5.70851 1.36121
-7.38207 -0.985903 0.853483
-6.25985 -5.35826 0.948522
5.24413 -5.55251 0.879952
5.06728 11.623 1.47314
-6.88556 -4.56089 0.957131
4.45069 -7.25726 0.984568
10.3968 5.14326 1.36129
8.87477 7.87682 1.39312
-6.00431 -4.36988 0.865528
-6.4884 -5.27558 0.98797
4.08977 -7.86165 1.05391
4.96313 -5.84611 0.920083
10.1563 4.74898 1.34415
8.50972 8.26322 1.43685
5.27433 11.4906 1.54357
9.03535 6.25928 1.34592
8.0032 8.32908 1.44712
-6.49258 -5.74925 1.07964
3.70424 -7.56835 1.05538
8.66671 6.6824 1.37631
-6.47057 -5.3467 1.0624
9.08088 6.00654 1.39017
8.17489 7.13314 1.38437
8.10569 7.4997 1.41015
5.77354 -5.34228 1.00992
-6.97481 -4.44497 1.06173
8.09349 7.99103 1.47539
-7.35847 -1.04254 0.960333
-6.92538 -2.82733 0.976976
8.96748 4.09735 1.29128
8.39398 6.6222 1.4037
4.9953 -6.02431 1.02873
4.91343 -6.18872 1.04642
6.86725 -4.28085 1.07721
-7.13508 -1.71869 0.983977
-7.0116 -2.22064 0.983398
-6.02807 -4.42433 0.999736
8.12748 6.65225 1.42398
8.60244 4.43576 1.31972
8.62348 5.16231 1.37291
8.0208 7.13141 1.46101
-6.81085 -3.73485 1.05481
8.85381 4.15597 1.33891
8.25762 5.82825 1.38424
-6.40059 -4.33085 1.05758
-5.96014 -4.52713 1.02225
5.35611 9.02586 1.44984
3.64022 10.0707 1.48734
-7.36871 -1.09312 1.03172
-6.90653 -3.9284 1.10277
4.94599 -5.54032 1.02644
5.22547 -5.39541 1.0425
7.46159 -3.53609 1.15478
3.38471 10.151 1.49958
8.39542 4.59484 1.35397
7.37317 -3.67722 1.16887
7.58513 -3.33408 1.18131
7.75994 -3.30488 1.19684
8.93206 2.81246 1.34796
4.83085 -5.632 1.06659
7.35197 -2.85239 1.14815
-6.96048 -3.30111 1.12298
7.91627 -2.77896 1.22329
8.6623 -1.81958 1.29933
5.00713 8.57291 1.46568
2.95213 9.43632 1.47117
7.73058 -1.88754 1.17286
7.22521 5.75411 1.37634
3.45476 9.55754 1.50248
3.18584 9.79427 1.52666
-7.37099 -1.04348 1.10393
-7.07578 -2.02344 1.0969
6.94362 6.28568 1.41423
-6.26459 -2.27222 1.00018
-7.24099 -1.37547 1.11273
7.93483 4.81498 1.41414
5.70795 7.35507 1.41278
5.29181 7.63012 1.4134
5.05614 8.01268 1.43263
6.75796 -3.22495 1.13247
7.24465 -3.12401 1.20826
7.6344 -2.75489 1.23686
-7.3172 -0.733015 1.12315
-7.0984 -1.9548 1.1365
6.78758 -3.09216 1.15353
3.74865 -5.78479 1.06596
-7.05421 -2.07634 1.15297
-7.34673 -1.093 1.16642
7.35765 4.77234 1.38524
-7.19928 -1.44366 1.16835
-7.27219 -1.30122 1.18549
-7.09857 -2.01934 1.20029
7.06651 4.761 1.39104
-7.10221 -1.94574 1.2098
7.0062 4.86272 1.41672
6.61237 4.85006 1.36862
5.2056 6.24232 1.35421
4.67257 7.17126 1.42967
3.82171 7.93223 1.46377
-7.24992 -1.37365 1.23194
2.79104 -5.77411 1.08116
7.13869 4.42659 1.41518
6.51073 5.23605 1.40966
3.87266 -5.36392 1.11548
3.93572 -5.0198 1.07986
-7.27298 -1.25255 1.25208
-6.59948 -2.62571 1.2052
7.41327 2.84656 1.34698
7.02689 3.88948 1.3688
-6.41553 -2.75354 1.18794
6.77152 4.09679 1.3588
5.68203 -3.51937 1.15044
-7.3967 -1.0397 1.29187
-6.358 -2.28084 1.16141
5.53481 -3.64761 1.14264
5.31842 -3.77366 1.1431
3.59581 7.16024 1.40964
-6.80035 -1.73539 1.23269
4.4794 -4.46683 1.11333
-7.09278 -0.914722 1.27412
4.7247 -4.4573 1.14952
4.32783 6.49175 1.39241
6.58318 3.47236 1.34423
6.62268 3.68088 1.36127
-6.44218 -1.50075 1.18985
3.60789 -5.32494 1.17012
5.07619 5.61123 1.38563
-6.15629 -2.18369 1.1973
3.41213 -5.15708 1.15005
3.38677 6.76949 1.41636
-1.69824 -5.78355 1.14498
6.44198 2.73076 1.33164
-2.14376 -5.72892 1.17593
6.3063 2.79478 1.32809
-2.78812 -5.37769 1.18705
-3.52464 5.35228 1.38859
4.4695 3.89242 1.35282
4.15088 -2.87859 1.17705
4.62868 -2.18631 1.237
4.19845 3.29094 1.32157
3.70719 -2.93009 1.22387
4.01738 2.574 1.33311
-1.44419 -4.12041 1.22248
-2.32234 -3.58156 1.21308
3.85916 2.36388 1.3113
-2.8619 3.52698 1.36183
-2.48204 -2.91809 1.18998
-2.37948 -2.93927 1.19492
1.84148 -2.80958 1.18124
1.8645 -2.78789 1.21127
1.99057 -2.52466 1.19766
-2.04363 2.80714 1.32054
2.8031 -0.555538 1.25899
2.78245 -0.336746 1.24073
-2.0905 -1.62005 1.21348
-2.07821 -1.45203 1.23854
-1.86341 -1.79696 1.28399
-1.99573 -1.13198 1.20496
-1.98722 -1.07089 1.23179
-1.94698 -0.880771 1.232
-1.93131 -0.708722 1.22228
-1.93017 -0.701813 1.24949
-1.90649 -0.46989 1.22229
-1.87186 -0.345857 1.21949
-1.85673 -0.401347 1.22622
2.37754 -19.685 -10.0054
-7.60084 -8.97378 0.465039
8.02416 -8.80622 -10.4752
8.27003 -8.63585 -10.5111
8.22151 -8.29632 -9.89305
6.96351 -11.9665 -11.4187
8.52345 -8.9811 -9.74945
7.8563 -8.94397 -9.14221
5.85472 -12.808 -10.7373
9.43586 -8.84222 -9.75364
6.15272 -14.1058 -11.585
8.29409 -8.68612 -9.02972
8.02449 -9.17658 -9.11592
7.29765 -9.25288 -8.77985
5.91518 -14.164 -11.1992
7.72467 -9.31355 -8.73123
7.86192 -9.12407 -8.67586
7.13404 -10.5883 -9.09006
6.82537 -11.0814 -9.22633
10.0633 -9.20203 -9.57714
6.5445 -11.1837 -8.87093
8.03933 -8.63454 -7.85618
7.3662 -9.28788 -7.87777
8.52295 -8.68834 -8.08995
7.72677 -9.48073 -8.03508
6.49277 -12.7852 -9.36348
7.93971 -9.18821 -7.92013
5.00508 -16.0467 -10.8114
-0.474372 13.9345 -8.91528
7.73373 -9.25168 -7.73245
7.34153 -10.8729 -8.35331
8.38458 -8.57301 -7.63979
10.8865 -9.63059 -9.2194
8.99691 -8.82618 -7.90445
11.7786 -10.0441 -9.7013
8.0793 -8.54279 -7.23394
4.04284 -16.8483 -10.6192
4.25194 -15.3873 -9.80211
7.85108 -9.36671 -7.32445
3.95428 -15.635 -9.61693
11.492 -9.83832 -9.0606
6.86972 -11.0858 -7.74406
7.77707 -8.82511 -6.96823
5.49201 -14.0087 -8.89017
6.49385 -12.7167 -8.35643
8.36858 -8.60118 -6.99352
9.69692 -9.08966 -7.74996
2.79258 -11.8031 -6.95245
5.48507 -13.9138 -8.46813
9.60405 -9.11417 -7.48475
6.62284 -11.0786 -7.26766
3.34862 -20.701 -11.7525
8.88654 -8.9469 -7.06909
12.2037 -10.2387 -8.92437
6.82887 -11.0144 -7.21978
4.68736 -14.6247 -8.4875
6.22754 -12.6334 -7.74828
0.895863 18.5904 -10.1314
14.638 7.73489 -8.995
4.20764 -14.2555 -8.02763
14.742 -11.6657 -10.1339
14.9925 7.45014 -8.91713
14.0286 7.7294 -8.51004
4.76923 -14.8596 -8.29231
12.0934 -10.1588 -8.31166
1.81405 -20.489 -10.5823
11.4253 -9.86007 -7.73181
2.08176 -20.2171 -10.3133
13.9772 -11.0944 -9.02625
0.00383566 14.2803 -7.16766
-7.28738 15.1475 -8.42469
10.6027 -9.6082 -7.18977
7.52009 -9.43236 -6.01026
-8.49454 16.1035 -8.79993
11.652 -9.78578 -7.36492
10.5028 -9.59256 -6.83035
14.7991 -11.3459 -8.99466
16.7272 15.8455 -10.9456
7.49037 -11.071 -6.36866
15.0289 7.42581 -7.86499
13.9395 -11.038 -8.31035
-11.9273 17.0797 -9.54551
15.8539 -12.0128 -9.08737
9.7816 -2.45254 -4.63223
-9.1084 -1.65591 -4.20991
18.7572 18.1001 -11.7606
3.91541 -9.10412 -4.49815
-10.1918 16.6493 -8.76733
-5.34229 4.44255 -3.12466
6.86395 -11.3004 -5.95234
9.43461 -9.09314 -5.7793
16.0355 7.31512 -7.7753
-6.61933 15.0337 -7.17534
1.50145 -18.7558 -8.13811
-11.15 16.9652 -8.74179
9.58724 -3.37228 -4.35298
7.02327 -11.0547 -5.53672
15.8375 -11.9721 -8.31081
14.6653 7.75239 -6.95748
18.7915 19.5509 -11.3323
1.02011 -22.6129 -9.42379
-4.52483 13.8405 -6.00035
-9.93096 -1.11078 -4.14144
14.1033 7.78748 -6.57756
20.4994 22.2986 -12.3452
-13.0613 2.44772 -5.41343
15.1307 7.18899 -6.77453
-5.21045 14.2789 -6.11401
3.63959 -8.81152 -3.79477
13.9536 -11.0176 -6.94824
19.3474 21.6535 -11.2631
18.8293 5.8063 -7.64021
1.54095 19.2764 -7.49732
-8.70848 15.6918 -6.91959
11.4093 -10.0597 -5.85091
19.2859 22.3595 -11.373
0.682695 15.3907 -5.89945
-1.66036 12.7421 -4.94389
2.71447 -12.2481 -4.81337
-8.76808 -1.2523 -3.36658
0.702807 -23.6456 -8.92635
15.1962 -11.6455 -7.2206
9.49597 -3.46497 -3.81307
-14.5347 17.9187 -8.60024
-7.89121 -3.50545 -3.16697
1.09604 -10.4597 -3.86796
7.0342 -11.2462 -4.85105
14.2119 7.93538 -5.87611
-8.29284 -2.84724 -3.15289
0.789638 15.3015 -5.46299
-3.94368 13.3374 -4.92143
5.74127 -10.9944 -4.36505
15.8482 -11.9771 -7.0361
19.1034 5.90012 -7.03374
2.11646 20.6676 -7.28484
21.6948 26.227 -11.8275
-14.8324 18.3096 -8.0894
2.9726 -13.3445 -4.70578
-8.86206 16.0094 -6.25459
18.4957 -13.1002 -7.7686
-5.02463 14.4369 -5.19908
1.36018 -22.2449 -7.38529
1.76191 19.6491 -6.51647
1.44827 -10.3196 -3.44402
39.2011 -20.0389 -14.449
6.17165 -10.0517 -3.77572
17.5804 -12.4135 -6.89333
2.12154 20.7137 -6.62607
-13.3082 17.7674 -7.00049
1.45118 -22.7263 -7.09547
-4.28974 14.6847 -4.75518
-10.9126 16.5351 -6.00564
-2.74861 -27.972 -8.5389
3.06468 -9.47111 -3.02547
0.7943 -24.2769 -7.30474
19.1385 -13.5845 -6.96452
17.6192 5.57403 -5.42226
-7.85869 15.2141 -4.98641
4.22936 -10.4951 -3.28873
3.62179 -10.5717 -3.1807
4.24278 -10.9492 -3.29647
-13.2607 17.7251 -6.15903
-9.25029 15.8138 -4.98536
-13.2348 1.98394 -3.6695
-16.8571 19.3678 -6.97325
26.3325 -17.3352 -8.54297
-3.91122 -27.8877 -7.55271
3.78334 -9.14655 -2.64845
-9.76184 16.2281 -5.04215
47.3438 -13.8235 -13.0789
10.539 -9.39971 -3.73828
-6.42005 14.8657 -4.23139
-14.3617 18.0066 -6.04532
-7.98271 -37.7687 -10.0553
4.95855 -9.57229 -2.79055
6.56005 -10.4988 -3.19402
-7.17829 15.2358 -4.2825
-10.513 16.375 -4.97333
-9.86149 -39.0788 -10.023
-9.00713 -38.8833 -9.74637
10.9478 -9.65086 -3.58884
-7.93364 15.3986 -4.20166
-11.68 16.9772 -4.9896
14.6273 7.72657 -3.92629
4.04587 -9.25077 -2.38982
15.2312 7.54324 -4.00552
3.74618 -8.90733 -2.27166
-6.51135 -32.4416 -7.66209
5.62583 -9.88358 -2.63606
44.8201 -10.8463 -10.7184
-12.7585 17.3793 -4.96386
14.8842 7.62268 -3.78328
43.8553 -9.48704 -10.1648
-9.74951 16.2406 -4.24095
3.71373 -9.25113 -2.16898
43.0167 -11.0354 -9.69309
15.1431 7.51246 -3.61984
-10.5945 16.5384 -4.20806
-21.8832 -34.4024 -8.75935
4.82031 -9.74981 -2.34661
45.1147 -10.5634 -9.914
-14.7306 18.2509 -4.93553
-32.1831 -23.754 -8.4784
41.7493 -13.9691 -9.31405
14.8687 7.85692 -3.50717
-35.3727 23.9208 -8.73239
-8.34375 -34.1279 -7.11482
3.95167 -11.5055 -2.44564
44.6402 -9.63141 -9.28882
11.7851 -9.7552 -3.06831
43.0389 -11.0796 -8.85649
-26.9005 20.2998 -6.68979
6.14362 -10.283 -2.38505
46.0074 -10.7587 -9.22857
-12.7437 17.3881 -4.16706
-26.7742 20.9826 -6.61064
16.073 12.1578 -3.85188
-6.85284 15.0859 -3.18183
-33.0814 -23.9281 -7.81478
-31.5895 -24.7367 -7.7106
-35.5991 23.7217 -8.05612
-33.5904 -22.1584 -7.60445
18.0411 5.672 -3.52981
-34.117 -20.5851 -7.44134
-15.0099 -43.2749 -8.53301
3.77028 -9.82038 -1.98086
-24.4661 -60.9109 -12.2079
-16.7475 -45.118 -8.80285
3.97518 -9.63506 -1.88019
13.0773 -10.2187 -2.9932
45.4864 -10.122 -8.37064
-14.6907 18.2204 -4.18278
-26.924 21.1168 -6.04157
15.1064 7.99659 -2.97701
-30.2589 -26.3685 -6.99564
42.8985 -10.9883 -7.60331
-7.90393 15.2266 -2.90693
-9.71176 17.8862 -3.43905
44.7554 -10.5355 -7.77526
-30.6643 22.3358 -6.3873
-30.2415 -23.2661 -6.37732
-20.752 19.8424 -4.77734
-32.2735 22.7923 -6.5918
15.9363 -11.8906 -3.25856
-10.2976 16.3489 -3.07455
-43.2748 25.4642 -7.96637
-31.6139 -23.7495 -6.33015
-33.4517 -23.0739 -6.40048
3.43305 -9.49485 -1.57911
-23.7106 20.2547 -4.81635
16.9309 -11.9691 -3.21201
-11.1347 16.6649 -3.04556
46.1461 -10.8149 -7.19417
-22.8297 -52.9062 -8.70688
-29.4235 22.0669 -5.49962
-38.3107 23.8876 -6.70153
-31.635 -24.5563 -5.97469
44.7557 -9.59089 -6.81565
-33.7286 -24.3929 -6.08207
-49.8474 27.8319 -8.20923
-35.5288 -23.6982 -6.14743
6.73626 -12.9272 -2.11692
-36.2092 -21.045 -5.92724
-6.91654 15.2496 -2.32618
-13.0763 17.6522 -3.057
-32.1039 23.1134 -5.52961
-24.5789 -54.7383 -8.27414
-16.1087 -47.0913 -6.84488
36.7746 -12.2298 -5.31534
-23.1262 20.3223 -4.09671
-32.2641 -24.1622 -5.26256
-30.6256 -25.1243 -5.23733
-33.8943 -23.3432 -5.27176
7.44923 -9.43531 -1.55457
42.9527 -10.9949 -5.68946
-33.4508 22.7626 -5.14432
-29.7774 -15.8895 -4.30236
6.0423 -7.82518 -1.26293
44.901 -10.5535 -5.84796
-31.0314 22.8063 -4.80571
14.5206 -11.3127 -2.26164
-29.9586 22.564 -4.53722
-32.5482 23.0086 -4.79926
-10.3269 16.4248 -2.24196
-31.5095 -22.6621 -4.56641
13.0042 -10.5177 -1.95803
35.8759 -11.855 -4.37227
6.34674 -10.35 -1.39563
11.2031 -9.70825 -1.67036
16.4643 -12.2585 -2.31328
-11.0379 16.5511 -2.20308
6.76504 -12.6048 -1.56783
11.6113 -9.69661 -1.67543
42.7913 -10.973 -4.85024
-38.9779 24.3031 -4.92999
44.9627 -10.5065 -4.97181
14.933 -11.4668 -2.00322
-12.9255 17.4626 -2.23175
14.7914 7.82892 -1.67246
14.0198 -11.0599 -1.78396
-13.9749 17.8734 -2.20074
6.40688 -12.2781 -1.33334
9.4107 -8.92643 -1.25379
17.0365 -12.4573 -2.05996
-28.8824 -13.8015 -3.01559
-14.9502 18.3073 -2.20349
-36.9921 -72.0672 -7.54071
-33.9693 -21.2561 -3.54826
16.1564 -12.1065 -1.81694
38.5836 -12.8381 -3.63962
11.1223 -9.88681 -1.22991
43.1996 -11.0413 -3.71904
-16.2016 -42.1609 -3.62815
-39.9271 -78.0722 -6.83116
17.6385 -12.8532 -1.72382
-30.1573 22.8239 -2.89287
7.45106 -9.17844 -0.915183
-32.8293 23.2389 -2.9879
-16.5893 -41.0391 -3.30845
-36.7599 -69.1731 -5.57128
-35.6482 -71.3977 -5.4672
12.584 -10.4726 -1.1021
17.0903 -12.4476 -1.42942
-39.4261 24.544 -3.03654
43.4559 -11.1257 -2.94467
-28.6808 -13.4864 -1.89805
-40.2972 -77.8527 -5.30944
14.5244 -11.3232 -1.10983
31.2089 -20.559 -2.04251
31.1786 -19.6506 -2.01469
15.3644 7.58814 -0.889102
14.8026 7.84924 -0.861465
-12.8484 17.5335 -1.10306
-24.6933 -54.491 -3.07409
-42.2362 -79.6014 -4.40115
9.66265 -9.10035 -0.663979
13.4643 -10.7074 -0.845048
15.9901 10.1722 -0.895314
16.2885 11.4168 -0.926116
6.83602 -12.5379 -0.679203
-20.0435 -5.9142 -0.897266
-29.8967 -53.2789 -2.69593
10.2421 -13.8274 -0.703442
18.0753 -13.0349 -0.910882
42.6723 -10.9001 -1.75277
-9.39407 -12.4248 -0.600926
44.2038 -10.351 -1.78532
22.228 26.7228 -1.18558
-32.7336 22.3765 -1.37419
-36.5196 -20.4787 -1.36307
-18.2382 -45.4539 -1.57402
16.5006 -12.3103 -0.671811
14.401 3.90076 -0.440037
-25.9165 -59.5533 -1.94799
-22.8094 20.3184 -0.872577
-12.3469 -37.4392 -1.06039
43.0883 -9.15325 -1.23185
-42.0686 26.1669 -1.33932
-54.5335 19.6094 -1.38824
43.7769 -10.1654 -0.966719
-31.0317 23.452 -0.777343
-30.4734 9.69275 -0.668552
31.4904 55.1345 -1.16683
-30.2975 22.3604 -0.721097
12.983 -10.638 -0.290888
-34.6871 -21.5866 -0.633343
-30.6264 -61.5932 -1.02434
17.509 -12.627 -0.313714
-12.6173 -38.1451 -0.518823
-14.2529 18.0933 -0.234689
-20.11 -46.2171 -0.548148
30.2978 -18.9765 -0.322519
-22.7998 20.3425 -0.207185
-9.92974 -12.7445 -0.0488515
7.02278 -11.7148 -0.0236477
14.6285 7.64995 0.000577075
-35.697 -22.0427 0.223551
-23.918 -40.8793 0.348754
-53.6384 29.3836 0.625685
6.69312 -11.8755 0.141218
8.0097 -9.10698 0.121215
-41.263 -21.9376 0.51372
-11.4942 -32.5507 0.384745
11.1064 -9.68162 0.193178
-23.1867 19.8118 0.401759
-12.4053 -19.2474 0.332843
-31.298 22.2714 0.684737
-35.3556 -23.703 0.761796
-34.8598 -25.7525 0.756235
10.6393 -9.56113 0.233425
7.79202 -9.60486 0.265797
7.89806 -9.21845 0.261956
-71.4287 24.734 1.76759
18.1153 -13.15 0.545086
-28.7992 -8.65205 0.804968
-28.075 22.0163 1.02829
11.5883 -9.92837 0.416251
17.2726 -7.48717 0.536098
-25.0876 21.2773 0.980001
-7.91827 -9.28542 0.388432
12.6975 13.8052 0.667204
6.14304 -12.6572 0.495079
8.91072 -8.76836 0.427233
24.5341 -4.34753 0.833434
18.509 17.6757 0.924351
13.8292 23.9399 1.03996
-57.1522 18.7858 2.16649
24.3421 -4.72864 0.939535
-25.5596 20.8792 1.24822
9.38003 -8.92344 0.50058
22.3672 -3.08155 0.853105
12.2007 14.131 0.764471
14.7477 19.0556 0.987009
6.51716 -12.3565 0.573499
17.8577 41.2745 1.87807
7.64782 -11.0207 0.565549
-7.5648 -7.4466 0.469087
-8.29723 -11.4794 0.632944
-29.6808 -11.7496 1.52052
16.3648 10.6236 0.972558
-7.7415 -7.20311 0.506516
15.2481 23.6894 1.45605
-6.96838 -8.20324 0.59178
14.5133 19.874 1.34891
-26.2006 20.1752 1.82917
14.3745 23.41 1.5911
-7.141 -9.20526 0.665834
6.81506 -13.5054 0.868428
9.88348 12.4321 0.940293
14.667 19.4868 1.52947
14.9576 26.6209 1.88061
10.2835 28.8398 1.94782
-7.32217 -9.99388 0.792649
9.45902 21.5563 1.58048
11.4004 10.0283 1.08248
11.429 12.0859 1.17451
13.6629 15.7877 1.49448
8.18272 -12.6136 1.06149
10.7411 8.96612 1.02969
12.8549 14.4181 1.44569
-14.4116 8.49878 1.26554
-11.1519 2.10086 0.858709
12.3919 16.1308 1.57898
11.5347 18.3828 1.68574
10.0851 -6.90176 0.954298
-7.68916 -8.13403 0.895546
12.7156 11.5103 1.39931
11.8193 11.5628 1.37285
-7.02152 -6.17789 0.76009
-7.07401 -6.91725 0.820788
11.4306 11.9318 1.42515
10.6074 9.34411 1.28534
-11.4247 2.92545 1.08404
-7.63788 -7.11401 0.93785
11.6066 8.9558 1.40404
9.17749 12.978 1.52665
7.15489 13.1654 1.46894
8.38028 13.0297 1.55393
-6.75842 -6.73472 0.948502
7.85611 -6.53022 0.999994
9.64251 12.0776 1.54922
9.89958 10.1125 1.46186
-6.89533 -5.4128 0.912363
9.58119 9.12354 1.41071
8.15962 11.0936 1.44383
6.72444 13.0388 1.56339
9.55725 8.33977 1.34291
9.14653 10.1873 1.49172
5.65717 12.4615 1.48179
-6.40179 -7.53947 1.06895
6.65471 11.3263 1.44564
5.21162 13.0585 1.55152
-6.83758 -3.98788 0.874247
-6.70979 -6.08966 0.998452
3.91661 -7.76212 0.962582
5.43513 -6.08925 0.917149
9.32483 7.50675 1.34569
9.0282 9.60796 1.48701
7.88343 11.2285 1.53394
6.74316 10.6419 1.43695
-6.89118 -4.57728 0.938391
4.70277 -7.67304 1.03994
-10.6623 7.14774 1.49021
-7.10002 -2.13617 0.863005
8.98229 6.06786 1.28987
5.85626 11.9525 1.57331
4.94748 11.4416 1.47051
4.76809 -5.85658 0.888994
