ply
format ascii 1.0 
element vertex 1873
comment /media/mkaihara/Seagate Backup Plus Drive/model_iterations/model_62.ply
property float32 x 
property float32 y 
property float32 z 
end_header 
7.06737 -10.975 -10.4581
8.00372 -8.37934 -9.20566
6.72887 -11.287 -10.2909
6.44648 -11.6994 -10.2151
7.75907 -8.85258 -8.97415
6.20671 -14.3192 -11.8104
8.30024 -8.70267 -9.10315
6.30116 -11.9116 -10.1775
6.14867 -12.0905 -10.1147
7.49283 -9.44735 -9.00313
7.91121 -9.05807 -8.92881
10.4666 -9.44916 -10.4875
6.1217 -14.1176 -11.3739
6.10306 -13.6722 -11.0084
6.13253 -12.5794 -10.2934
9.19648 -8.8258 -9.35057
9.28433 -9.0725 -9.46785
5.8662 -12.5081 -10.0362
9.3602 -8.98918 -9.26182
6.86261 -11.1276 -9.27848
5.61693 -12.9732 -10.0059
9.69064 -9.0799 -9.41138
7.61054 -9.34604 -8.47419
9.99566 -9.18526 -9.53704
10.9157 -9.49203 -10.1503
11.4379 -9.6962 -10.0703
8.38633 -8.60969 -7.95739
7.43251 -9.30091 -7.86667
8.16917 -8.72025 -7.89809
7.62964 -9.35393 -7.89738
7.83856 -9.40405 -7.8465
8.32227 -8.53712 -7.62155
0.359848 15.8792 -10.1338
7.52928 -9.32611 -7.62773
10.9082 -9.60493 -9.24111
7.22706 -10.7037 -8.17419
8.15702 -8.49931 -7.42929
4.61416 -15.4101 -10.1168
8.71537 -8.70249 -7.62023
7.92316 -9.03448 -7.41224
4.04944 -18.0236 -11.3791
8.19956 -8.62947 -7.27735
4.08699 -17.3114 -10.8536
0.145704 14.8844 -9.05662
6.65573 -11.2647 -7.96611
7.74429 -9.27009 -7.32921
10.1236 -9.31055 -8.34578
6.82193 -11.2536 -7.90037
8.06211 -9.2063 -7.34574
11.2649 -9.69337 -8.88538
5.40209 -13.8605 -8.82286
7.73663 -9.26818 -7.15976
9.35128 -9.0338 -7.70451
6.90355 -11.1175 -7.74542
7.98499 -9.12984 -7.11705
9.7522 -9.18699 -7.8082
14.8359 7.41331 -9.63179
8.66828 -8.83206 -7.15082
6.93402 -10.9664 -7.45687
2.64041 -11.2142 -6.62596
7.86137 -9.07338 -6.87584
9.60431 -9.13939 -7.53117
10.7906 -9.49335 -8.10775
3.27976 -20.5992 -11.7303
6.8022 -10.9841 -7.24307
10.1044 -9.28967 -7.68673
12.3332 -10.3486 -9.02866
9.24029 -9.00742 -7.21072
4.61638 -14.295 -8.37487
8.00504 -9.21773 -6.78047
14.7581 7.54511 -9.09947
9.69639 -9.10606 -7.30549
0.836885 17.4708 -9.55116
2.74155 -19.855 -10.9292
11.1268 -9.64212 -7.99415
4.2335 -14.4226 -8.13661
14.6716 7.67253 -8.91781
15.0578 10.3963 -9.82419
14.0076 7.72772 -8.54777
10.9468 -9.61452 -7.74776
13.2546 -10.7938 -9.09304
3.04378 -19.3313 -10.2877
11.3509 -9.82076 -7.63737
2.16863 -20.381 -10.345
10.2575 -9.33877 -6.97556
14.2569 -11.2766 -9.12673
13.7935 -11.1567 -8.88142
11.0027 -9.65055 -7.2915
7.50796 -9.33706 -5.93342
3.5631 -8.4682 -4.52773
-8.71111 -1.91266 -4.38491
2.22339 -20.1612 -9.94847
4.53178 -9.29889 -5.0591
0.403719 13.659 -6.689
7.60691 -9.26899 -5.85125
-8.52754 16.2739 -8.89833
-9.21263 -2.43547 -4.59148
14.9779 -11.5664 -9.09428
19.3461 5.53531 -9.6229
-10.3287 -2.55726 -5.03291
1.90952 -20.5555 -9.81641
17.1696 16.1348 -11.1586
7.58016 -11.2065 -6.384
19.9963 5.39735 -9.75367
14.0149 -11.0959 -8.31274
2.92865 -17.3294 -8.17225
19.3239 5.71748 -9.30957
17.8163 -12.9839 -10.1833
9.85564 -2.4894 -4.69674
20.2506 5.13272 -9.63846
17.2946 16.2631 -10.939
1.81007 -20.2247 -9.29306
9.66756 -9.04006 -6.06081
-9.22256 -1.674 -4.27477
9.44375 -3.46523 -4.58157
6.71002 -11.3117 -5.98234
9.90285 -2.61569 -4.64581
19.2169 5.8598 -9.04455
17.6776 17.5344 -11.1927
9.35999 -3.08329 -4.43582
15.4094 -11.8574 -8.72561
7.03348 -11.5561 -6.05107
7.14768 -10.9113 -5.81424
9.54984 -3.40139 -4.51757
-10.0517 16.4751 -8.59218
17.6255 -12.8634 -9.69646
19.5029 5.61824 -8.99565
16.0814 7.29423 -7.81931
17.7844 17.9631 -11.1788
16.4028 -12.1991 -9.00974
-11.3126 17.2025 -9.04971
-6.5926 15.066 -7.21047
-5.24558 4.92005 -3.13355
20.0995 5.45734 -9.05445
9.54877 -3.40166 -4.37462
18.1764 18.4226 -11.1229
15.8002 -12.1591 -8.57921
14.843 7.42141 -7.08226
3.83736 -9.29916 -4.27415
-11.2354 17.088 -8.65783
6.94023 -10.9 -5.44885
-13.6166 3.33705 -5.90669
0.743326 -22.394 -9.44227
15.7862 -11.9527 -8.28089
-5.17557 5.69912 -3.22093
0.998771 -22.2569 -9.33931
1.23191 -20.7852 -8.72291
14.1529 7.59056 -6.71706
18.5052 19.2847 -11.1668
3.78158 -8.95207 -4.05264
14.755 7.72113 -6.93175
17.8763 19.0921 -10.8536
-9.52592 -1.09332 -3.95809
4.00632 -8.50039 -3.85015
14.0198 7.74131 -6.57425
6.83968 -10.9801 -5.28884
-13.6551 2.55084 -5.6827
-8.01422 15.5257 -7.10018
19.2038 20.867 -11.4885
15.0568 7.23477 -6.73041
-5.30438 14.4859 -6.18511
13.9364 -11.018 -6.95852
1.531 19.2328 -7.49316
-8.80559 15.9033 -7.06422
18.9641 5.78339 -7.68182
-1.75852 13.3224 -5.2049
5.29353 -9.39017 -4.15711
-2.39247 13.544 -5.28261
19.5299 22.5923 -11.4505
4.65914 -8.51294 -3.68552
19.3897 5.56252 -7.67578
0.87704 -26.5516 -10.0958
14.886 -11.4712 -7.07266
19.9476 5.40419 -7.73485
9.43452 -3.43734 -3.7541
0.533515 -22.7039 -8.4631
3.24692 -10.7893 -4.20948
20.127 23.416 -11.4662
0.909773 -8.72304 -3.25244
14.0111 -11.096 -6.59043
20.3548 5.17703 -7.72223
17.8412 17.6292 -9.16559
-13.0678 2.28935 -4.82332
20.7739 24.8075 -11.735
2.28604 -13.2531 -4.84521
13.0204 -10.5294 -6.02568
0.795908 15.4343 -5.52972
-8.20899 -2.80136 -3.10247
0.410033 -21.8711 -7.81952
-4.24395 13.9282 -5.1792
0.638417 -21.9454 -7.80197
15.8343 -11.9591 -7.03318
-15.8638 18.3396 -8.54593
5.92553 -11.3328 -4.49661
-11.113 16.7702 -7.02679
0.0935405 -18.5306 -6.51385
14.2475 -11.2914 -6.35674
20.3098 5.34879 -7.33066
0.657795 -23.0672 -7.96951
-5.05145 14.6641 -5.31428
3.63841 -8.44624 -3.16571
4.87492 -9.03011 -3.51657
-14.6282 18.161 -7.98224
2.2747 -10.8848 -3.8108
-8.95987 16.2535 -6.32667
3.02598 -13.6908 -4.7805
-15.1074 18.5424 -8.10841
20.1281 5.47256 -7.01091
21.9616 27.1679 -11.6753
35.948 -20.2928 -13.7953
-5.34753 14.1835 -5.03455
1.91259 20.7257 -6.90609
1.26734 -10.248 -3.41425
-5.29433 14.578 -5.03762
-12.6949 17.3793 -6.98193
18.5322 -13.2059 -7.38999
3.55924 -8.67126 -3.00526
6.21691 -10.1082 -3.80315
2.3133 -11.0072 -3.57933
-4.58671 -34.4537 -11.047
-1.14206 -23.9272 -7.62484
14.9967 10.3284 -5.74655
-13.324 17.73 -7.01036
-18.1514 19.5779 -8.39265
6.95754 -11.088 -4.04706
1.38613 -21.9166 -6.79337
-2.58674 -27.5509 -8.49376
7.15891 33.0614 -10.3224
0.77101 15.025 -4.56965
-11.2304 16.9446 -6.1272
-2.71513 -26.6589 -8.06964
-14.4697 18.0915 -6.91245
-5.33036 -34.9523 -10.5271
0.839334 -25.1025 -7.50978
-5.43839 14.9579 -4.73456
2.07854 20.678 -6.12292
-21.4647 20.0141 -8.65872
18.1873 5.78761 -5.61785
-4.33055 14.5455 -4.46251
-7.99447 15.5097 -5.11946
4.25461 -9.14073 -2.96339
4.63483 -11.6133 -3.65623
-12.6454 2.22766 -3.69031
-33.3179 -47.1952 -16.6232
-15.3283 18.4399 -6.89336
6.95443 -11.0763 -3.7653
2.5632 -9.54384 -2.80783
12.9228 -10.4602 -4.73143
-8.45922 -2.4619 -2.49814
20.9966 27.0788 -9.70793
-8.58692 -2.2632 -2.5093
-2.56824 -26.2063 -7.38926
-13.0531 2.00022 -3.67745
4.38625 -11.3253 -3.37094
-9.38987 16.1482 -5.12853
-13.1702 17.5649 -6.03021
-5.43944 14.5173 -4.23753
-8.58679 -41.6999 -11.6482
-21.657 20.21 -7.96353
-9.81369 16.2732 -5.09289
-26.947 20.7001 -9.04002
11.4184 11.4923 -4.27458
4.32532 -11.2913 -3.20325
46.9181 -13.6391 -12.9439
-8.28321 -39.0893 -10.502
4.08819 -8.65459 -2.52031
11.1636 -9.9295 -3.90848
-14.5748 18.249 -6.07302
6.53371 -10.4195 -3.18326
3.17728 -9.64376 -2.62495
-30.4163 -44.5479 -13.9286
-4.39498 -28.8269 -7.5442
3.53991 -10.3688 -2.82516
4.06703 -9.38445 -2.62886
15.5895 -11.7222 -4.9768
-7.21776 15.3769 -4.29976
-31.8511 -42.4775 -13.4631
4.31015 -11.14 -3.02319
4.2542 -7.70279 -2.23952
6.53332 -10.657 -3.11748
44.6189 -13.4901 -11.622
-28.514 21.5126 -8.83094
-11.6269 17.0818 -5.09415
-27.8498 -40.6269 -12.1106
-9.99457 -39.3387 -10.0114
-24.686 20.7342 -7.92252
4.34794 -10.327 -2.75303
-12.1644 17.424 -5.15255
-7.91108 15.4141 -4.17615
10.2687 -9.26245 -3.31123
40.1301 -13.3302 -10.119
15.0987 7.55102 -4.01888
-6.37357 -36.5003 -8.82598
3.9642 -9.08416 -2.34855
46.7896 -12.5228 -11.4959
-12.2986 -45.2832 -11.1154
4.19966 -8.98582 -2.36626
3.85649 -11.061 -2.76082
4.90667 -8.69017 -2.34775
-12.8846 17.5586 -5.06863
11 -9.63987 -3.34295
-6.24122 -31.6495 -7.36032
-27.3768 21.1445 -7.84139
41.3595 -9.04505 -9.60778
-30.7531 22.3283 -8.52076
-35.6593 -23.3684 -9.55274
40.5592 -12.5381 -9.53196
5.45181 -9.46942 -2.43959
-12.434 2.83716 -2.79836
40.4329 -11.8488 -9.30921
42.3979 -12.0973 -9.70023
-5.42542 14.2349 -3.33106
13.3782 -10.7652 -3.77977
37.9153 -12.1847 -8.75523
-23.5749 20.5468 -6.78345
-30.0862 -74.175 -17.368
4.30703 -9.69406 -2.30038
4.5367 -9.17534 -2.21089
-14.6956 18.3092 -5.01392
-31.1933 22.6582 -8.23259
-32.0801 22.766 -8.40909
-28.7201 -76.1983 -17.4539
-10.7762 16.8386 -4.2392
-8.5242 -36.1846 -7.90485
3.18842 -9.67956 -2.17322
3.96374 -9.82317 -2.25859
45.5723 -10.5659 -9.98624
14.9313 7.47886 -3.54029
-15.2755 18.8042 -5.12948
5.16135 -9.05019 -2.1889
26.4516 38.2715 -9.72167
14.9709 7.835 -3.50806
-30.3268 -23.4215 -7.94886
-33.7309 -86.4875 -19.2183
-11.538 16.9999 -4.17526
-15.7405 18.6105 -4.9623
-35.4719 23.8113 -8.68149
44.2202 -9.64534 -9.22976
-13.4146 -43.1644 -9.18625
4.13309 -9.72777 -2.15044
11.5943 -9.638 -3.06762
-12.0888 17.3482 -4.22108
-20.2293 -58.0581 -12.2868
-13.1108 -40.7276 -8.47053
4.06704 -9.91462 -2.1218
-34.3231 -23.4698 -8.19674
-26.9307 21.1363 -6.73799
-33.3487 -23.8549 -7.99255
-6.94456 15.3457 -3.26965
-26.9956 -63.4308 -13.3896
-33.7573 -22.4733 -7.81483
3.43359 -9.35616 -1.92452
45.6517 -10.5772 -8.99852
-12.8398 17.5305 -4.15414
3.98669 -9.33914 -1.93788
-36.6639 -22.2707 -8.12037
-21.4418 -34.8317 -7.77867
-15.7776 -45.5243 -9.11608
37.7496 -12.4527 -7.5146
-36.2387 24.3389 -8.16977
-33.895 -23.4086 -7.73828
-32.8416 -24.0282 -7.63862
-21.6081 -53.5321 -10.8619
-17.0915 -46.4252 -9.17624
3.81851 -9.20276 -1.84036
42.3854 -11.4236 -8.15183
5.75432 -9.70722 -2.06817
-24.8782 -56.4121 -11.2874
-20.7137 -51.4129 -10.025
-14.6612 18.2755 -4.15457
-31.2857 -25.2327 -7.14436
-20.4191 -27.2091 -6.08329
-39.6875 25.0433 -8.28004
-26.9402 21.1532 -5.96183
-34.3394 23.4982 -7.22468
3.9068 -10.0429 -1.86861
4.76975 -8.60874 -1.71037
13.9885 7.51219 -2.73845
14.0618 8.06926 -2.77662
-31.0446 22.5752 -6.58055
42.0661 -11.9014 -7.44288
41.8645 -10.8425 -7.36193
-31.4429 -24.9716 -6.81135
-21.2021 20.1923 -4.91677
-20.6629 -51.3598 -9.35367
14.8436 7.43959 -2.78455
-31.9221 22.599 -6.53336
-23.8982 -56.9775 -10.2092
43.3809 -11.6864 -7.30258
-10.4198 16.5421 -3.15501
-20.955 -51.9861 -8.93916
-35.1003 -24.23 -6.72084
-22.9194 20.1367 -4.77739
-24.3308 20.7702 -4.95818
-40.3965 24.4587 -7.3179
-11.2936 16.903 -3.1384
3.46994 -9.52304 -1.56756
3.86647 -10.2245 -1.6926
-7.67138 15.5597 -2.64995
-31.2765 22.7638 -5.91339
-31.9456 -24.6739 -6.13794
-28.1068 -26.2907 -5.83038
42.0524 -10.9323 -6.60459
44.6829 -9.73481 -6.9672
-6.58568 14.6688 -2.40608
9.82737 -5.15126 -1.64679
-33.6868 -24.2968 -6.18529
-26.9025 -68.0224 -10.8486
10.1876 -9.15981 -2.0417
44.8229 -10.3692 -6.83243
-36.8716 -24.545 -6.51888
-31.6989 -26.1466 -6.01085
-12.8236 -42.4894 -6.53003
16.8972 -12.2251 -3.05506
-25.5486 21.0349 -4.80945
-25.0482 -56.1234 -8.85604
-7.66822 15.3588 -2.45487
-12.7888 17.4368 -3.08315
6.03043 -11.5211 -1.85825
-13.494 18.036 -3.16422
-34.9415 23.6037 -5.92833
6.75496 -11.0339 -1.80829
37.469 -12.3655 -5.5496
-31.3313 -25.1058 -5.6033
-33.2302 23.8809 -5.66894
-20.8513 -50.2553 -7.51474
44.9733 -10.061 -6.35484
-6.91676 15.2969 -2.29439
-23.0001 -60.027 -8.73228
7.74764 -9.37604 -1.6323
-14.0885 17.9888 -3.0803
13.2052 -10.5322 -2.28554
-22.3584 20.3376 -4.06432
41.9748 -10.8526 -5.75592
44.6991 -9.79092 -6.05675
-22.7404 20.0117 -3.96113
-32.8758 -24.6004 -5.36323
-14.9849 18.3496 -3.06331
-34.2539 22.8626 -5.34669
-38.5419 -16.2739 -5.40178
7.01226 -10.4287 -1.61245
10.7626 8.81159 -1.78595
-33.997 -23.4285 -5.28367
-31.6456 23.102 -4.95634
-35.7828 -22.3288 -5.28665
41.8393 -10.8203 -5.40829
6.79172 -10.3611 -1.54808
-7.70475 15.4111 -2.13354
-25.1697 21.1345 -4.02451
-33.6201 23.6944 -5.07368
6.29002 -12.0635 -1.65746
44.6516 -9.52631 -5.59231
14.9858 7.85119 -2.03397
-18.1575 -43.9767 -5.73693
7.08215 -10.5256 -1.52756
-20.6015 9.13032 -2.66713
-14.4916 -43.8366 -5.42864
-32.0309 -24.6953 -4.72927
-31.5142 -25.2034 -4.72209
41.9215 -11.2295 -5.10092
11.2236 -9.66557 -1.71608
-30.0739 22.8034 -4.34227
6.6381 -10.8159 -1.45288
7.4855 -9.21604 -1.35815
11.5754 -9.71731 -1.71664
9.44563 -4.60801 -1.19011
14.9643 7.68972 -1.89606
-10.4116 16.5752 -2.20917
-32.3981 23.6735 -4.49525
38.7637 -12.7605 -4.57667
9.35162 -9.01811 -1.43733
-11.1309 16.694 -2.18129
6.78728 -12.7783 -1.56739
44.7925 -9.73499 -4.96936
10.7605 8.84255 -1.50097
16.7526 -12.4443 -2.23988
42.1164 -10.9232 -4.6623
9.61357 -8.97357 -1.39332
8.37512 -8.4602 -1.24713
-31.0738 -24.8663 -4.14414
-30.5933 -61.3642 -7.15298
14.9612 7.50321 -1.70996
-31.971 -24.6517 -4.1422
-12.9313 17.628 -2.21997
-12.848 17.2133 -2.1351
10.2014 -9.08254 -1.3381
-21.1371 -53.6805 -5.65597
6.31116 -12.0861 -1.31974
16.6223 -12.1611 -1.97985
42.0056 -11.2875 -4.16942
-31.1433 -62.9525 -6.67664
-21.1199 -55.425 -5.63285
-23.447 20.5088 -2.91219
45.4894 -10.1196 -4.35281
9.71089 -8.98184 -1.22455
39.5903 -13.0598 -3.88488
-15.1057 18.5171 -2.16421
-29.8166 -13.5943 -2.98706
-32.7732 -63.8887 -6.61856
15.8393 -11.8555 -1.79988
8.63168 -8.72261 -1.11127
12.8798 -10.6316 -1.45437
45.0772 -10.4481 -3.964
9.39653 -9.02284 -1.09511
10.9441 -9.63762 -1.2258
-34.375 23.6069 -3.47021
16.8221 -12.2673 -1.72454
-17.1178 -44.5437 -3.82219
14.6671 -11.4687 -1.48478
-11.827 -33.1103 -2.77514
-30.0048 22.8143 -2.91506
-33.3034 23.5401 -3.14847
-22.9959 -52.5289 -4.42694
-51.5407 28.0506 -4.44358
-21.5099 20.2441 -2.14877
-33.532 23.7182 -2.97672
16.3593 -12.2236 -1.49401
42.0322 -11.2479 -3.17012
-39.9322 -75.5554 -6.1674
13.9608 -11.0458 -1.27411
-15.7163 -41.6912 -3.07523
10.7587 -9.60826 -0.988331
-23.471 20.551 -2.10702
12.8582 -10.61 -1.11601
17.9288 -13.0036 -1.47666
16.0224 -12.1191 -1.32686
-14.8185 -41.0857 -2.82535
43.7849 -11.3875 -2.82805
-32.3033 -65.4517 -4.45418
35.7621 -8.6759 -2.25853
42.9602 -9.83288 -2.70573
6.04287 -13.0624 -0.860323
30.8269 -20.3981 -2.21212
-9.89633 16.5205 -1.13222
-15.7162 -40.997 -2.50015
16.5897 -12.3982 -1.16295
-9.70266 -12.578 -0.870532
14.9521 7.67097 -0.90855
13.8878 -10.9936 -0.948555
-12.8538 17.4188 -1.1308
-16.6273 -41.2122 -2.36023
14.8465 7.80672 -0.822046
-16.4563 -42.0644 -2.21636
-14.2266 18.0322 -1.09846
9.55993 -9.01755 -0.602803
-24.282 -55.6999 -2.74965
12.4403 -10.227 -0.746673
-16.1828 -45.1112 -2.12792
-17.3796 -42.8199 -1.97859
6.8484 -12.6456 -0.6381
-14.065 -42.8746 -1.92219
-52.9658 28.8046 -2.44243
18.3113 -13.1554 -0.915144
16.7805 -12.4729 -0.81437
-42.1477 -81.8048 -3.47197
-18.4367 -48.3472 -1.90585
-33.8343 23.2473 -1.50137
42.5103 -10.9533 -1.58085
-34.9565 -69.5347 -2.60407
-26.1819 -57.3777 -2.12368
20.0949 23.2408 -1.01992
-21.5529 20.1971 -0.962341
8.10619 -14.3068 -0.552367
9.41618 -8.98919 -0.422023
11.2907 -9.93985 -0.489019
18.5658 -13.1274 -0.747385
34.7554 -13.1086 -1.23283
21.8787 26.484 -1.10125
-27.4827 -13.7851 -0.963702
-23.0211 20.5003 -0.939381
-31.8768 22.5767 -1.21899
-25.2884 -58.1389 -1.96385
-13.9356 -39.4234 -1.28811
-21.7742 -55.5431 -1.80658
-16.7954 -45.5191 -1.39024
-34.1867 -20.7282 -1.06484
11.4399 -9.70488 -0.40193
16.3184 -12.1373 -0.536203
-41.3139 25.5581 -1.28105
-30.4607 23.1777 -0.946832
-30.9816 22.7057 -0.907955
9.56228 -9.00178 -0.304261
-41.551 14.361 -0.971532
-31.7307 -53.1336 -1.3941
21.2333 -14.2009 -0.561605
30.424 -18.4482 -0.803217
14.2158 3.92865 -0.300779
27.2285 47.5808 -1.0073
23.5057 -10.9432 -0.456714
47.021 -10.8274 -0.89764
-30.7784 -22.1185 -0.691137
-29.7452 -29.2157 -0.661187
-19.1787 -47.0598 -0.846523
12.7091 -10.4511 -0.270774
18.4948 -13.3642 -0.348808
-29.3821 -13.0596 -0.422067
-32.997 -24.6942 -0.573455
-33.816 -68.1705 -1.02779
-28.0571 -59.7146 -0.904445
-34.101 -23.2892 -0.539148
-30.48 23.1887 -0.450703
16.976 -12.6773 -0.251652
29.249 -18.1358 -0.405134
-30.9392 22.7138 -0.427153
-19.2668 -44.1873 -0.516038
-12.1245 -36.4935 -0.387511
-33.7568 -59.4789 -0.630459
-14.3982 18.2638 -0.178344
-26.8052 -13.5144 -0.242322
-15.0918 18.3967 -0.162565
-22.6756 20.2514 -0.156271
-21.1077 19.7983 -0.131471
-10.5811 -13.603 -0.0605055
14.7143 7.72979 -0.019967
11.0996 -9.76017 -0.00780312
-34.6564 -18.9821 0.0603345
-11.4359 -33.9875 0.11649
16.9359 -12.3045 0.0908153
-18.9834 -43.5822 0.210972
18.7549 -13.2143 0.121809
7.16987 -12.3248 0.104039
25.9654 -10.653 0.172608
-55.7223 19.8967 0.564547
16.2296 -12.0278 0.192841
37.3776 -7.6311 0.359992
-29.1848 -8.22945 0.35481
-36.4683 -22.0116 0.46982
-11.4196 -32.7186 0.371457
-12.8172 -35.5169 0.449266
-10.3663 -31.8637 0.401796
6.32404 -12.9264 0.183699
7.20838 -11.105 0.174075
-28.3464 22.2511 0.552119
11.3044 -9.8726 0.225636
-24.2526 20.7402 0.527039
10.8921 -9.72539 0.229175
12.9603 -10.6693 0.264471
36.3303 -7.7752 0.618152
-34.7331 -23.2706 0.760481
-31.4199 22.4654 0.758791
6.13664 -12.8215 0.275823
7.01693 -11.0427 0.252062
8.02145 -9.41263 0.241504
27.2339 55.9992 1.3548
7.72437 -9.43808 0.275738
10.1227 -9.1685 0.329496
-28.9204 -9.27364 0.731686
-23.4407 20.4601 0.842191
-27.7432 21.8754 0.948609
-29.0497 -8.72264 0.799386
9.18423 -8.89014 0.345297
9.6184 -8.93959 0.357943
-25.7374 21.6917 0.914931
25.3332 -5.12494 0.71966
12.97 -10.64 0.499736
14.751 24.0304 0.870143
6.18375 -12.7568 0.446119
7.45124 -11.6153 0.43306
-28.5728 -8.05845 0.974192
-12.6562 -19.378 0.762474
-28.2545 -8.83094 1.02362
16.0807 11.0065 0.704409
-29.9648 -18.568 1.23219
15.6861 27.2481 1.12228
-30.583 -16.6822 1.29101
23.4974 -4.24305 0.86272
-27.9604 -19.8859 1.27139
-7.30513 -7.96511 0.407938
9.0457 -8.8209 0.469656
12.3979 13.5621 0.708645
25.7521 53.1245 2.23624
24.6179 52.4141 2.18094
-11.5792 -9.16541 0.58237
8.71781 -8.66352 0.4862
-25.8232 21.2721 1.35863
21.8019 -2.95475 0.891402
-28.9304 -17.5724 1.38671
9.40777 -8.9204 0.531564
12.4207 14.3051 0.815227
6.57007 -12.4423 0.597507
14.7993 19.2294 1.06695
20.6652 28.5441 1.5436
-9.51792 -13.8391 0.738258
-10.0087 -15.6532 0.824716
7.59127 -10.9411 0.586713
8.61874 -8.70813 0.553681
24.143 -3.69849 1.10284
-29.9852 -8.73814 1.42574
6.73625 -11.0742 0.5964
-8.28629 -8.1547 0.547218
21.1253 42.6227 2.27621
-28.6911 -17.7322 1.59436
-9.79201 -13.7351 0.802859
9.65323 -8.9565 0.62022
15.29 42.4898 2.18617
-30.3898 -13.4605 1.5865
-6.7719 -8.25595 0.525497
14.4153 33.5232 1.86224
-29.8731 -11.6984 1.61012
-7.60278 -6.99102 0.522172
-6.70838 -7.60467 0.513073
16.0095 29.0011 1.7203
10.5097 12.2892 0.87402
14.1537 19.2608 1.28352
9.3377 -8.91851 0.691844
14.7405 19.1793 1.33581
15.1849 23.453 1.53865
-27.6843 19.4926 1.85629
-6.98302 -8.20656 0.597633
-26.611 20.4186 1.86531
6.08589 -12.8499 0.79553
-7.11766 -9.1728 0.662174
9.9179 12.3881 0.933425
14.8036 24.9421 1.69468
6.45352 -12.9614 0.833296
13.7474 22.4285 1.55402
-8.27311 -8.13216 0.699048
11.4933 11.5726 0.972766
14.5893 19.404 1.45875
-7.41131 -10.0328 0.775795
7.0011 -11.1568 0.802711
11.2473 -9.7014 0.900457
5.86008 -10.7425 0.759356
-7.20468 -6.65937 0.613171
14.389 20.4118 1.58033
16.0988 7.14604 1.14373
-7.04592 -6.15609 0.614055
6.45418 -13.4278 0.992894
9.32225 21.0573 1.55364
10.3719 12.5014 1.11062
13.4709 18.1138 1.57462
12.3111 20.4117 1.64956
11.299 11.9357 1.15375
6.59023 -9.8283 0.838003
11.4475 11.7119 1.18533
9.79285 -6.9128 0.852936
12.3068 11.9141 1.25815
9.91113 -8.36983 0.950346
-6.18054 6.69854 0.680694
10.3941 9.15226 1.04046
11.8447 17.7098 1.60321
11.3968 18.1573 1.61545
-6.95619 -7.71054 0.805351
10.7753 18.598 1.6493
9.49939 -8.94368 1.00831
-6.42268 -4.30366 0.609885
9.11438 18.2605 1.63101
10.0658 -6.88797 0.976627
12.4014 11.5062 1.36766
9.66854 18.7724 1.70043
-7.27902 -9.65502 0.984956
6.70844 -9.36717 0.937564
12.1888 11.6602 1.38226
12.0925 11.8926 1.40854
11.3707 11.8849 1.36184
-5.0632 -11.5561 1.06133
10.2612 12.8381 1.39855
-6.96995 -6.09065 0.797382
-6.82656 -6.7053 0.808376
-5.2243 -11.4581 1.07095
-7.31276 -7.7598 0.918317
9.27091 -7.24531 1.01661
-7.13296 -8.07175 0.942773
-7.02842 -7.70303 0.917166
9.34189 12.4695 1.38148
-6.96446 -8.38703 0.974043
10.7729 9.03918 1.28175
10.4081 13.4051 1.53347
10.4823 9.20615 1.27721
7.67212 13.9267 1.46261
-6.50924 -8.14972 0.955749
-6.91626 -9.03583 1.05034
11.1495 10.7533 1.42938
11.2052 9.14225 1.35339
10.8206 10.7554 1.43028
6.44191 14.8865 1.52432
-11.4587 2.93554 1.10952
-6.36774 -4.17514 0.713504
-6.8149 -6.30241 0.860915
9.3818 13.2311 1.56479
-6.05097 6.57504 0.8802
7.95155 -6.60185 1.00726
7.88717 13.1511 1.52337
-7.08005 -7.62988 1.04872
9.26305 11.5824 1.49603
6.9694 12.3745 1.44145
7.0237 12.9397 1.50106
9.49608 9.05708 1.3582
5.82469 13.8854 1.56079
9.09483 12.3697 1.60083
-6.11273 -4.4608 0.793329
5.9239 13.612 1.56382
6.18391 13.5455 1.56556
-6.97771 -4.43239 0.884332
8.73323 8.98284 1.33577
9.09741 10.1347 1.48127
7.2949 10.9535 1.43035
5.79665 11.4174 1.39223
-6.30795 -7.42071 1.06466
10.2338 6.43165 1.33745
8.95849 8.10819 1.33205
7.27648 11.6311 1.51505
6.81281 11.5791 1.48545
5.32904 11.8336 1.44405
4.84244 12.0369 1.45165
4.67336 13.5911 1.58121
9.83307 7.03069 1.34986
8.72306 9.27253 1.42269
5.35486 11.4578 1.42433
-6.85031 -6.7322 1.06915
6.83593 10.6699 1.42759
4.29176 13.0922 1.55724
9.74116 -3.19208 1.143
-6.10984 -5.4191 0.945663
7.28254 -6.11434 1.07943
10.3824 5.69658 1.35835
-7.38816 -0.98672 0.854333
-6.26317 -5.36112 0.949112
5.243 -5.55132 0.87975
5.04142 11.5636 1.46549
-6.88975 -4.56368 0.957813
4.44915 -7.25473 0.984222
10.3763 5.13311 1.35859
8.85162 7.85625 1.38946
-6.00693 -4.3718 0.866006
-6.49209 -5.2786 0.988621
4.08784 -7.85792 1.05342
4.96221 -5.84502 0.919898
10.1373 4.74007 1.34161
8.48637 8.24053 1.43288
5.24838 11.434 1.53584
9.01587 6.24577 1.34299
7.9808 8.30574 1.44303
-6.49648 -5.75272 1.08037
3.70319 -7.56619 1.05508
8.64707 6.66723 1.37316
-6.47426 -5.34977 1.0631
9.06186 5.99395 1.38723
8.15526 7.11599 1.38101
8.08526 7.48078 1.40656
5.77171 -5.34059 1.00959
-6.97916 -4.44775 1.0625
8.07181 7.9696 1.47139
-7.36446 -1.04339 0.961269
-6.92966 -2.82909 0.977708
8.95269 4.09057 1.28913
8.3751 6.60729 1.40051
4.99419 -6.02297 1.02848
4.91229 -6.18727 1.04616
6.86396 -4.2788 1.07667
-7.1402 -1.71992 0.984828
-7.01624 -2.22211 0.984187
-6.03075 -4.42632 1.00029
8.10912 6.6372 1.42073
8.58784 4.42821 1.31745
8.60737 5.15265 1.37032
8.00149 7.11421 1.45744
-6.81482 -3.73704 1.05554
8.83918 4.14909 1.33667
8.24088 5.81641 1.38139
-6.40388 -4.33309 1.05823
-5.96273 -4.52912 1.0228
5.33703 8.99363 1.44457
3.62186 10.0197 1.47962
-7.37468 -1.09401 1.03272
-6.91067 -3.93077 1.10355
4.94525 -5.53949 1.02627
5.22443 -5.39433 1.04228
7.45725 -3.53403 1.15408
3.36666 10.0966 1.49134
8.38098 4.58692 1.35161
7.36899 -3.67514 1.16818
7.58054 -3.33206 1.18057
7.75498 -3.30276 1.19606
8.91954 2.80851 1.34605
4.8302 -5.63125 1.06643
7.34782 -2.85078 1.14748
-6.96476 -3.30315 1.1238
7.91094 -2.77709 1.22245
8.65505 -1.81806 1.29822
4.98989 8.54331 1.4605
2.93693 9.38735 1.46331
7.72539 -1.88628 1.17205
7.21077 5.74259 1.37354
3.43787 9.51061 1.4949
3.16917 9.7427 1.5184
-7.377 -1.04434 1.10499
-7.08062 -2.02484 1.0978
6.92856 6.27202 1.4111
-6.26785 -2.27341 1.00084
-7.24652 -1.37652 1.11373
7.92091 4.80652 1.41161
5.69253 7.33515 1.40887
5.27643 7.60788 1.40918
5.04018 7.98732 1.42799
6.75495 -3.22351 1.13194
7.24072 -3.12232 1.20758
7.62964 -2.75317 1.23607
-7.32334 -0.733633 1.12426
-7.10332 -1.95616 1.13744
6.7845 -3.09076 1.15298
3.74919 -5.7856 1.06608
-7.05898 -2.07775 1.1539
-7.35265 -1.09388 1.16753
7.34498 4.76411 1.38281
-7.20467 -1.44475 1.16939
-7.27781 -1.30223 1.18657
-7.10346 -2.02074 1.20128
7.05443 4.75283 1.38861
-7.10714 -1.9471 1.2108
6.99404 4.85425 1.41421
6.60091 4.84163 1.36619
5.19363 6.2279 1.35099
4.65925 7.15074 1.42546
3.808 7.90364 1.45832
-7.25545 -1.37471 1.23304
2.79229 -5.77665 1.08159
7.1271 4.41938 1.41282
6.49871 5.22635 1.40698
3.87327 -5.36475 1.11562
3.93645 -5.02072 1.08002
-7.27864 -1.25353 1.25322
-6.60321 -2.62721 1.20602
7.40393 2.84296 1.34524
7.01653 3.88372 1.36673
-6.41892 -2.75501 1.18871
6.76124 4.09055 1.35668
5.6808 -3.51861 1.15016
-7.40273 -1.04055 1.2931
-6.36142 -2.28208 1.16219
5.5338 -3.64694 1.1424
5.31771 -3.77315 1.14292
3.58424 7.13703 1.40491
-6.80482 -1.73654 1.23367
4.47967 -4.4671 1.11336
-7.09828 -0.915434 1.27529
4.72467 -4.45727 1.14947
4.31658 6.47478 1.38864
6.57434 3.46767 1.34237
6.6134 3.6757 1.35931
-6.44611 -1.50167 1.19075
3.60873 -5.32617 1.17034
5.06567 5.59955 1.38265
-6.1594 -2.1848 1.19806
3.41325 -5.15875 1.15038
3.37636 6.7485 1.41179
-1.69753 -5.78134 1.14464
6.43456 2.72759 1.33004
-2.14308 -5.72725 1.17569
6.29902 2.79153 1.3265
-2.78757 -5.37672 1.18694
-3.53414 5.36697 1.39283
4.46306 3.88676 1.35075
4.15152 -2.87903 1.17716
4.62859 -2.18627 1.23691
4.19332 3.28686 1.31983
3.70826 -2.93092 1.22414
4.01353 2.57149 1.3317
-1.44311 -4.11768 1.22184
-2.32121 -3.57995 1.21271
3.85577 2.36175 1.31002
-2.8664 3.53281 1.36448
-2.48095 -2.9169 1.18969
-2.37839 -2.93802 1.19461
1.84339 -2.81235 1.18225
1.86638 -2.79054 1.21227
1.99241 -2.52688 1.19856
-2.0459 2.81071 1.32262
2.80366 -0.555656 1.25908
2.78287 -0.336809 1.24075
-2.08955 -1.6194 1.21325
-2.07732 -1.45149 1.23835
-1.86239 -1.79611 1.28366
-1.99492 -1.13158 1.20483
-1.98643 -1.07053 1.23168
-1.94627 -0.880498 1.23194
-1.93066 -0.70852 1.22226
-1.92953 -0.701619 1.24948
-1.90594 -0.469769 1.22235
-1.87135 -0.345766 1.21959
-1.85619 -0.401239 1.22629
2.37781 -19.694 -10.0099
-7.60968 -8.98424 0.465606
8.01647 -8.79786 -10.4653
8.26258 -8.62817 -10.5018
8.21418 -8.28899 -9.88434
6.95692 -11.9556 -11.4085
8.51472 -8.972 -9.73964
7.8491 -8.93587 -9.13399
5.8498 -12.7979 -10.729
9.42509 -8.83219 -9.74265
6.14738 -14.0945 -11.5759
8.28585 -8.67755 -9.02088
8.01652 -9.16757 -9.10705
7.29086 -9.24436 -8.77186
5.90965 -14.1517 -11.1897
7.71701 -9.30442 -8.72276
7.85428 -9.1153 -8.6676
7.12739 -10.5787 -9.08191
6.81874 -11.0709 -9.21776
10.0501 -9.18996 -9.5647
6.53817 -11.1732 -8.86275
8.03161 -8.62632 -7.84874
7.35898 -9.27887 -7.87022
8.51423 -8.67951 -8.08179
7.7186 -9.47079 -8.02676
6.48585 -12.7721 -9.35409
7.93156 -9.17886 -7.91216
5.00195 -16.0385 -10.8059
-0.473061 13.9387 -8.91777
7.72603 -9.24256 -7.72491
7.33339 -10.8611 -8.34436
8.37583 -8.56411 -7.63192
10.8708 -9.61677 -9.20629
8.98719 -8.81672 -7.89603
11.7592 -10.0276 -9.68551
8.07085 -8.53388 -7.22646
4.04133 -16.8447 -10.617
4.24929 -15.3796 -9.79728
7.84275 -9.35686 -7.31683
3.95278 -15.6312 -9.61466
11.4736 -9.82261 -9.04629
6.86225 -11.0741 -7.73596
7.77007 -8.81727 -6.96206
5.48671 -13.9961 -8.88237
6.48692 -12.7038 -8.34804
8.36005 -8.59247 -6.98648
9.68452 -9.07809 -7.74019
2.79037 -11.7948 -6.94768
5.47764 -13.8957 -8.45743
9.59156 -9.10234 -7.47515
6.61599 -11.0674 -7.26046
3.34969 -20.7134 -11.7594
8.87644 -8.93679 -7.06117
12.1827 -10.2211 -8.90923
6.82181 -11.0032 -7.2126
4.68245 -14.6107 -8.47956
6.22046 -12.6195 -7.73997
0.896692 18.5728 -10.1213
14.6042 7.71685 -8.97354
4.20335 -14.2423 -8.02038
14.71 -11.6404 -10.1122
14.9574 7.43258 -8.89563
13.9965 7.71157 -8.4899
4.76498 -14.8478 -8.28586
12.0734 -10.1421 -8.29808
1.8143 -20.5016 -10.5887
11.4071 -9.84448 -7.71972
2.0819 -20.2267 -10.3182
13.948 -11.0712 -9.00763
0.00530345 14.2796 -7.16709
-7.31617 15.2094 -8.45976
10.587 -9.59405 -7.17929
7.51161 -9.42177 -6.00361
-8.53026 16.173 -8.83859
11.6322 -9.76922 -7.35259
10.4875 -9.57865 -6.82055
14.7668 -11.3212 -8.97529
16.6672 15.7882 -10.9052
7.48025 -11.0562 -6.36031
14.9927 7.40781 -7.84546
13.9121 -11.0164 -8.29425
-11.9862 17.1652 -9.59399
15.8171 -11.985 -9.06652
9.77201 -2.45011 -4.6275
-9.11875 -1.65779 -4.21482
18.6772 18.0226 -11.7093
3.9127 -9.0979 -4.49515
-10.24 16.7293 -8.81012
-5.35153 4.45043 -3.13049
6.85469 -11.2853 -5.94457
9.42278 -9.08179 -5.77215
15.9952 7.29667 -7.75524
-6.64778 15.1004 -7.20787
1.50055 -18.7539 -8.13736
-11.2059 17.0513 -8.78686
9.57817 -3.36906 -4.34872
7.01404 -11.0404 -5.52968
15.8015 -11.945 -8.29214
14.6296 7.73341 -6.94
18.7076 19.4631 -11.2805
1.02055 -22.6444 -9.43677
-4.53949 13.8888 -6.02174
-9.94378 -1.11221 -4.14691
14.0692 7.76856 -6.56113
20.3925 22.1818 -12.2795
-13.0887 2.45287 -5.42498
15.0935 7.17128 -6.7574
-5.23138 14.339 -6.14036
3.63708 -8.80548 -3.79224
13.9241 -10.9944 -6.93376
19.2539 21.5482 -11.2074
18.779 5.79077 -7.61942
1.53903 19.2322 -7.47944
-8.75205 15.7716 -6.95545
11.391 -10.0436 -5.84166
19.188 22.2454 -11.314
0.683329 15.3719 -5.8918
-1.66256 12.7693 -4.95465
2.71349 -12.245 -4.81219
-8.77767 -1.25367 -3.37036
0.703312 -23.6968 -8.94546
15.1603 -11.6181 -7.20378
9.48715 -3.46173 -3.8094
-14.612 18.0148 -8.64693
-7.89792 -3.50844 -3.16973
1.09641 -10.4648 -3.86979
7.02487 -11.2315 -4.84483
14.1764 7.91551 -5.86097
-8.30055 -2.8499 -3.15589
0.789941 15.2794 -5.45463
-3.96085 13.3989 -4.94473
5.73449 -10.9816 -4.36009
15.8094 -11.9478 -7.01908
19.0513 5.88397 -7.01416
2.10812 20.5719 -7.25001
21.5595 26.0629 -11.7524
-14.9191 18.4172 -8.13757
2.96881 -13.3289 -4.70046
-8.91116 16.0991 -6.29036
18.4411 -13.0616 -7.74595
-5.0479 14.5066 -5.22476
1.36182 -22.2874 -7.39921
1.75824 19.5907 -6.49634
1.44823 -10.3205 -3.4443
38.9659 -19.9187 -14.3628
6.16547 -10.0418 -3.77207
17.5319 -12.3792 -6.87453
2.11638 20.6478 -6.60421
-13.3864 17.8724 -7.04245
1.4539 -22.7843 -7.11332
-4.30999 14.7577 -4.77939
-10.9768 16.633 -6.04181
-2.76709 -28.1515 -8.59302
3.06258 -9.46484 -3.02352
0.795728 -24.3523 -7.32712
19.0782 -13.5417 -6.94284
17.574 5.55969 -5.40802
-7.90387 15.3026 -5.01605
4.22512 -10.4849 -3.28561
3.61773 -10.5602 -3.17733
4.23747 -10.9357 -3.29255
-13.343 17.8356 -6.19799
-9.30691 15.9113 -5.01669
-13.262 1.98802 -3.67713
-16.9658 19.493 -7.01886
26.2191 -17.2606 -8.50657
-3.94574 -28.1304 -7.61759
3.78081 -9.14056 -2.64676
-9.82115 16.3273 -5.07357
47.04 -13.7348 -12.9953
10.5226 -9.3851 -3.73254
-6.4608 14.9613 -4.25929
-14.4509 18.1188 -6.08349
-8.06302 -38.145 -10.1546
4.95366 -9.56291 -2.78789
6.55191 -10.4859 -3.19018
-7.22551 15.337 -4.31161
-10.5775 16.4759 -5.00455
-9.97221 -39.5155 -10.1341
-9.11601 -39.3514 -9.86269
10.9295 -9.63471 -3.58292
-7.9839 15.4969 -4.22908
-11.7539 17.0851 -5.02182
14.5889 7.70629 -3.91565
4.04295 -9.2442 -2.38816
15.1918 7.52364 -3.99481
3.74357 -8.90116 -2.27013
-6.56731 -32.7173 -7.72659
5.61989 -9.87324 -2.63337
44.5506 -10.7811 -10.6542
-12.8399 17.4905 -4.99609
14.8452 7.6027 -3.77305
43.5983 -9.4314 -10.1054
-9.81281 16.3465 -4.26914
3.71003 -9.24193 -2.16689
42.7658 -10.9709 -9.63678
15.1033 7.49269 -3.61001
-10.6639 16.6471 -4.23619
-22.0541 -34.671 -8.82733
4.81499 -9.7391 -2.34411
44.8409 -10.4993 -9.85405
-14.8276 18.3713 -4.9685
-32.3721 -23.8935 -8.52801
41.5087 -13.8887 -9.26067
14.829 7.83592 -3.49749
-35.6637 24.1176 -8.80455
-8.43499 -34.5002 -7.1917
3.94546 -11.4877 -2.44199
44.3727 -9.57364 -9.23335
11.7636 -9.73738 -3.06279
42.7874 -11.0148 -8.80494
-27.0869 20.4404 -6.7364
6.13506 -10.2687 -2.38181
45.7219 -10.6918 -9.17151
-12.8285 17.5041 -4.19526
-26.9647 21.1319 -6.65795
16.016 12.1146 -3.83781
-6.90306 15.1972 -3.20587
-33.2793 -24.0712 -7.86135
-31.7783 -24.8846 -7.75651
-35.891 23.9162 -8.12243
-33.7852 -22.2869 -7.6484
17.9927 5.65678 -3.52011
-34.3104 -20.7019 -7.48339
-15.2002 -43.8231 -8.64041
3.7658 -9.80876 -1.97859
-24.8917 -61.9701 -12.4193
-16.9602 -45.6904 -8.91387
3.97126 -9.62563 -1.8784
13.0515 -10.1984 -2.98737
45.2086 -10.0601 -8.31971
-14.7902 18.3439 -4.21149
-27.1177 21.2687 -6.08527
15.0653 7.97481 -2.96862
-30.4436 -26.5294 -7.03817
42.6472 -10.9239 -7.55898
-7.96035 15.3357 -2.92822
-9.78833 18.0276 -3.46673
44.4843 -10.4716 -7.72836
-30.8972 22.5055 -6.43601
-30.4114 -23.3968 -6.41301
-20.8951 19.9791 -4.81052
-32.5257 22.9705 -6.64351
15.8958 -11.8604 -3.25041
-10.3687 16.462 -3.09619
-43.6681 25.6957 -8.03891
-31.7979 -23.8878 -6.36686
-33.6488 -23.2098 -6.43805
3.42961 -9.48538 -1.57759
-23.8752 20.3952 -4.84996
16.8844 -11.9362 -3.20331
-11.2111 16.7793 -3.06679
45.8572 -10.7472 -7.14933
-23.1682 -53.6904 -8.83538
-29.6458 22.2336 -5.54132
-38.6338 24.089 -6.75816
-31.8227 -24.702 -6.01001
44.4873 -9.53333 -6.77494
-33.9341 -24.5415 -6.119
-50.3526 28.1139 -8.29249
-35.748 -23.8444 -6.18523
6.72038 -12.8968 -2.11208
-36.422 -21.1687 -5.96196
-6.97434 15.3774 -2.34613
-13.1672 17.775 -3.07853
-32.3582 23.2965 -5.57353
-24.951 -55.5668 -8.3989
-16.3395 -47.7658 -6.94242
36.5864 -12.1672 -5.28832
-23.2883 20.4647 -4.12556
-32.4553 -24.3054 -5.29364
-30.8075 -25.2735 -5.26832
-34.0963 -23.4823 -5.30308
7.43985 -9.42342 -1.55266
42.7004 -10.9303 -5.65621
-33.7156 22.9427 -5.18512
-29.9144 -15.9626 -4.32208
6.03772 -7.81924 -1.26198
44.6269 -10.4891 -5.81244
-31.274 22.9846 -4.84337
14.4862 -11.286 -2.25639
-30.1902 22.7384 -4.57237
-32.8066 23.1912 -4.83741
-10.4023 16.5448 -2.25858
-31.686 -22.789 -4.5919
12.9773 -10.496 -1.95406
35.6964 -11.7956 -4.35055
6.33737 -10.3347 -1.39363
11.1837 -9.69141 -1.66752
16.4195 -12.225 -2.30708
-11.1162 16.6684 -2.21892
6.74998 -12.5768 -1.56446
11.5904 -9.6791 -1.67246
42.5404 -10.9086 -4.82196
-39.3129 24.512 -4.97235
44.6874 -10.4421 -4.94154
14.8966 -11.4389 -1.99844
-13.0165 17.5856 -2.24763
14.7512 7.80761 -1.6677
13.9878 -11.0346 -1.77996
-14.0725 17.9982 -2.21623
6.39262 -12.2507 -1.33047
9.39762 -8.91401 -1.25208
16.9886 -12.4222 -2.05427
-29.0064 -13.8608 -3.02846
-15.0551 18.4357 -2.21905
-37.7139 -73.4735 -7.68763
-34.1617 -21.3766 -3.56829
16.1131 -12.074 -1.81217
38.3733 -12.7681 -3.61995
11.1027 -9.86941 -1.22779
42.9428 -10.9756 -3.69709
-16.3965 -42.668 -3.67167
-40.7811 -79.7421 -6.97715
17.586 -12.8149 -1.71879
-30.3938 23.0028 -2.9155
7.44157 -9.16672 -0.914043
-33.093 23.4255 -3.01182
-16.7794 -41.5093 -3.34628
-37.4381 -70.4493 -5.67402
-36.3472 -72.7978 -5.57438
12.5583 -10.4512 -1.09991
17.0422 -12.4126 -1.42549
-39.7692 24.7575 -3.06283
43.1952 -11.0589 -2.92716
-28.802 -13.5435 -1.90602
-41.1453 -79.491 -5.42121
14.4899 -11.2962 -1.10726
31.0361 -20.4451 -2.03141
31.0113 -19.5452 -2.00408
15.3221 7.56726 -0.886505
14.7618 7.8276 -0.858934
-12.9412 17.66 -1.11101
-25.0661 -55.3138 -3.12057
-43.1461 -81.3162 -4.49611
9.64839 -9.0869 -0.663025
13.435 -10.6842 -0.843267
15.9377 10.1389 -0.892203
16.2305 11.3761 -0.922621
6.81944 -12.5074 -0.677616
-20.0969 -5.92997 -0.899584
-30.2973 -53.9929 -2.73217
10.214 -13.7894 -0.701587
18.0202 -12.9951 -0.908187
42.4213 -10.836 -1.74259
-9.41282 -12.4496 -0.602112
43.9357 -10.2882 -1.77462
22.0624 26.5237 -1.17638
-32.989 22.551 -1.38472
-36.7315 -20.5975 -1.37095
-18.4718 -46.0359 -1.59431
16.4552 -12.2764 -0.670034
14.3703 3.89246 -0.439011
-26.3551 -60.5613 -1.98119
-22.9711 20.4624 -0.878605
-12.4875 -37.8655 -1.0726
42.836 -9.0996 -1.22475
-42.458 26.4089 -1.35145
-55.0348 19.7896 -1.40072
43.5139 -10.1043 -0.961033
-31.2819 23.641 -0.783379
-30.6294 9.74231 -0.671788
30.9876 54.2542 -1.14755
-30.5317 22.5332 -0.726443
12.9556 -10.6155 -0.290315
-34.8862 -21.7106 -0.63697
-31.1359 -62.618 -1.04171
17.4581 -12.5904 -0.312871
-12.763 -38.5855 -0.525022
-14.3544 18.2221 -0.2362
-20.3651 -46.8035 -0.555362
30.1394 -18.8773 -0.320977
-22.9608 20.486 -0.208422
-9.95055 -12.7712 -0.0489541
7.00851 -11.6909 -0.0236213
14.5887 7.62908 0.000676764
-35.9071 -22.1725 0.224857
-24.1526 -41.2804 0.351916
-54.2061 29.6945 0.632746
6.67914 -11.8507 0.14091
7.99937 -9.09522 0.121048
-41.5294 -22.0793 0.51704
-11.5991 -32.8477 0.388001
11.0871 -9.66473 0.19282
-23.3464 19.9482 0.40481
-12.4512 -19.3185 0.334003
-31.5387 22.4427 0.690344
-35.5696 -23.8465 0.766369
-35.0779 -25.9137 0.760907
10.6215 -9.54511 0.233016
7.78119 -9.59149 0.265418
7.88775 -9.2064 0.261606
-72.2738 25.0265 1.789
18.0597 -13.1096 0.543362
-28.9126 -8.68615 0.808227
-28.2862 22.1819 1.03638
11.5668 -9.90996 0.41546
17.2329 -7.46995 0.534841
-25.2714 21.4331 0.98753
-7.92818 -9.29705 0.388942
12.6437 13.7467 0.664479
6.12747 -12.6251 0.493837
8.89887 -8.75669 0.426657
24.4561 -4.33368 0.830756
18.4138 17.5848 0.919707
13.7212 23.753 1.03198
-57.6818 18.9598 2.187
24.2652 -4.7137 0.93654
-25.7429 21.0289 1.25754
9.36675 -8.91079 0.499862
22.3032 -3.07272 0.850647
12.1472 14.0691 0.761215
14.6624 18.9455 0.981414
6.50206 -12.3279 0.572181
17.6048 40.6898 1.85164
7.63416 -11.001 0.564537
-7.5719 -7.45359 0.469571
-8.31129 -11.4989 0.63401
-29.8053 -11.799 1.52696
16.3085 10.5871 0.969268
-7.74877 -7.20989 0.507041
15.1354 23.5142 1.44538
-6.97506 -8.21112 0.592382
14.4249 19.7529 1.34076
-26.3823 20.3151 1.84227
14.2673 23.2354 1.5793
-7.14899 -9.21558 0.666601
6.79574 -13.467 0.865999
9.84351 12.3818 0.936544
14.5797 19.371 1.52043
14.8283 26.3906 1.8644
10.1616 28.4977 1.92472
-7.33181 -10.0071 0.793701
9.38126 21.379 1.56749
11.3642 9.99642 1.07908
11.3857 12.0401 1.17009
13.5972 15.7119 1.48734
8.16401 -12.5847 1.05908
10.7101 8.94022 1.02675
12.798 14.3542 1.43932
-14.4603 8.52746 1.27008
-11.1716 2.10456 0.860399
12.3293 16.0493 1.57101
11.4649 18.2716 1.67555
10.0727 -6.89326 0.953117
-7.69716 -8.14251 0.896518
12.6702 11.4692 1.39433
11.7766 11.521 1.36791
-7.02661 -6.18238 0.760708
-7.07968 -6.92281 0.821503
11.3879 11.8872 1.41983
10.5756 9.31607 1.28149
-11.4467 2.93109 1.08633
-7.64476 -7.12043 0.938751
11.573 8.92986 1.39997
9.13745 12.9213 1.51997
7.11934 13.0999 1.46158
8.34216 12.9704 1.54682
-6.76336 -6.73966 0.949258
7.84957 -6.52478 0.999155
9.6044 12.0298 1.54308
9.86734 10.0796 1.45709
-6.89979 -5.41631 0.913036
9.55283 9.09652 1.40652
8.12864 11.0514 1.43831
6.69028 12.9726 1.55536
9.53114 8.31697 1.33923
9.11602 10.1533 1.48671
5.62741 12.3959 1.4739
-6.40678 -7.54537 1.06983
6.62641 11.278 1.43943
5.18098 12.9816 1.54226
-6.84161 -3.99024 0.874866
-6.71425 -6.09372 0.99919
3.91506 -7.75903 0.962202
5.43335 -6.08725 0.916838
9.30161 7.48803 1.34232
8.99974 9.57766 1.48229
7.85265 11.1846 1.5279
6.71677 10.6002 1.43126
-6.89539 -4.58009 0.939062
4.7004 -7.66917 1.03942
-10.6926 7.16806 1.49474
-7.10487 -2.13763 0.863726
8.96341 6.05508 1.28714
5.82764 11.894 1.56551
4.92238 11.3834 1.46292
4.76745 -5.85579 0.888861
4.10669 -7.87391 1.07992
8.30131 3.84499 1.1469
10.9015 5.43749 1.49747
4.50099 12.523 1.65656
-6.17235 -5.4003 1.00613
-9.16963 1.30707 1.1549
8.2035 7.50295 1.40722
-6.45212 -5.33245 1.05897
7.73677 8.12599 1.44269
-6.9022 -3.58094 1.00712
4.96184 -5.95896 1.00119
5.01732 -5.42066 0.963167
8.34959 6.86961 1.43247
7.88816 7.79998 1.47615
-7.21966 -1.72786 1.00059
-7.04669 -2.21436 0.990129
-6.50046 -4.38294 1.04179
4.82406 -6.08086 1.033
8.33643 6.31808 1.42293
-6.86551 -4.22769 1.0867
-6.06171 -4.45407 1.01194
4.94395 -5.53112 1.01878
7.39924 -3.51443 1.14021
8.32214 4.22514 1.32583
8.28448 4.55237 1.34148
-6.95519 -2.91355 1.07856
7.46621 -3.72641 1.19162
7.0069 -3.0508 1.07814
4.93483 -5.78159 1.09733
8.17474 -1.72976 1.2102
-6.97461 -3.26501 1.14252
7.34642 5.53568 1.38174
5.70929 7.37118 1.4084
7.94756 3.89436 1.35248
7.86827 4.17273 1.35425
5.38859 7.73767 1.43371
5.03098 8.59376 1.5047
3.45497 9.45044 1.51808
-7.02389 -2.83306 1.155
7.66663 -2.78906 1.24975
7.83033 -2.2315 1.25662
7.78025 -2.01281 1.24188
7.42645 4.1829 1.37453
7.03043 4.72735 1.39229
6.70507 4.88694 1.37976
5.34553 6.40572 1.38855
-7.22356 -1.36417 1.21762
4.9503 7.26979 1.468
4.68431 7.16946 1.43776
-7.2388 -0.806366 1.22005
2.86599 -5.92987 1.11038
6.66738 4.06854 1.33465
6.46975 5.19701 1.40942
3.79674 7.85739 1.4647
-6.3927 -2.30562 1.15336
-6.29829 -2.68754 1.16822
3.77176 -5.23945 1.09924
-6.99034 -1.80012 1.26182
4.23422 -4.641 1.10413
6.6371 3.49494 1.35478
5.02859 5.56211 1.37049
3.63181 -5.35998 1.17915
3.33076 6.67882 1.39148
6.47133 3.03666 1.35817
6.40579 2.70484 1.32767
-1.6502 -5.71138 1.1414
-2.17251 -5.76753 1.20177
6.23362 2.36991 1.33312
3.93858 -4.57989 1.20158
-3.00275 5.60604 1.35687
-3.62645 5.21701 1.38548
4.20874 -2.92763 1.20519
-4.28208 3.9332 1.41733
4.587 -2.18724 1.23346
4.47853 -1.26926 1.15753
3.70927 -2.93601 1.23242
3.67916 -2.58504 1.19305
3.42595 -2.97868 1.2253
-2.32063 -3.61599 1.20711
-2.49868 -2.92652 1.19735
1.87309 -2.49271 1.1321
1.93469 -2.65076 1.19678
-2.04242 2.80364 1.31514
-2.07123 -1.46359 1.19718
-1.82409 -1.83007 1.30243
-1.97574 -1.17162 1.2097
9.65797 -9.0342 -9.36142
9.22142 -8.90836 -7.64106
2.44663 -20.0704 -10.7376
3.66896 -9.2925 -4.50516
26.3842 32.778 -14.129
2.07071 20.5037 -6.10959
-22.556 -31.4194 -7.22145
9.49432 -8.75953 -1.61491
8.74578 -8.61761 -1.23123
8.8957 -8.77386 -0.926319
19.0943 -13.5197 -1.27958
43.2128 -11.6068 -2.31692
-31.6152 -13.371 0.346354
10.0265 6.90072 1.29252
-3.50079 5.32694 1.36984
7.96769 -8.22593 -10.2744
7.8288 -8.25201 -10.014
8.35895 -8.44881 -9.84337
6.82543 -11.7852 -11.1899
7.95899 -8.21875 -9.05088
7.99879 -8.69719 -9.08151
6.204 -14.1269 -11.6094
5.85462 -14.1472 -11.2119
9.06706 -8.81445 -9.27111
7.61505 -9.19113 -8.65156
7.8434 -9.09462 -8.58631
7.20161 -10.6713 -9.16143
10.2049 -9.2904 -9.67484
6.41235 -11.053 -8.73163
8.15487 -9.05534 -8.17221
7.32342 -9.30869 -7.90619
7.94395 -9.1858 -7.98497
5.02526 -15.9425 -10.7838
-0.523436 14.3499 -9.21691
7.28891 -10.7676 -8.34168
7.59472 -9.11977 -7.5941
10.9719 -9.79037 -9.33643
7.03998 -10.9035 -8.09022
8.17783 -8.58519 -7.36653
0.112484 14.3604 -8.75126
7.74974 -8.71623 -7.02752
11.4644 -9.73308 -9.07571
8.9634 -8.89217 -7.46237
6.56511 -12.8211 -8.49801
5.50594 -13.9601 -8.81984
7.03792 -11.075 -7.5329
5.10663 -12.8232 -7.75122
3.16017 -19.3097 -10.9717
6.60087 -11.0778 -7.22657
7.8415 -9.0389 -6.71079
12.1619 -10.1873 -8.87258
9.68326 -9.48601 -7.43388
13.2472 -10.6199 -9.15873
15.0451 10.3045 -9.79668
15.0221 7.38087 -8.94405
13.8467 7.63421 -8.36254
11.3938 -9.83291 -7.73368
-0.0632123 15.1847 -7.68054
2.36453 -19.4854 -9.91582
10.6578 -9.55454 -7.20143
7.33398 -9.26321 -5.92776
14.0879 -11.174 -9.05481
18.0134 -12.8806 -10.7749
18.5897 5.73995 -9.45311
2.66126 -19.5458 -9.57992
12.8314 -10.6005 -8.04791
15.3724 -11.7042 -9.37353
7.29207 -10.75 -6.25679
14.9886 7.34738 -7.76831
7.07927 -10.8907 -6.05472
6.21468 -10.6158 -5.69752
9.99362 -2.50768 -4.73698
17.3425 -12.6718 -9.86978
-11.8074 16.9492 -9.41524
3.53995 -9.02895 -4.39376
-10.2314 16.7273 -8.81198
15.9709 7.2235 -7.84333
-11.2582 17.1282 -8.84014
-7.05778 6.84519 -4.23449
-6.47664 6.4606 -3.89415
1.19781 -15.4451 -6.58558
19.9202 20.6381 -12.0377
16.1979 -12.2421 -8.53801
15.1426 7.44157 -7.05073
-10.0731 -1.09922 -4.20786
19.8978 21.6592 -12.077
14.0834 7.78147 -6.54917
16.3873 7.38103 -7.22046
14.9911 7.71392 -6.76281
1.487 -17.9142 -7.01993
18.6509 5.75472 -7.55419
19.422 21.6737 -11.2559
0.7693 16.2826 -6.26271
-9.24071 -1.34022 -3.6177
0.710192 -24.1455 -9.18744
16.8852 -12.4894 -7.85661
14.1448 7.89845 -5.85641
0.536827 -22.6171 -7.9739
-4.06181 13.6602 -5.00131
-10.6184 16.319 -6.81459
-0.862734 -22.868 -8.04471
-15.0287 18.5461 -8.25568
-8.91717 16.1083 -6.31855
-5.03077 14.3307 -5.12053
1.27378 17.6277 -5.88913
-5.35461 14.2678 -5.02426
38.4861 -19.7748 -14.2857
12.4647 -10.3104 -5.2135
8.01155 -9.17893 -3.90395
7.39636 -8.78522 -3.55516
-4.24514 14.2897 -4.486
11.5263 -9.77583 -4.56221
15.094 9.50021 -5.10758
13.6398 -10.6506 -4.96589
-5.51672 14.7081 -4.42165
-13.4651 18.0712 -6.35983
15.6537 10.5808 -5.20406
-9.62959 16.182 -5.0046
-27.1362 21.0172 -8.963
-23.9111 20.086 -8.07812
-7.15256 15.1832 -4.29167
-7.94577 15.4171 -4.22959
-26.1005 20.5976 -8.10224
-3.29797 13.4937 -3.3265
-11.7518 17.0509 -4.94928
3.10417 -9.53369 -2.37138
14.753 7.86971 -3.94703
-33.4225 -26.2385 -9.96434
5.38875 -11.6193 -3.01799
49.2433 -11.8767 -11.7733
-7.26593 -35.5403 -8.33603
-9.74813 16.3489 -4.35121
15.0547 7.37674 -3.79784
-30.1984 21.9554 -8.28855
-12.3586 -44.2283 -10.0855
3.72207 -9.40392 -2.22771
42.4469 -10.7553 -9.46002
-34.9215 -22.9361 -8.90494
-14.8153 18.384 -4.90309
14.6313 7.81465 -3.44499
-32.0277 -24.235 -8.26804
9.28799 -9.19467 -2.71058
43.1711 -10.9751 -9.13794
45.8998 -9.73425 -9.47001
-28.5558 21.4328 -7.04225
-21.2372 -34.5211 -7.96782
-33.2685 -24.036 -7.76018
-34.725 -22.9138 -7.7695
-14.7969 18.3939 -4.28747
15.307 7.50552 -3.0037
-5.28049 14.0904 -2.64799
-18.5939 19.8953 -4.81439
-22.0714 -52.5521 -9.93895
-22.4902 -36.2806 -7.36645
-34.0278 23.0534 -6.97184
9.12043 -8.97055 -2.17127
-31.213 22.7369 -6.28455
-32.1363 -24.1457 -6.41911
-20.3109 -54.0564 -9.2227
42.5305 -10.7984 -6.99977
-44.6159 26.3515 -8.16523
-37.1551 -23.2615 -6.79761
6.43403 -10.8594 -1.97215
-29.3011 -26.1194 -5.93045
-30.6738 -25.1678 -5.94739
-20.3841 -50.22 -8.05142
6.47177 -12.3955 -2.08852
-33.1855 -23.8665 -5.85066
-31.1728 -24.5394 -5.63007
-32.2956 23.1216 -5.55504
-13.0592 17.6313 -2.98648
-32.9403 -24.6269 -5.56899
-30.2846 -26.0545 -5.42293
-31.8608 -19.8145 -4.92685
-33.8272 -23.3174 -5.4195
-33.5318 22.7435 -5.10568
-30.6685 22.8258 -4.67494
-40.8437 24.1251 -5.83056
12.942 -10.4641 -1.95196
9.7011 -9.08303 -1.52852
10.5435 -9.22433 -1.54328
-13.0979 17.709 -2.32011
15.0935 -11.6066 -2.03291
-31.0062 -24.5211 -4.00897
45.7427 -9.72175 -4.67513
17.1127 -12.4863 -2.08574
42.2465 -11.3546 -4.12581
-33.8464 -69.4338 -6.85123
-23.3878 20.4637 -2.72293
-29.012 -13.02 -2.76301
6.94317 -10.6721 -1.11841
17.0282 -12.3042 -1.81969
-29.4021 -26.2334 -3.32463
9.84067 -8.93501 -1.09735
13.7092 -10.9 -1.40964
-34.422 23.3365 -3.18038
-30.0555 22.5193 -2.77784
16.7329 -12.2056 -1.51391
-17.4939 -42.8934 -3.32245
7.34192 -9.10856 -0.853221
-25.9345 -59.5255 -4.47025
9.56699 -9.01187 -0.872461
9.71393 -4.73041 -0.681723
11.302 -9.79187 -0.942108
-14.9794 -41.1273 -2.5772
15.2067 7.46942 -0.927866
14.6426 7.83982 -0.903121
11.7784 -10.0007 -0.798005
16.8794 -12.642 -1.00863
-12.5829 17.2364 -1.02675
-36.7027 -65.578 -3.61091
-27.2238 -54.5054 -2.92121
-35.1362 -19.8265 -1.35707
-18.2464 -45.1602 -1.62535
-25.2587 -58.4145 -1.84278
-22.3195 -60.2036 -1.8639
15.4186 13.4521 -0.394807
11.5328 11.2203 -0.301692
23.6685 28.9001 -0.636832
13.2239 -10.8812 -0.316042
-22.1277 -48.5946 -0.877488
-19.5373 5.66268 -0.106588
-35.0062 -67.1906 -0.40728
29.7399 -18.7599 -0.233772
18.5768 -12.9088 -0.0243764
14.7797 7.64771 0.0338968
-31.6498 -13.278 0.239054
6.51149 -12.1657 0.157734
11.3742 -9.93912 0.165077
-12.3192 -19.0261 0.299719
25.9824 -5.0428 0.750416
21.4139 43.8748 1.53296
-7.86203 -9.27649 0.420389
-30.7052 -14.6383 1.28066
16.0059 28.8817 1.42733
-10.834 -16.9221 0.848467
14.7151 19.5282 1.12033
18.6816 36.512 1.85499
16.6032 31.8333 1.68419
6.55088 -12.4038 0.661883
-6.96945 -8.47023 0.563445
15.431 25.5222 1.59587
6.29076 -13.7023 0.781669
-6.74391 -4.55296 0.481544
-11.6435 -8.88848 0.866941
-7.54547 -10.4183 0.855721
10.9436 9.06645 1.01172
6.23592 -12.9356 1.00892
-7.17115 -6.35396 0.68269
7.06462 -10.8003 0.919429
12.8227 20.0112 1.82213
-15.0518 8.41314 1.32657
10.9834 -4.91276 0.914894
9.45532 -8.87396 1.03527
10.3558 12.4649 1.46161
6.50465 -6.18901 0.831773
10.9858 9.0794 1.33947
6.42244 13.3642 1.41429
4.55816 12.6122 1.31037
9.70024 12.1787 1.56658
7.60233 10.4067 1.34411
6.57961 12.7511 1.5281
8.20693 -6.62408 1.10879
10.0923 9.54455 1.4847
7.09056 10.6976 1.3819
8.76185 9.31043 1.44602
4.73965 -5.8515 0.848221
9.87976 5.44871 1.28894
6.99882 11.116 1.5317
5.90241 10.602 1.43777
-7.02993 -2.09837 0.852251
8.43835 8.57465 1.42665
-7.19755 -0.81839 0.867379
-6.88294 -3.96764 0.944768
4.40303 12.16 1.57436
-7.03417 -2.33342 0.893476
-7.46209 -0.987523 0.926533
-9.17853 1.34252 1.16019
8.31316 7.58935 1.42973
4.84055 -5.26524 0.934229
7.73482 8.16686 1.48005
-7.26838 -4.51266 1.15499
7.26139 -3.86895 1.14142
7.46186 -3.53843 1.15184
7.46534 -3.26956 1.13835
8.13197 4.13628 1.30393
7.41949 -3.70448 1.18454
8.32371 4.57297 1.35986
7.70423 -3.01894 1.20057
7.92069 -1.91928 1.17218
5.68696 7.35168 1.40204
5.20462 -5.60948 1.17203
-7.14624 -1.83031 1.15576
-7.18935 -1.3309 1.16328
5.2823 6.34699 1.36758
-6.4165 -2.31646 1.13912
6.80941 4.18427 1.3599
-7.33951 -0.957697 1.25572
2.98563 -6.16953 1.15372
-6.96871 -1.76888 1.26416
3.99856 -5.1114 1.12919
4.70501 -4.47715 1.151
3.54877 -5.2315 1.16059
5.00432 5.53835 1.36389
-7.25426 -1.1585 1.34131
3.84554 -5.22312 1.20809
-7.06004 -0.809971 1.34862
6.32199 2.82827 1.33257
3.69359 -4.57321 1.13601
-2.25038 -5.3778 1.17132
4.94043 -6.43512 1.59823
3.81204 -4.42174 1.15546
4.15923 -4.32848 1.22948
-6.41868 1.48077 1.36748
-2.89587 4.84824 1.18542
-1.34195 -4.98754 1.14509
4.03836 -3.76019 1.22225
4.46327 -2.75766 1.21378
