ply
format ascii 1.0 
element vertex 1880
comment /media/mkaihara/Seagate Backup Plus Drive/model_iterations/model_100.ply
property float32 x 
property float32 y 
property float32 z 
end_header 
4.87815 -5.94915 0.939045
5.96587 -6.1208 1.0407
9.31964 5.59003 1.34346
8.40429 7.17503 1.3663
-6.96317 -4.31846 1.00967
-6.8944 -4.54331 1.01796
8.1914 8.5153 1.46591
4.96088 11.1564 1.51593
-6.56257 -5.62835 1.07623
3.70555 -7.56783 1.05014
8.44103 7.68615 1.4285
6.07054 -5.61061 1.0364
9.11209 6.02486 1.38435
-6.14482 -5.42215 1.03438
8.49514 6.57186 1.36972
8.03073 7.45617 1.39401
-7.11499 -1.78642 0.938761
-7.02672 -2.31035 0.945114
-6.45701 -5.32827 1.06841
8.77918 5.62839 1.33694
8.09296 7.98424 1.46525
-7.27908 -1.25591 0.947687
-6.91037 -4.12641 1.04093
7.38706 6.18373 1.24774
8.0244 6.99389 1.38029
7.90757 8.06272 1.46342
-6.92265 -2.83124 0.974154
-6.92391 -2.97137 0.974525
4.49542 9.95488 1.43529
8.95491 4.09134 1.29592
-7.26243 -1.60941 0.978063
6.82975 -4.25304 1.06931
4.92582 -5.94073 1.02318
-7.34886 -1.11953 0.995566
-7.02714 -2.20339 0.985614
-7.06439 -2.27279 0.991907
-6.00311 -4.40424 0.995392
5.18296 -6.55792 1.11404
6.9002 -4.16991 1.08541
8.01787 7.12081 1.45272
-7.16524 -1.72156 0.99121
-7.09595 -1.95938 0.9906
8.74844 4.82985 1.35728
8.28351 5.83897 1.37794
-6.93335 -3.62549 1.06656
8.82488 4.14175 1.33714
3.29315 10.3494 1.48647
-7.32807 -1.20244 1.01709
-6.01842 -4.44761 1.0296
-5.9989 -4.54657 1.03084
7.13682 -3.92803 1.11969
8.02119 6.44508 1.42308
5.30253 8.96215 1.44186
-6.39212 -4.32816 1.05868
4.93139 -5.5241 1.0287
7.1743 -3.82387 1.13146
7.5465 -3.67993 1.16172
3.56886 9.90022 1.46508
3.38206 10.1759 1.49463
-7.38493 -1.08442 1.04261
-7.08668 -2.00747 1.02694
4.97095 -5.28619 1.01439
7.23572 -3.73193 1.14378
7.35149 -3.66649 1.16517
7.85798 -3.35034 1.21442
-7.16816 -1.87822 1.05438
-7.02021 -2.95094 1.10405
-6.01622 -4.37948 1.07064
7.89234 -2.77776 1.22418
8.19402 4.59902 1.37671
4.94648 8.47359 1.4379
8.3311 4.48633 1.39847
7.81807 -2.33706 1.20286
7.10824 5.65852 1.36054
2.92035 9.32076 1.46001
-7.10662 -2.02313 1.10795
7.47386 -3.10554 1.22011
8.19099 4.52678 1.4186
5.74475 7.38807 1.42104
5.25102 7.57536 1.40445
5.08553 7.87901 1.42432
5.03833 7.98518 1.42889
7.32495 -3.16598 1.21881
7.66872 -2.7523 1.24074
-6.76736 -1.68558 1.05104
7.82 -2.25346 1.24799
7.19945 5.39949 1.38187
-7.11623 -1.9559 1.14582
-6.93136 -2.7905 1.16187
6.78094 5.50013 1.36951
-7.37058 -1.09799 1.16456
-7.15733 -1.82748 1.15749
-7.05886 -2.07112 1.15321
-7.13384 -1.87586 1.15813
-6.90634 -2.93906 1.17881
4.77471 7.40333 1.40091
3.44718 -6.03346 1.10956
-7.29025 -1.302 1.18697
3.52924 -5.70953 1.08129
3.56621 -5.61501 1.0707
7.04897 4.75146 1.38523
4.62951 7.32706 1.41044
-7.08371 -2.0271 1.20138
-7.10592 -1.95046 1.20976
6.94458 4.8122 1.3973
3.78656 7.86613 1.44513
6.0507 -3.31789 1.14951
6.61352 4.85844 1.36826
4.63292 7.1206 1.41694
3.83748 -5.302 1.10001
7.08633 4.4127 1.40561
7.46024 2.85265 1.34981
6.29964 5.26622 1.39161
-7.2939 -1.25827 1.26109
6.73694 4.07311 1.35201
-6.45992 -2.77586 1.20025
5.50857 -3.62907 1.13313
5.68946 -3.51775 1.14844
2.72932 7.77761 1.42467
-7.38835 -1.04175 1.29424
5.33316 -3.78296 1.13975
-6.31974 -2.26282 1.16458
-6.27988 -2.42002 1.17899
4.28199 -4.66557 1.10735
4.49465 -4.4778 1.11288
4.59218 -4.44947 1.12173
-6.81287 -1.73558 1.23909
4.31013 6.4663 1.38613
-7.17442 -0.930193 1.29385
-6.15219 -2.26071 1.16809
6.6257 3.68428 1.359
6.08497 4.35105 1.35684
3.6102 -5.32962 1.17062
5.12875 5.66425 1.39757
2.4952 7.13964 1.42031
6.47408 3.047 1.35287
-1.70539 -5.77945 1.14087
6.42312 -1.38525 1.24668
6.26382 2.77375 1.3189
6.21027 2.37839 1.32676
-4.47411 3.95942 1.40573
4.31669 3.52745 1.33326
4.20316 3.28598 1.32067
4.66488 -1.67762 1.24471
4.81791 -1.3807 1.2537
-2.16093 4.84353 1.32641
3.72907 -2.95457 1.22297
3.67511 -2.55089 1.19417
3.4091 -2.96382 1.22657
3.99668 2.5645 1.32689
-2.59254 -3.53175 1.25052
-2.32379 -3.56733 1.21568
3.74869 2.05437 1.29945
3.72559 1.97695 1.29896
-2.85592 3.50279 1.39542
-2.29402 -2.41698 1.18682
1.95925 -2.7863 1.21491
-2.13101 2.77816 1.33123
-2.0355 2.76611 1.33738
2.25404 -1.87227 1.22682
2.38305 -1.49995 1.22356
-2.01986 1.88152 1.3003
-2.06233 -1.44167 1.22808
1.45284 -2.07429 1.24785
-1.9905 -1.08682 1.21429
-1.92331 -0.707126 1.22009
-1.92508 -0.702933 1.24569
-1.95466 -0.344132 1.22939
-1.89143 -0.564279 1.23011
-1.89107 -0.530515 1.23522
8.20245 -8.68101 -7.44976
12.0708 -10.2409 -8.76083
-8.88972 15.8718 -7.06079
20.235 24.6396 -11.4515
-8.82822 -2.52824 -2.58767
-35.034 -23.4028 -7.78247
-34.614 -22.6366 -6.10209
-34.3457 -23.3408 -6.16643
-31.6278 -20.2841 -2.82539
9.25248 -8.81274 -0.390528
-7.87821 16.9816 -0.461819
-29.7869 -11.5265 0.736074
-6.93732 -8.29126 0.461878
16.3723 23.5097 1.55671
11.2328 15.7974 1.60331
-6.7082 -6.68117 0.885492
4.1576 12.0635 1.47017
8.66138 9.02203 1.46288
7.96287 -8.75371 -10.3675
8.82041 -8.5286 -10.4839
6.94871 -11.9239 -11.5015
6.86463 -11.3379 -10.8842
8.14266 -8.25493 -9.52153
7.01453 -12.0172 -11.3153
7.05797 -10.961 -10.445
7.99248 -8.36769 -9.193
6.71999 -11.2727 -10.2782
6.43816 -11.6852 -10.2029
7.74836 -8.84053 -8.96209
6.1983 -14.3015 -11.7961
8.28775 -8.68972 -9.08977
6.29307 -11.8972 -10.1655
6.14132 -12.077 -10.1037
7.48177 -9.43362 -8.99026
7.90028 -9.04578 -8.91683
10.4445 -9.42931 -10.4658
6.11497 -14.1038 -11.363
6.09768 -13.6619 -11.0002
6.12497 -12.5651 -10.2818
9.18037 -8.81046 -9.33452
9.26801 -9.05672 -9.45158
5.85895 -12.4938 -10.025
9.34384 -8.97363 -9.24598
6.85215 -11.1112 -9.26508
5.6102 -12.959 -9.99523
9.67186 -9.06241 -9.3935
7.59969 -9.33296 -8.4625
9.97583 -9.16716 -9.51849
10.8931 -9.47264 -10.1298
11.4116 -9.67408 -10.0475
8.37374 -8.59691 -7.94572
7.42159 -9.28743 -7.85546
8.15633 -8.70665 -7.88596
7.61819 -9.34009 -7.88589
7.82678 -9.39015 -7.83507
8.30947 -8.5241 -7.61007
0.362392 15.8809 -10.1345
7.51793 -9.31224 -7.61659
10.8842 -9.58397 -9.22119
7.21488 -10.686 -8.16098
8.14465 -8.48652 -7.41826
4.61009 -15.3994 -10.11
8.70274 -8.69009 -7.60946
7.91137 -9.02122 -7.40151
4.04598 -18.0134 -11.3729
8.18728 -8.61667 -7.26669
4.08537 -17.3093 -10.8524
0.148151 14.8875 -9.05819
6.6451 -11.2473 -7.95404
7.73311 -9.25693 -7.31896
10.1011 -9.29 -8.32765
6.81126 -11.2366 -7.88867
8.04953 -9.1921 -7.33459
11.2382 -9.6705 -8.86471
5.39489 -13.8437 -8.81244
7.725 -9.25444 -7.14932
9.33445 -9.01769 -7.69094
6.89242 -11.1 -7.73355
7.97276 -9.11604 -7.10645
9.7329 -9.16893 -7.79307
14.7816 7.38598 -9.59554
8.65316 -8.81674 -7.13862
6.92326 -10.9499 -7.44586
2.63785 -11.2048 -6.62065
7.84931 -9.05962 -6.86558
9.58521 -9.12131 -7.5165
10.7674 -9.4731 -8.09067
3.28046 -20.613 -11.7381
6.7924 -10.9688 -7.23319
10.0834 -9.27049 -7.67109
12.2986 -10.3196 -9.00376
9.22341 -8.99109 -7.19783
4.60975 -14.2765 -8.3644
7.99166 -9.20245 -6.76944
14.7033 7.5169 -9.06472
9.67717 -9.08812 -7.29131
0.838958 17.4592 -9.54421
2.743 -19.8757 -10.9405
11.1013 -9.62019 -7.9762
4.22572 -14.3983 -8.12334
14.6171 7.64383 -8.88374
14.9931 10.3513 -9.78077
13.9562 7.69915 -8.51542
10.9216 -9.59247 -7.73025
13.2147 -10.7614 -9.06615
3.04547 -19.3506 -10.2979
11.3236 -9.79728 -7.61937
2.16915 -20.3994 -10.3543
10.2341 -9.31752 -6.95996
14.2127 -11.2418 -9.09896
13.7487 -11.1205 -8.85307
10.9757 -9.62696 -7.27396
7.49578 -9.32205 -5.92408
3.56109 -8.4636 -4.52535
-8.72627 -1.91597 -4.39277
2.22546 -20.1928 -9.9639
4.5293 -9.29425 -5.05661
0.405742 13.6508 -6.68453
7.59471 -9.25426 -5.84213
-8.58476 16.3861 -8.9607
-9.22964 -2.43996 -4.60014
14.9253 -11.5259 -9.06288
19.2644 5.51188 -9.58166
-10.3507 -2.56268 -5.0438
1.90973 -20.5732 -9.82489
17.0681 16.0387 -11.091
7.56565 -11.1855 -6.37228
19.9096 5.3739 -9.7108
13.972 -11.0621 -8.28776
2.92375 -17.3065 -8.16184
19.2412 5.69298 -9.26916
17.7419 -12.9299 -10.1415
9.84041 -2.48551 -4.68928
20.1623 5.11032 -9.59593
17.191 16.165 -10.8719
1.81122 -20.2533 -9.30608
9.649 -9.02282 -6.04942
-9.23997 -1.67714 -4.28304
9.43022 -3.46022 -4.57485
6.69685 -11.2898 -5.97112
9.88748 -2.61159 -4.6384
19.1343 5.83459 -9.00512
17.5637 17.4206 -11.1189
9.34674 -3.07888 -4.42936
15.3513 -11.8127 -8.69324
7.01915 -11.5329 -6.03928
7.13497 -10.8922 -5.80434
9.53591 -3.39638 -4.51083
-10.1222 16.5929 -8.65454
17.5512 -12.8093 -9.65623
19.4189 5.594 -8.95633
16.0167 7.26477 -7.78711
17.6677 17.8446 -11.1038
16.3399 -12.1525 -8.97574
-11.406 17.3462 -9.12645
-6.6375 15.1721 -7.26232
-5.26178 4.93564 -3.14398
20.0111 5.43329 -9.01409
9.53489 -3.39667 -4.36811
18.0533 18.2972 -11.0459
15.741 -12.1137 -8.5476
14.7857 7.39262 -7.05416
3.83389 -9.29103 -4.27056
-11.3256 17.227 -8.7293
6.92764 -10.8806 -5.43939
-13.6672 3.34951 -5.92899
0.743379 -22.4432 -9.46285
15.7311 -11.9113 -8.25254
-5.19383 5.71976 -3.23315
0.999546 -22.3093 -9.36107
1.23137 -20.8002 -8.7293
14.0991 7.56156 -6.69076
18.3742 19.1474 -11.086
3.77878 -8.94567 -4.04985
14.6974 7.69083 -6.90392
17.7522 18.9587 -10.7765
-9.54503 -1.09548 -3.96621
4.00476 -8.49734 -3.84879
13.9661 7.71148 -6.54828
6.8271 -10.9603 -5.27953
-13.7036 2.55995 -5.70319
-8.07633 15.6485 -7.15744
19.0566 20.7062 -11.3986
14.9981 7.20644 -6.70346
-5.33878 14.5843 -6.22809
13.8899 -10.9813 -6.9357
1.52744 19.156 -7.46206
-8.87734 16.035 -7.1238
18.883 5.75861 -7.64846
-1.7628 13.3717 -5.22455
5.28717 -9.3791 -4.15235
-2.40052 13.6018 -5.30563
19.3682 22.4043 -11.3538
4.65574 -8.50688 -3.68296
19.3057 5.53837 -7.64202
0.879649 -26.6905 -10.1481
14.8324 -11.4299 -7.04761
19.8597 5.38034 -7.7003
9.42115 -3.43243 -3.74866
0.534917 -22.8281 -8.50873
3.24153 -10.772 -4.20305
19.9548 23.2147 -11.3662
0.910567 -8.73151 -3.25549
13.965 -11.0597 -6.5692
20.264 5.15391 -7.68735
17.718 17.5069 -9.10083
-13.1121 2.29715 -4.83992
20.5862 24.5823 -11.627
2.28231 -13.2346 -4.83875
12.981 -10.4976 -6.00779
0.796281 15.3963 -5.51533
-8.22122 -2.80552 -3.10721
0.410419 -21.9682 -7.85376
-4.27357 14.0309 -5.21836
0.639049 -22.0182 -7.82756
15.7729 -11.9128 -7.00638
-16.0158 18.5161 -8.62919
5.91739 -11.3179 -4.49087
-11.214 16.9239 -7.09226
0.0928484 -18.6015 -6.53838
14.2004 -11.2542 -6.33614
20.2188 5.32479 -7.29738
0.658678 -23.1543 -7.99925
-5.09187 14.7859 -5.35949
3.63619 -8.4412 -3.1639
4.87045 -9.02205 -3.51352
-14.769 18.3366 -8.06043
2.27329 -10.8795 -3.80909
-9.04166 16.4036 -6.38623
3.01745 -13.6544 -4.76827
-15.2532 18.7223 -8.18804
20.0377 5.44796 -6.97901
21.7355 26.8873 -11.553
35.6321 -20.1147 -13.6752
-5.39253 14.3064 -5.07928
1.90489 20.6143 -6.86765
1.26749 -10.2512 -3.41535
-5.33792 14.7019 -5.08151
-12.8158 17.5458 -7.04982
18.4437 -13.1428 -7.35523
3.55863 -8.67013 -3.00487
6.20755 -10.0932 -3.7977
2.31288 -11.0068 -3.57927
-4.63862 -34.8289 -11.1663
-1.1513 -24.0917 -7.67658
14.924 10.2782 -5.71794
-13.4525 17.9017 -7.07923
-18.3398 19.7816 -8.48089
6.94296 -11.065 -4.03894
1.38835 -21.9759 -6.81159
-2.61084 -27.7913 -8.56706
7.0805 32.6866 -10.2032
0.771201 14.9842 -4.55651
-11.3405 17.1117 -6.18865
-2.74297 -26.9196 -8.14758
-14.6136 18.2722 -6.98239
-5.38616 -35.3049 -10.6324
0.842184 -25.2413 -7.55083
-5.48909 15.101 -4.78097
2.0689 20.5571 -6.08583
-21.6919 20.2263 -8.75128
18.1103 5.76307 -5.59366
-4.3665 14.6717 -4.50221
-8.07092 15.6597 -5.17002
4.25032 -9.13168 -2.96057
4.62681 -11.5939 -3.65035
-12.6868 2.23498 -3.70254
-33.8951 -48.0121 -16.9096
-15.4823 18.6258 -6.9637
6.93819 -11.0506 -3.75684
2.56207 -9.54027 -2.80685
12.8848 -10.4295 -4.71782
-8.47232 -2.46569 -2.50208
20.7821 26.8012 -9.60693
-8.60064 -2.26679 -2.51338
-2.59844 -26.5029 -7.4718
-13.0964 2.00689 -3.68978
4.37775 -11.3039 -3.36483
-9.48387 16.311 -5.18124
-13.3024 17.7418 -6.09185
-5.49259 14.6623 -4.28093
-8.72296 -42.352 -11.8291
-21.892 20.4295 -8.05075
-9.9122 16.4376 -5.14529
-27.2503 20.9333 -9.14242
11.3598 11.433 -4.25177
4.31667 -11.2692 -3.19725
46.4413 -13.5005 -12.8131
-8.43341 -39.7924 -10.6893
4.08363 -8.64494 -2.51762
11.1346 -9.90373 -3.89856
-14.7264 18.4392 -6.13714
6.5229 -10.4025 -3.17825
3.1744 -9.63542 -2.6228
-30.9319 -45.3027 -14.1634
-4.45919 -29.2426 -7.65171
3.53475 -10.3541 -2.82136
4.06227 -9.37365 -2.62597
15.5284 -11.6762 -4.95764
-7.29566 15.5445 -4.3477
-32.3622 -43.1589 -13.678
4.30202 -11.1195 -3.01785
4.25063 -7.69621 -2.23768
6.5197 -10.6349 -3.11126
44.1799 -13.3573 -11.5084
-28.8497 21.7661 -8.93549
-11.7473 17.2594 -5.14796
-28.2567 -41.2197 -12.2865
-10.1707 -40.028 -10.1855
-24.9637 20.9676 -8.01226
4.34179 -10.3128 -2.7494
-12.2905 17.6053 -5.20698
-7.993 15.575 -4.2207
10.2456 -9.24168 -3.30398
39.7778 -13.2133 -10.0309
15.0358 7.51949 -4.00167
-6.47976 -37.1007 -8.96992
3.96091 -9.07686 -2.34675
46.318 -12.3966 -11.3808
-12.5516 -46.2105 -11.3415
3.84566 -11.0302 -2.75345
4.90081 -8.67982 -2.34506
-13.0196 17.743 -5.12264
10.9726 -9.61585 -3.33482
-6.32681 -32.0784 -7.45912
-27.6927 21.3886 -7.93237
40.9928 -8.96477 -9.5231
-31.1305 22.6024 -8.6258
-36.0167 -23.6026 -9.64804
40.2019 -12.4277 -9.44861
5.4438 -9.4556 -2.43618
-12.4759 2.84675 -2.80786
40.0732 -11.7433 -9.22701
42.0109 -11.9869 -9.61231
-5.48708 14.399 -3.37049
13.3333 -10.7291 -3.76737
37.6036 -12.0846 -8.68383
-23.8403 20.7782 -6.86034
-31.1205 -76.7227 -17.9624
4.30048 -9.67946 -2.29707
4.53042 -9.16266 -2.20798
-14.8539 18.5067 -5.06867
-31.5831 22.9414 -8.33587
-32.4854 23.0537 -8.51573
-29.791 -79.0375 -18.1018
-10.8936 17.0227 -4.28633
-8.66803 -36.7915 -8.03634
3.18376 -9.66562 -2.17025
3.95683 -9.80613 -2.25486
45.1239 -10.4619 -9.88858
14.8691 7.44766 -3.52513
-15.4421 19.0096 -5.18617
5.1544 -9.03806 -2.18609
26.0475 37.6858 -9.57116
14.9068 7.8014 -3.49261
-30.6077 -23.6385 -8.0221
-11.6636 17.1854 -4.22155
-15.9106 18.8118 -5.01659
-35.9454 24.1292 -8.79771
43.7998 -9.55356 -9.14255
-13.7037 -44.0934 -9.3826
4.12659 -9.7126 -2.14725
11.5621 -9.61127 -3.05933
-12.2204 17.5376 -4.26783
-20.798 -59.6884 -12.6301
-13.3527 -41.4773 -8.62538
4.06058 -9.89907 -2.11864
-34.6597 -23.7 -8.27673
-27.2442 21.3824 -6.81681
-33.6732 -24.0869 -8.06992
-7.02669 15.5286 -3.30952
-27.7673 -65.2428 -13.7705
-34.0775 -22.6864 -7.88857
3.42879 -9.34316 -1.92199
45.2068 -10.4741 -8.91142
-12.9802 17.7225 -4.20027
3.98091 -9.32564 -1.93522
-37.0247 -22.4898 -8.1999
-21.7235 -35.2892 -7.88021
-16.1224 -46.5183 -9.31391
37.435 -12.3489 -7.45254
-36.7326 24.6707 -8.28138
-34.2246 -23.6362 -7.81314
-33.161 -24.2619 -7.71253
-22.1365 -54.84 -11.1259
-17.4577 -47.4188 -9.37151
3.81492 -9.19432 -1.83877
41.9954 -11.3185 -8.07739
5.74438 -9.69051 -2.06477
-25.5185 -57.8633 -11.5764
-21.1845 -52.5801 -10.2514
-14.8239 18.4785 -4.20126
-31.5909 -25.4788 -7.21369
-20.6125 -27.4667 -6.14052
-40.2535 25.4004 -8.3983
-27.2562 21.4013 -6.03203
-34.7916 23.8076 -7.32002
3.90026 -10.0263 -1.86568
4.76423 -8.59878 -1.70849
13.9308 7.4812 -2.7268
14.0013 8.03455 -2.7643
-31.4338 22.8582 -6.66328
41.6795 -11.792 -7.37504
41.4863 -10.7446 -7.29595
-31.7479 -25.2138 -6.87707
-21.442 20.4208 -4.97276
-21.1542 -52.5803 -9.57485
14.7812 7.40832 -2.77251
-32.3237 22.8833 -6.61573
-24.5114 -58.4383 -10.4698
42.9693 -11.5755 -7.23385
-10.5386 16.731 -3.19163
-21.4612 -53.2415 -9.154
-35.4534 -24.4737 -6.78812
-23.177 20.363 -4.83134
-24.6115 21.0099 -5.01562
-40.9685 24.805 -7.42157
-11.4214 17.0947 -3.1745
3.46461 -9.50848 -1.5653
3.85874 -10.2042 -1.68941
-7.76967 15.7596 -2.68474
-31.6727 23.0522 -5.98843
-32.2553 -24.9131 -6.19713
-28.3767 -26.5432 -5.88606
41.6694 -10.8327 -6.54494
44.255 -9.64155 -6.90099
-6.67018 14.8578 -2.43784
9.81218 -5.1433 -1.64427
-34.0186 -24.5361 -6.2459
10.1635 -9.13811 -2.03702
44.3904 -10.2691 -6.76703
-37.2532 -24.7989 -6.58601
-32.0157 -26.4079 -6.07062
-13.0941 -43.3842 -6.66673
16.8245 -12.1725 -3.04225
-25.8477 21.2811 -4.86592
-25.6729 -57.5223 -9.07594
-7.76458 15.5524 -2.48647
-12.9322 17.6325 -3.11817
6.01365 -11.4891 -1.85332
-13.6485 18.2427 -3.2009
-35.4062 23.9176 -6.00722
6.73776 -11.0059 -1.8039
37.1553 -12.2619 -5.50364
-31.6349 -25.3491 -5.65732
-33.672 24.1983 -5.74437
-21.3263 -51.3994 -7.68508
44.5378 -9.96355 -6.29382
-7.00994 15.5037 -2.32612
-23.6717 -61.7791 -8.9862
7.73293 -9.35827 -1.62934
-14.247 18.1913 -3.11532
13.161 -10.4969 -2.27812
-22.6134 20.5696 -4.11085
41.5894 -10.7529 -5.70357
44.269 -9.69666 -5.99897
-22.996 20.2367 -4.00579
-33.1971 -24.8409 -5.41538
-15.1538 18.5565 -3.09815
-34.6977 23.1588 -5.41595
-38.8986 -16.4245 -5.45149
6.99614 -10.4047 -1.60892
10.7159 8.77326 -1.7778
-34.3264 -23.6555 -5.33459
-32.0531 23.3994 -5.02017
-36.1314 -22.5463 -5.33787
41.4607 -10.7224 -5.35985
6.7762 -10.3374 -1.54471
-7.80455 15.6111 -2.16181
-25.4664 21.3836 -4.07203
-34.0654 24.0082 -5.14087
6.27118 -12.0275 -1.65274
44.2229 -9.4348 -5.5391
14.9201 7.81676 -2.02478
-18.514 -44.8398 -5.84903
7.06558 -10.501 -1.52416
-20.7359 9.18985 -2.68444
-14.805 -44.7838 -5.54538
-32.3411 -24.9344 -4.77482
-31.8202 -25.4481 -4.76769
41.5384 -11.1269 -5.0548
11.1935 -9.63959 -1.71164
-30.4553 23.0925 -4.39731
6.62215 -10.79 -1.44957
7.47205 -9.19951 -1.35584
11.5431 -9.69016 -1.71202
9.43185 -4.60127 -1.18839
14.8993 7.65632 -1.88757
-10.5362 16.7736 -2.23599
-32.8253 23.9856 -4.55448
38.4259 -12.6493 -4.5373
9.3314 -8.9986 -1.43435
-11.2608 16.8888 -2.20705
6.7638 -12.7342 -1.56222
44.3615 -9.6413 -4.92203
10.7129 8.80334 -1.49396
16.6794 -12.3899 -2.23038
41.729 -10.8227 -4.6199
9.59224 -8.95365 -1.39036
8.3601 -8.44502 -1.245
-31.3716 -25.1046 -4.18364
-31.4218 -63.0259 -7.34617
14.8967 7.47089 -1.70236
-32.2783 -24.8886 -4.1818
-13.081 17.8321 -2.24591
-12.9929 17.4074 -2.15939
10.1774 -9.06121 -1.3351
-21.6793 -55.0569 -5.80056
6.28989 -12.0454 -1.3155
16.5508 -12.1088 -1.9716
41.6188 -11.1835 -4.13151
-32.0106 -64.7054 -6.86213
-21.6929 -56.9284 -5.7852
-23.7179 20.7457 -2.94579
45.0415 -10.0199 -4.31044
9.68918 -8.96175 -1.22195
39.237 -12.9433 -3.85071
-15.2798 18.7305 -2.18927
-30.0292 -13.6912 -3.00815
-33.6894 -65.6747 -6.80319
15.7744 -11.8069 -1.79276
8.61489 -8.70562 -1.10922
12.8376 -10.5968 -1.44981
44.6328 -10.345 -3.92542
9.37605 -9.00315 -1.09285
10.9153 -9.61228 -1.22274
-34.8316 23.9205 -3.51608
16.7493 -12.2142 -1.71735
-17.4781 -45.4809 -3.9024
14.6114 -11.4251 -1.47937
-12.0059 -33.611 -2.81696
-30.3866 23.1045 -2.95195
-33.7444 23.8517 -3.18992
-23.5422 -53.7764 -4.5319
-52.4066 28.5218 -4.51779
-21.7575 20.4771 -2.1734
-33.975 24.0315 -3.01578
16.2887 -12.1709 -1.48782
41.6419 -11.1433 -3.14115
-41.2577 -78.0631 -6.37192
13.9103 -11.0058 -1.26971
-16.0255 -42.5113 -3.13561
10.7306 -9.58309 -0.985893
-23.7427 20.7888 -2.13125
12.816 -10.5751 -1.11253
17.8443 -12.9423 -1.46998
15.9542 -12.0675 -1.32146
-15.1117 -41.8984 -2.88116
43.3624 -11.2775 -2.80123
-33.245 -67.3597 -4.58398
35.4859 -8.60884 -2.24143
42.5601 -9.74125 -2.68097
6.01746 -13.0074 -0.856903
30.5574 -20.2197 -2.19332
-10.0219 16.73 -1.14667
-16.0146 -41.7751 -2.54759
16.5169 -12.3438 -1.1581
-9.73456 -12.6193 -0.873363
14.8864 7.63724 -0.904397
13.8383 -10.9544 -0.945366
-13.0028 17.6207 -1.14387
-16.9386 -41.9836 -2.40444
14.7808 7.77216 -0.818254
-16.7759 -42.8813 -2.25947
-14.3914 18.2409 -1.11109
9.53853 -8.99734 -0.601573
-24.9055 -57.1303 -2.82039
12.4011 -10.1946 -0.744482
-16.5413 -46.1105 -2.17517
-17.7193 -43.6568 -2.01737
6.82167 -12.5961 -0.635777
-14.3699 -43.8037 -1.96397
-53.8751 29.2991 -2.48371
18.2212 -13.0905 -0.910901
16.7052 -12.4169 -0.810955
-43.6935 -84.805 -3.59962
-18.8666 -49.4746 -1.95049
-34.2754 23.5503 -1.52051
42.1174 -10.8521 -1.56668
-36.0377 -71.6853 -2.68492
-26.8613 -58.8664 -2.17905
19.8828 22.9954 -1.00873
-21.8013 20.4298 -0.973135
8.06734 -14.2382 -0.549911
9.39547 -8.9694 -0.421209
11.2588 -9.91171 -0.487782
18.4741 -13.0625 -0.743951
34.4789 -13.0043 -1.22342
21.6172 26.1674 -1.08762
-27.6638 -13.8759 -0.969894
-23.2882 20.7381 -0.949948
-32.2822 22.8638 -1.23405
-25.9682 -59.7016 -2.01694
-14.1946 -40.1559 -1.31224
-22.349 -57.0088 -1.85456
-17.1659 -46.5231 -1.42117
-34.4944 -20.9147 -1.07429
11.4077 -9.67752 -0.40094
16.2482 -12.0851 -0.534117
-41.9237 25.9352 -1.29938
-30.8531 23.4762 -0.958569
-31.375 22.9939 -0.919014
9.54103 -8.98175 -0.303699
-42.0221 14.5238 -0.982008
-32.3996 -54.2533 -1.42375
21.1135 -14.1208 -0.558725
30.1732 -18.296 -0.79702
14.1676 3.91535 -0.29972
26.6235 46.5234 -0.984127
23.3783 -10.8838 -0.454498
46.5329 -10.7149 -0.888786
-31.0466 -22.3111 -0.697076
-30.0593 -29.5243 -0.668192
-19.591 -48.0712 -0.865082
12.6681 -10.4173 -0.27006
18.402 -13.2971 -0.347303
-29.584 -13.1494 -0.424791
-33.3163 -24.9331 -0.57894
-34.8435 -70.2419 -1.05957
-28.8045 -61.3052 -0.92902
-34.4256 -23.5108 -0.544189
-30.8741 23.4885 -0.456008
16.8988 -12.6196 -0.250728
29.0185 -17.9929 -0.402337
-31.3287 22.9996 -0.431998
-19.6409 -45.0453 -0.52643
-12.3339 -37.1234 -0.394539
-34.5789 -60.9272 -0.646268
-14.5665 18.4772 -0.180117
-26.9765 -13.6007 -0.243724
-15.2672 18.6104 -0.16413
-22.9334 20.4816 -0.157598
-21.3463 20.022 -0.132528
-10.6202 -13.6532 -0.0607338
14.6492 7.69557 -0.0198082
11.0686 -9.73289 -0.0079112
-34.9601 -19.1484 0.0609991
-11.6201 -34.535 0.117964
16.86 -12.2493 0.0902044
-19.3462 -44.4151 0.214519
18.6617 -13.1486 0.120975
7.14439 -12.281 0.103565
25.8123 -10.5902 0.171324
-56.5614 20.1963 0.573885
16.1594 -11.9758 0.191816
37.0762 -7.56951 0.356759
-29.3719 -8.28222 0.357324
-36.819 -22.2232 0.474434
-11.5908 -33.2092 0.376605
-13.0244 -36.091 0.456062
-10.5208 -32.3385 0.407355
6.2977 -12.8725 0.182848
7.18801 -11.0735 0.173488
-28.6949 22.5246 0.559534
11.2724 -9.84458 0.224869
-24.5349 20.9816 0.533747
10.8623 -9.69865 0.228424
12.9164 -10.6332 0.263429
36.0433 -7.7137 0.612949
-35.0651 -23.493 0.767799
-31.815 22.7478 0.769012
6.11127 -12.7684 0.27461
6.99746 -11.012 0.251275
8.00452 -9.39273 0.240902
26.4676 54.4232 1.31716
7.70822 -9.4183 0.275072
10.098 -9.14613 0.328585
-29.1062 -9.33321 0.736609
-23.7093 20.6946 0.852455
-28.0806 22.1414 0.960818
-29.2356 -8.77846 0.804735
9.16433 -8.87084 0.344451
9.59672 -8.9194 0.357033
-26.0479 21.9533 0.926622
25.2 -5.09797 0.715673
12.9261 -10.604 0.497906
14.5707 23.7366 0.85968
6.15901 -12.7057 0.444276
7.42813 -11.5792 0.431634
-28.7517 -8.10891 0.980534
-12.7325 -19.4949 0.766933
-28.43 -8.88576 1.0302
15.9901 10.9444 0.700463
-30.1978 -18.7124 1.24184
15.4677 26.8685 1.10682
-30.8137 -16.808 1.30086
23.3841 -4.22256 0.858377
-28.175 -20.0385 1.28117
-7.31631 -7.97728 0.408616
9.02643 -8.80206 0.46856
12.3145 13.4708 0.703946
25.0579 51.6922 2.17622
23.9474 50.9862 2.12179
-11.6101 -9.18991 0.583997
8.70031 -8.64609 0.485131
-26.1285 21.5235 1.37541
21.7047 -2.94154 0.887268
-29.1448 -17.7026 1.39706
9.3868 -8.90047 0.530281
12.3321 14.2031 0.809476
6.5459 -12.3965 0.595256
14.6602 19.0486 1.05699
20.3891 28.1627 1.52307
-9.55247 -13.8894 0.740881
-10.0526 -15.7218 0.828238
7.57033 -10.9109 0.585017
8.60167 -8.69084 0.552493
24.0231 -3.68009 1.09718
-30.1823 -8.79557 1.43536
6.71758 -11.0435 0.594683
-8.30105 -8.16921 0.548254
20.6604 41.6845 2.22623
-28.9032 -17.8633 1.60621
-9.8273 -13.7846 0.8057
9.63114 -8.93596 0.618701
14.8881 41.3728 2.12881
-30.6043 -13.5556 1.59786
-6.78187 -8.2681 0.526317
14.1354 32.8721 1.82614
-30.0762 -11.7779 1.62126
-7.61353 -7.00089 0.522989
-6.71709 -7.61453 0.513799
15.7674 28.5625 1.69434
10.4431 12.2113 0.868509
14.0183 19.0766 1.27128
9.3171 -8.89879 0.690222
14.602 18.9991 1.32328
15.0057 23.1762 1.52053
-27.9883 19.7066 1.87743
-6.99355 -8.21892 0.598582
-26.9133 20.6505 1.88727
6.06098 -12.7973 0.792254
-7.13033 -9.1891 0.663379
9.85339 12.3075 0.927368
14.6127 24.6205 1.67285
6.42714 -12.9084 0.829865
13.5874 22.1674 1.53594
-8.28778 -8.14656 0.70035
11.4262 11.505 0.967089
14.4499 19.2184 1.44481
-7.42672 -10.0537 0.777415
6.98133 -11.1252 0.800388
11.2157 -9.67409 0.897816
5.84491 -10.7146 0.757347
-7.21373 -6.66773 0.614027
14.2426 20.2041 1.56425
16.0265 7.11395 1.13853
-7.05397 -6.16311 0.614853
6.42675 -13.3707 0.98867
9.20084 20.783 1.53335
10.3047 12.4204 1.1034
13.3488 17.9495 1.56032
12.1778 20.1906 1.63166
11.2306 11.8634 1.14674
6.57642 -9.80765 0.836187
11.3798 11.6426 1.17828
9.77486 -6.90007 0.851272
12.2335 11.8431 1.25062
9.88955 -8.35157 0.948179
-6.21108 6.7317 0.684442
10.3446 9.1087 1.03547
11.7351 17.5459 1.58832
11.2862 17.9812 1.59972
-6.96581 -7.7212 0.80653
10.6647 18.4071 1.63231
9.47805 -8.92354 1.00596
-6.42786 -4.30712 0.610514
9.01498 18.0612 1.61312
10.0464 -6.87463 0.974641
12.3298 11.4397 1.3597
9.56259 18.5666 1.68169
-7.29315 -9.67376 0.986883
6.69588 -9.3496 0.935747
12.1174 11.5919 1.3741
12.0203 11.8215 1.40006
11.3021 11.8133 1.35357
-5.07556 -11.5843 1.06384
10.1924 12.752 1.3891
-6.97766 -6.09737 0.79837
-6.83448 -6.71306 0.809403
-5.23662 -11.4851 1.0734
-7.32354 -7.77124 0.919739
9.25426 -7.23226 1.01469
-7.14366 -8.08385 0.944246
-7.03822 -7.71377 0.918513
9.27928 12.3859 1.37214
-6.97516 -8.39991 0.975588
10.7223 8.99665 1.27565
10.3351 13.311 1.52262
10.4321 9.16203 1.27102
7.60792 13.81 1.45024
-6.51822 -8.16096 0.957119
-6.92799 -9.05115 1.05215
11.0882 10.6942 1.42145
11.1521 9.0989 1.34689
10.7609 10.6962 1.42231
6.37707 14.7365 1.50879
-11.4946 2.94476 1.11334
-6.3727 -4.17838 0.714208
-6.82236 -6.30931 0.86196
9.31453 13.1362 1.55346
-6.08016 6.60685 0.884891
7.94092 -6.59298 1.00583
7.82665 13.0501 1.51154
-7.08991 -7.6405 1.05025
9.20577 11.5107 1.48667
6.91691 12.2812 1.43044
6.96771 12.8365 1.48893
9.45083 9.0139 1.35163
5.76814 13.7505 1.5454
9.034 12.2869 1.58998
-6.11708 -4.46397 0.79404
5.8684 13.4844 1.54893
6.12761 13.422 1.55109
-6.98454 -4.43672 0.885353
8.69135 8.93974 1.32926
9.04847 10.0802 1.47318
7.24863 10.884 1.42113
5.75338 11.332 1.38164
-6.31526 -7.42931 1.06597
10.1968 6.4084 1.33252
8.9197 8.07306 1.32618
7.22668 11.5515 1.50452
6.76506 11.4979 1.47486
5.28533 11.7364 1.43196
4.79969 11.9303 1.43856
4.62264 13.4433 1.56372
9.79534 7.0037 1.34458
8.67983 9.22654 1.41552
5.31275 11.3675 1.4129
-6.85832 -6.74007 1.0705
6.7927 10.6023 1.4184
4.24629 12.9531 1.54037
9.72595 -3.18707 1.14111
-6.11459 -5.42331 0.946528
7.2749 -6.10791 1.07821
10.3474 5.6774 1.35368
-7.39797 -0.988006 0.855705
-6.26836 -5.36556 0.95003
5.24151 -5.54971 0.879412
4.99981 11.4679 1.45313
-6.89636 -4.56805 0.958887
4.44697 -7.25112 0.983667
10.3434 5.11683 1.35417
8.81435 7.82315 1.3835
-6.01102 -4.37477 0.86675
-6.49787 -5.2833 0.989637
4.08509 -7.85258 1.05265
4.96107 -5.84365 0.919598
10.1067 4.72577 1.33746
8.44875 8.20397 1.4264
5.2066 11.3428 1.52334
8.98449 6.22402 1.33821
7.94469 8.26813 1.43636
-6.50259 -5.75813 1.08152
3.70174 -7.56318 1.0546
8.61541 6.64281 1.36801
-6.48001 -5.35452 1.06418
9.03126 5.97369 1.38243
8.12363 7.08836 1.37553
8.05234 7.45029 1.40069
5.76913 -5.33817 1.00904
-6.98602 -4.45212 1.06371
8.03688 7.93508 1.46488
-7.3741 -1.04474 0.962776
-6.93647 -2.83186 0.978875
8.92892 4.07971 1.28559
8.3447 6.58329 1.39529
4.99269 -6.02112 1.02808
4.91074 -6.18528 1.04574
6.85896 -4.27566 1.07579
-7.14842 -1.72188 0.986196
-7.02366 -2.22445 0.98545
-6.03491 -4.42937 1.00114
8.07955 6.61298 1.41541
8.56437 4.4161 1.31373
8.58145 5.13712 1.36607
7.97036 7.08651 1.45162
-6.82111 -3.74048 1.0567
8.81566 4.13804 1.333
8.21392 5.79737 1.37674
-6.40903 -4.33657 1.05925
-5.96675 -4.53217 1.02365
5.30623 8.94163 1.43599
3.59226 9.93742 1.46711
-7.38428 -1.09541 1.03432
-6.91723 -3.93449 1.10478
4.94435 -5.53844 1.02599
5.22304 -5.39286 1.0419
7.45055 -3.53083 1.15294
3.33757 10.0089 1.478
8.35776 4.5742 1.34774
7.36255 -3.6719 1.16706
7.5734 -3.3289 1.17935
7.74725 -3.29945 1.19476
8.89945 2.80219 1.3429
4.82944 -5.63033 1.06616
7.34142 -2.84829 1.14637
-6.97154 -3.30636 1.1251
7.90261 -2.77415 1.22105
8.64362 -1.81564 1.29639
4.96204 8.49549 1.45208
2.9124 9.30832 1.45057
7.71723 -1.88427 1.1707
7.1875 5.72403 1.36895
3.41063 9.43487 1.48262
3.14227 9.65949 1.50501
-7.38667 -1.04568 1.1067
-7.08838 -2.02704 1.09924
6.90428 6.25 1.40599
-6.27304 -2.27528 1.0019
-7.25541 -1.37819 1.11536
7.89849 4.7929 1.40748
5.66763 7.30298 1.40249
5.25159 7.57196 1.40231
5.0144 7.94634 1.42043
6.75033 -3.22129 1.13106
7.23468 -3.11969 1.20646
7.62224 -2.75048 1.23475
-7.33322 -0.734597 1.12606
-7.1112 -1.95831 1.13895
6.7798 -3.0886 1.15207
3.75025 -5.78719 1.06627
-7.06663 -2.07999 1.15539
-7.36217 -1.09528 1.16931
7.32457 4.75085 1.37882
-7.21336 -1.44647 1.17106
-7.28686 -1.30382 1.18832
-7.11129 -2.02295 1.20285
7.03495 4.73969 1.38462
-7.11504 -1.94925 1.2124
6.97444 4.84063 1.41008
6.58243 4.82805 1.3622
5.17425 6.20458 1.34573
4.63771 7.11755 1.41859
3.78584 7.85742 1.44947
-7.26434 -1.37637 1.23483
2.79448 -5.78105 1.0823
7.10844 4.40779 1.40896
6.47933 5.21073 1.40261
3.87448 -5.36637 1.11584
3.93785 -5.02248 1.08028
-7.28774 -1.25507 1.25507
-6.60912 -2.62954 1.20734
7.38892 2.83719 1.34237
6.99984 3.87446 1.36332
-6.42429 -2.7573 1.18994
6.74467 4.08051 1.35319
5.67905 -3.51751 1.14969
-7.41242 -1.04189 1.29508
-6.36688 -2.28403 1.16343
5.53241 -3.646 1.14199
5.3168 -3.77248 1.1426
3.56551 7.09948 1.39719
-6.81199 -1.73836 1.23523
4.48035 -4.46774 1.1134
-7.10712 -0.916546 1.27717
4.72486 -4.45741 1.14939
4.29837 6.44733 1.3825
6.5601 3.46014 1.3393
6.59845 3.66737 1.35607
-6.45241 -1.50312 1.19218
3.6103 -5.32841 1.17072
5.04865 5.58067 1.37777
-6.16434 -2.18654 1.19927
3.41522 -5.16166 1.1509
3.35951 6.71453 1.40433
-1.69613 -5.77688 1.14391
6.42264 2.72252 1.32742
-2.14174 -5.72386 1.17514
6.28731 2.78633 1.32387
-2.78644 -5.37464 1.18665
-3.54963 5.39099 1.39975
4.45265 3.87762 1.34734
4.15274 -2.87984 1.17734
4.62861 -2.18625 1.23674
4.18504 3.2803 1.31695
3.71015 -2.93237 1.22457
4.00733 2.56746 1.32937
-1.44121 -4.11277 1.22065
-2.31925 -3.57709 1.21201
3.85032 2.35835 1.30788
-2.87373 3.54236 1.36877
-2.47907 -2.91481 1.18915
-2.37651 -2.93585 1.19404
1.84655 -2.81687 1.18388
1.86948 -2.7949 1.21388
1.99546 -2.53053 1.20001
-2.0496 2.81656 1.32598
2.80467 -0.555842 1.2592
2.78364 -0.3369 1.24076
-2.08795 -1.61828 1.21284
-2.07583 -1.45056 1.238
-1.86069 -1.79466 1.28305
-1.99357 -1.13089 1.20458
-1.98513 -1.0699 1.23145
-1.94508 -0.880019 1.23179
-1.92958 -0.708162 1.22221
-1.92848 -0.701274 1.24944
-1.90503 -0.469546 1.22242
-1.87052 -0.345592 1.21972
-1.8553 -0.401038 1.22638
2.37866 -19.7124 -10.0192
-7.62366 -9.00073 0.466497
8.00498 -8.78542 -10.4507
8.25163 -8.61695 -10.4882
8.20336 -8.27825 -9.8716
6.94727 -11.9398 -11.3937
8.5017 -8.95847 -9.72512
7.83849 -8.92401 -9.122
5.84273 -12.7837 -10.7173
9.40889 -8.81717 -9.72625
6.13977 -14.0787 -11.5632
8.27356 -8.66483 -9.00781
8.00467 -9.15422 -9.09397
7.2808 -9.23183 -8.76016
5.90166 -14.1343 -11.1762
7.70563 -9.29092 -8.7103
7.84295 -9.10236 -8.65545
7.11772 -10.5648 -9.0702
6.80904 -11.0557 -9.20537
10.0299 -9.1716 -9.54584
6.52892 -11.158 -8.85094
8.02018 -8.61419 -7.83784
7.34827 -9.26556 -7.85912
8.50123 -8.66641 -8.06973
7.70638 -9.45599 -8.01444
6.47576 -12.7532 -9.34058
7.91943 -9.165 -7.90039
4.99787 -16.0286 -10.7994
-0.470979 13.946 -8.9222
7.7146 -9.22909 -7.71382
7.32132 -10.8436 -8.33122
8.36273 -8.55082 -7.62023
10.8469 -9.59574 -9.18642
8.97267 -8.80265 -7.88355
11.7291 -10.0021 -9.66123
8.05812 -8.52049 -7.21531
4.03966 -16.8422 -10.6155
4.24575 -15.37 -9.79134
7.83034 -9.34223 -7.30559
3.95106 -15.6281 -9.61283
11.4452 -9.79845 -9.02435
6.85124 -11.0568 -7.72416
7.75987 -8.8059 -6.95318
5.47916 -13.9786 -8.87151
6.4769 -12.6851 -8.33606
8.34736 -8.57956 -6.97611
9.6657 -9.06056 -7.72545
2.78722 -11.7832 -6.94115
5.46649 -13.8688 -8.44152
9.57251 -9.08436 -7.46061
6.60601 -11.0513 -7.25009
3.35209 -20.7377 -11.7731
8.86128 -8.92167 -7.04938
12.1504 -10.1941 -8.88601
6.81152 -10.9872 -7.20229
4.67541 -14.591 -8.46843
6.21014 -12.5995 -7.72801
0.898032 18.5448 -10.1052
14.5504 7.68821 -8.93953
4.19713 -14.2234 -8.01012
14.6604 -11.6013 -10.0786
14.9017 7.40474 -8.86161
13.9456 7.68326 -8.45802
4.75913 -14.8319 -8.27727
12.0427 -10.1165 -8.27741
1.81498 -20.5256 -10.601
11.3793 -9.82062 -7.70127
2.08246 -20.2459 -10.328
0.0076645 14.2787 -7.16622
-7.36352 15.311 -8.51738
10.563 -9.57243 -7.16336
7.49887 -9.40591 -5.99373
-8.58922 16.2877 -8.90232
11.6016 -9.74357 -7.3336
10.4642 -9.55744 -6.80568
14.7167 -11.2829 -8.94535
16.572 15.6973 -10.8413
7.46501 -11.034 -6.34784
14.9352 7.37925 -7.81455
13.87 -10.9833 -8.2696
-12.0834 17.3059 -9.67378
15.76 -11.942 -9.03439
9.75708 -2.44632 -4.62023
-9.13572 -1.66086 -4.22287
18.5508 17.8999 -11.6284
3.90897 -9.08943 -4.49112
-10.3193 16.861 -8.88061
-5.36668 4.46336 -3.14005
6.84084 -11.2628 -5.93307
9.40496 -9.06474 -5.76148
15.9313 7.2674 -7.72351
-6.69455 15.2101 -7.26129
1.49933 -18.7538 -8.13749
-11.2982 17.1934 -8.86123
9.56418 -3.3641 -4.34222
7.0003 -11.0191 -5.51929
15.746 -11.9033 -8.26352
14.5728 7.70321 -6.91227
18.5747 19.3239 -11.1986
1.02136 -22.6982 -9.45898
-4.56367 13.9683 -6.057
-9.96479 -1.11454 -4.15586
14.015 7.73847 -6.53508
20.2239 21.9978 -12.1761
-13.1335 2.46132 -5.44386
15.0346 7.14317 -6.73031
-5.26577 14.4378 -6.18362
3.63368 -8.79736 -3.78889
13.8783 -10.9583 -6.91138
19.1056 21.3813 -11.1192
18.6993 5.76613 -7.58656
1.53582 19.1599 -7.4502
-8.82378 15.9029 -7.01445
11.3631 -10.0191 -5.82764
19.033 22.0646 -11.2206
0.68434 15.3415 -5.87942
-1.66609 12.8133 -4.97203
2.71257 -12.2431 -4.81152
-8.79333 -1.25589 -3.37653
0.70418 -23.7828 -8.97756
15.1043 -11.5752 -7.17763
9.47353 -3.45673 -3.80381
-7.90886 -3.51328 -3.17423
1.09725 -10.4756 -3.87369
7.0111 -11.2098 -4.83575
14.12 7.88388 -5.83695
-8.31311 -2.85419 -3.16077
0.790391 15.2433 -5.44094
-3.98889 13.4992 -4.98277
5.72463 -10.9631 -4.353
15.7489 -11.9022 -6.99269
18.9685 5.85836 -6.98321
2.09482 20.4194 -7.19452
21.3459 25.8039 -11.634
-15.0621 18.5946 -8.21694
2.96342 -13.307 -4.69305
-8.99203 16.247 -6.34925
18.3556 -13.001 -7.71058
-5.08611 14.6209 -5.26691
1.36464 -22.3593 -7.4228
1.75219 19.4953 -6.46349
1.44855 -10.3246 -3.44569
38.5976 -19.7306 -14.2282
6.15665 -10.0277 -3.76693
17.4557 -12.3255 -6.84513
2.10787 20.5397 -6.56842
-13.5155 18.0456 -7.11165
1.45851 -22.8819 -7.14341
-4.34312 14.8771 -4.81899
-11.0826 16.7943 -6.10142
-2.79774 -28.4488 -8.68272
3.05996 -9.4571 -3.02118
0.79807 -24.4764 -7.36405
18.9831 -13.4742 -6.90877
17.5021 5.53691 -5.38549
-7.97826 15.4483 -5.06484
4.21929 -10.4709 -3.28139
3.6121 -10.5442 -3.17275
4.22993 -10.9167 -3.28706
-13.4786 18.0175 -6.2621
-9.40014 16.0717 -5.06828
-13.3066 1.99472 -3.6896
-17.1453 19.6997 -7.09409
26.0416 -17.1439 -8.44974
-4.00353 -28.5365 -7.7262
3.77756 -9.13292 -2.64465
-9.91912 16.4913 -5.12546
46.5643 -13.5959 -12.8646
10.4973 -9.36262 -3.7238
-6.52792 15.1189 -4.30523
-14.598 18.3038 -6.14642
-8.1967 -38.7712 -10.32
4.94667 -9.54955 -2.78415
6.54005 -10.4672 -3.18467
-7.3032 15.5035 -4.35949
-10.6838 16.6424 -5.056
-10.1579 -40.2477 -10.3204
-9.29976 -40.1411 -10.059
10.901 -9.60965 -3.57382
-8.06678 15.6592 -4.2743
-11.8757 17.2628 -5.07489
14.5279 7.674 -3.89879
4.03917 -9.23578 -2.38609
15.1287 7.49234 -3.97777
3.74018 -8.89325 -2.26821
-6.66016 -33.1746 -7.83358
5.61131 -9.85834 -2.62955
44.128 -10.6788 -10.5537
-12.974 17.6737 -5.04918
14.7832 7.57086 -3.75682
43.1935 -9.34379 -10.0121
-9.91727 16.5213 -4.31564
3.7049 -9.22919 -2.16405
42.3709 -10.8696 -9.54837
15.0399 7.46118 -3.59444
-10.7783 16.8263 -4.28258
-22.3373 -35.116 -8.93994
4.80736 -9.72378 -2.34058
44.4106 -10.3985 -9.76007
-14.9875 18.5698 -5.02282
-32.6826 -24.1226 -8.60939
41.1319 -13.7627 -9.17728
14.7657 7.80243 -3.48213
-36.1438 24.4423 -8.92341
-8.58795 -35.1241 -7.3206
3.93667 -11.4627 -2.43691
43.9511 -9.48261 -9.14615
11.73 -9.70953 -3.05425
42.3919 -10.9129 -8.72413
-27.394 20.6722 -6.81313
6.12229 -10.2474 -2.37707
45.273 -10.5868 -9.08205
-12.9682 17.695 -4.24165
-27.2788 21.3781 -6.73589
15.9251 12.0458 -3.81544
-6.98595 15.3809 -3.24554
-33.6042 -24.3061 -7.9377
-32.0885 -25.1275 -7.83185
-36.3733 24.2376 -8.23182
-34.1049 -22.4977 -7.7204
17.9157 5.63258 -3.5048
-34.6279 -20.8934 -7.55229
-15.5204 -44.7452 -8.82106
3.75952 -9.79253 -1.97548
-25.6152 -63.77 -12.7785
-17.3179 -46.6531 -9.10059
3.9659 -9.61282 -1.87603
13.0112 -10.167 -2.97839
44.7723 -9.96302 -8.23996
-14.9541 18.5473 -4.25873
-27.4369 21.5191 -6.15718
14.9997 7.94003 -2.95532
-30.7477 -26.7943 -7.10809
42.2511 -10.8223 -7.48931
-8.05354 15.516 -2.96337
-9.91498 18.2615 -3.5125
44.0574 -10.3711 -7.65472
-31.283 22.7865 -6.51659
-30.6906 -23.6117 -6.47158
-21.13 20.2038 -4.86496
-32.942 23.2644 -6.72871
15.8328 -11.8134 -3.23783
-10.4861 16.6486 -3.13188
-44.3197 26.0791 -8.15891
-32.1002 -24.1149 -6.42707
-33.972 -23.4327 -6.49957
3.42499 -9.47275 -1.57561
-24.1463 20.6268 -4.90526
16.8108 -11.8841 -3.18967
-11.337 16.9681 -3.10181
45.4027 -10.6406 -7.07903
-23.7394 -55.0139 -9.05223
-30.0121 22.5083 -5.60993
-39.1683 24.4222 -6.85168
-32.1306 -24.941 -6.06785
44.0654 -9.4429 -6.71119
-34.271 -24.7851 -6.17943
-51.1904 28.5816 -8.4304
-36.1078 -24.0844 -6.24717
6.69616 -12.8504 -2.10479
-7.06964 15.5881 -2.37903
-13.317 17.9774 -3.11398
-32.7784 23.5989 -5.64597
-25.5787 -56.9644 -8.60932
-16.7291 -48.904 -7.10703
36.2898 -12.0686 -5.24593
-23.5553 20.6993 -4.17301
-32.7691 -24.5404 -5.34455
-31.106 -25.5184 -5.31909
-34.4275 -23.7104 -5.35431
7.42565 -9.40545 -1.54983
42.3029 -10.8285 -5.60408
-34.1525 23.24 -5.25229
-30.138 -16.0819 -4.35416
6.03102 -7.81055 -1.26064
44.1955 -10.3876 -5.75676
-31.6747 23.279 -4.90543
14.4325 -11.2441 -2.24827
-30.5715 23.0255 -4.63012
-33.233 23.4926 -4.90025
-10.5265 16.7424 -2.28595
-31.9743 -22.9964 -4.63345
12.9355 -10.4621 -1.94797
35.4132 -11.702 -4.31649
6.3233 -10.3117 -1.3907
11.1535 -9.66524 -1.66319
16.349 -12.1726 -2.29748
-11.2452 16.862 -2.24501
6.72705 -12.5342 -1.55939
11.5576 -9.65171 -1.66791
42.1446 -10.8071 -4.77759
-39.8666 24.8571 -5.04222
44.2537 -10.3407 -4.89408
14.8398 -11.3953 -1.99107
-13.1665 17.7882 -2.27376
14.6869 7.77353 -1.66018
13.9375 -10.9949 -1.77379
-14.2333 18.2039 -2.24174
6.37093 -12.2092 -1.32617
9.37748 -8.8949 -1.24952
16.9134 -12.3672 -2.04546
-29.2089 -13.9575 -3.04941
-15.2279 18.6473 -2.24465
-38.9469 -75.8754 -7.93849
-34.4767 -21.5737 -3.60098
16.0453 -12.0232 -1.80481
38.041 -12.6575 -3.58909
11.0723 -9.84238 -1.2246
42.5375 -10.8719 -3.66267
-16.7229 -43.5173 -3.74455
-42.2413 -82.5969 -7.22666
17.5032 -12.7544 -1.71098
-30.7832 23.2975 -2.95265
7.42683 -9.1485 -0.912345
-33.5276 23.733 -3.05112
-17.0962 -42.293 -3.40931
-38.5887 -72.6144 -5.84824
-37.5378 -75.1822 -5.75681
12.5182 -10.4178 -1.09658
16.9666 -12.3575 -1.41942
-40.3359 25.1101 -3.1061
42.784 -10.9536 -2.89976
-28.9997 -13.6364 -1.91892
-42.5981 -82.2975 -5.61258
14.4358 -11.254 -1.10333
30.7644 -20.2661 -2.01415
30.7491 -19.3799 -1.98764
15.2545 7.53387 -0.882445
14.6966 7.793 -0.854978
-13.0934 17.8677 -1.12404
-25.6923 -56.6955 -3.19858
-44.7024 -84.2492 -4.65841
9.62617 -9.06593 -0.66162
13.3892 -10.6477 -0.840576
15.854 10.0856 -0.887324
16.1379 11.3112 -0.917141
6.79379 -12.4603 -0.675236
-20.1833 -5.95543 -0.903283
-30.9674 -55.1868 -2.7927
10.1701 -13.7301 -0.698778
17.9332 -12.9324 -0.904064
42.0257 -10.7349 -1.72678
-9.4428 -12.4893 -0.604009
43.5124 -10.189 -1.75796
21.7997 26.2078 -1.1619
-33.4095 22.8383 -1.40192
-37.0783 -20.7919 -1.38372
-18.8609 -47.0054 -1.62811
16.3842 -12.2234 -0.667367
14.3215 3.87922 -0.437468
-27.0941 -62.2592 -2.03706
-23.2372 20.6994 -0.888441
-12.7206 -38.5721 -1.09284
42.4374 -9.01487 -1.21376
-43.1029 26.81 -1.37139
-55.8654 20.0881 -1.42116
43.0986 -10.0078 -0.952287
-31.6949 23.953 -0.793229
-30.8852 9.82363 -0.676991
30.207 52.8872 -1.11776
-30.9179 22.8181 -0.735147
12.9128 -10.5804 -0.289518
-35.2114 -21.913 -0.642788
-31.9935 -64.3425 -1.07088
17.3784 -12.5329 -0.311669
-13.0049 -39.3164 -0.535316
-14.5211 18.4337 -0.238644
-20.79 -47.7799 -0.567349
29.8906 -18.7214 -0.318734
-23.225 20.7217 -0.210374
-9.98389 -12.814 -0.0491168
6.98655 -11.6542 -0.0236554
14.5248 7.59567 0.000741908
-36.2506 -22.3846 0.227103
-24.54 -41.9424 0.357183
-55.1393 30.2058 0.644585
6.65783 -11.8128 0.140367
7.98342 -9.07705 0.120713
-41.9657 -22.3112 0.522615
-11.7715 -33.336 0.393348
11.0569 -9.63838 0.19217
-23.6088 20.1724 0.409899
-12.5252 -19.4333 0.335882
-31.935 22.7246 0.69969
-35.9191 -24.0809 0.773947
-35.4352 -26.1775 0.768664
10.5935 -9.51993 0.232284
7.76442 -9.57076 0.264755
7.87185 -9.18781 0.260989
-73.6825 25.5142 1.82498
17.9723 -13.0461 0.540527
-29.097 -8.74155 0.813614
-28.6327 22.4536 1.04977
11.5331 -9.88108 0.414126
17.1702 -7.44275 0.532739
-25.5734 21.6892 0.999987
-7.94387 -9.31543 0.389744
12.5576 13.653 0.660032
6.10352 -12.5757 0.491854
8.8804 -8.73847 0.425677
24.3321 -4.31167 0.826353
18.262 17.4399 0.912193
13.5497 23.456 1.01922
-58.5503 19.2453 2.22088
24.1435 -4.69003 0.93165
-26.0438 21.2746 1.27293
9.34605 -8.89106 0.498659
22.2014 -3.05865 0.846602
12.0616 13.97 0.75592
14.5265 18.7698 0.972402
6.47862 -12.2834 0.570063
17.2095 39.7759 1.81024
7.61284 -10.9702 0.562881
-7.58315 -7.46466 0.470337
-8.33351 -11.5296 0.635691
-30.0078 -11.8792 1.53753
16.2185 10.5287 0.96391
-7.76029 -7.2206 0.50787
14.9562 23.2358 1.42832
-6.98557 -8.22348 0.593323
14.2837 19.5595 1.32768
-26.6804 20.5447 1.86385
14.0967 22.9574 1.56044
-7.16168 -9.23191 0.667811
6.76562 -13.4073 0.862137
9.77939 12.3011 0.930456
14.4406 19.186 1.50591
14.6229 26.025 1.83858
9.96907 27.9576 1.88818
-7.34699 -10.0278 0.795352
9.25756 21.097 1.54676
11.3062 9.94538 1.07354
11.3163 11.9667 1.16293
13.4923 15.5906 1.47583
8.13475 -12.5396 1.05523
10.6603 8.89864 1.02194
12.7067 14.2518 1.42901
-14.5394 8.57417 1.27751
-11.2034 2.11059 0.863151
12.2291 15.9188 1.55818
11.3534 18.0938 1.65918
10.0533 -6.87992 0.951178
-7.7098 -8.15588 0.89805
12.5973 11.4032 1.38624
11.7082 11.454 1.35989
-7.03462 -6.18942 0.761677
-7.08862 -6.93155 0.822626
11.3193 11.8156 1.41121
10.5244 9.27101 1.27522
-11.4825 2.94028 1.09007
-7.6557 -7.1306 0.940181
11.5191 8.88822 1.39336
9.0731 12.8303 1.50915
7.06226 12.9948 1.44971
8.28094 12.8752 1.53533
-6.77112 -6.74739 0.950441
7.83939 -6.51628 0.997771
9.54315 11.9531 1.53312
9.8155 10.0266 1.44933
-6.90683 -5.42184 0.914097
9.50721 9.05305 1.3997
8.07879 10.9836 1.42936
6.63541 12.866 1.54241
9.48905 8.28022 1.33322
9.06693 10.0986 1.47859
5.57958 12.2903 1.46114
-6.41454 -7.55451 1.0712
6.58088 11.2004 1.42936
5.13176 12.858 1.52733
-6.84798 -3.99394 0.875845
-6.72118 -6.10001 1.00034
3.91287 -7.75465 0.961604
5.43091 -6.0845 0.916343
9.26424 7.45793 1.33682
8.95394 9.52888 1.47462
7.80312 11.114 1.5181
6.67428 10.5331 1.42204
-6.90202 -4.58449 0.940119
4.69693 -7.66346 1.03858
-10.7419 7.20117 1.50213
-7.11263 -2.13995 0.864881
8.93304 6.03455 1.28267
5.78158 11.7999 1.55289
4.88198 11.2898 1.45064
4.76667 -5.8548 0.888629
4.10389 -7.8685 1.07913
8.28076 3.83546 1.14396
10.8653 5.41944 1.49238
4.45764 12.402 1.64021
-6.1773 -5.40463 1.00707
-9.19014 1.31003 1.1578
8.17003 7.47231 1.40134
-6.45781 -5.33715 1.06004
7.70234 8.0898 1.43613
-6.90874 -3.58432 1.00826
4.96048 -5.9573 1.00083
5.01638 -5.41962 0.962894
8.31821 6.84377 1.42695
7.8546 7.76675 1.46971
-7.22808 -1.72985 1.00199
-7.05421 -2.2167 0.991407
-6.50591 -4.38661 1.04283
4.82284 -6.07929 1.03265
8.30728 6.29597 1.41782
-6.87199 -4.23167 1.0879
-6.06597 -4.4572 1.01282
4.94306 -5.53009 1.0185
7.39271 -3.51131 1.1391
8.30027 4.21402 1.32222
8.26173 4.53985 1.33767
-6.96205 -2.91641 1.07983
7.45948 -3.72303 1.19044
7.00156 -3.04845 1.07722
4.93369 -5.78022 1.09698
8.1649 -1.72766 1.20864
-6.98142 -3.26819 1.14385
7.32338 5.5183 1.37725
5.68419 7.3387 1.40199
7.92791 3.88472 1.34901
7.84804 4.16198 1.35063
5.36296 7.70076 1.42666
5.00279 8.54547 1.49599
3.42781 9.37579 1.5057
-7.03096 -2.8359 1.15638
7.65911 -2.78631 1.24841
7.82203 -2.22911 1.25518
7.77199 -2.01066 1.24045
7.40776 4.17235 1.37092
7.01109 4.71433 1.3883
6.68619 4.87315 1.37571
5.32504 6.38109 1.383
-7.23236 -1.36581 1.21938
4.92759 7.23632 1.461
4.6626 7.13611 1.43082
-7.24831 -0.807401 1.22194
2.86793 -5.93377 1.111
6.65117 4.05863 1.33125
6.45048 5.1815 1.40504
3.77475 7.81165 1.45584
-6.39823 -2.3076 1.1546
-6.30335 -2.68969 1.16939
3.77329 -5.24152 1.09956
-6.99801 -1.80208 1.26346
4.2353 -4.64214 1.10428
6.62261 3.48729 1.35166
5.01181 5.54347 1.36568
3.63331 -5.36213 1.17951
3.31424 6.64541 1.38418
6.45853 3.03064 1.35531
6.39401 2.69985 1.32507
-1.64876 -5.70676 1.14063
-2.17124 -5.76437 1.20126
6.22311 2.3659 1.33071
3.94007 -4.58157 1.20188
-3.01792 5.6351 1.36464
-3.64169 5.23937 1.39208
4.20987 -2.92838 1.20534
-4.29409 3.94448 1.42194
4.58708 -2.18725 1.23331
4.47812 -1.26914 1.15726
3.71115 -2.93746 1.23285
3.68094 -2.58625 1.19344
3.42821 -2.98058 1.2259
-2.31866 -3.6131 1.20642
-2.49682 -2.92445 1.19681
1.87624 -2.49666 1.13361
1.93778 -2.65474 1.1983
-2.04613 2.8095 1.3185
-2.06972 -1.46262 1.19683
-1.82238 -1.82857 1.3018
-1.97433 -1.17088 1.20941
9.63982 -9.01735 -9.34418
9.20511 -8.89273 -7.62784
2.44732 -20.0876 -10.7468
3.66632 -9.28616 -4.50219
26.0693 32.3855 -13.958
2.06275 20.3995 -6.07739
9.4746 -8.74134 -1.61169
8.72858 -8.60063 -1.22892
8.8778 -8.75619 -0.92457
18.9964 -13.4503 -1.27331
42.7995 -11.4957 -2.29523
9.98843 6.87451 1.28753
-3.51608 5.3507 1.37662
7.95712 -8.21514 -10.261
7.8183 -8.24105 -10.0008
8.34638 -8.43622 -9.82887
6.81631 -11.7702 -11.176
7.94767 -8.20714 -9.03826
7.98729 -8.68484 -9.06877
6.19695 -14.1125 -11.5978
5.84702 -14.1306 -11.199
9.05174 -8.7997 -9.25578
7.60418 -9.17822 -8.6396
7.83224 -9.08189 -8.57445
7.19116 -10.6563 -9.14876
10.1834 -9.27095 -9.65487
6.40319 -11.0378 -8.71987
8.14134 -9.04043 -8.15899
7.31275 -9.29533 -7.89504
7.93202 -9.1722 -7.97332
5.02173 -15.9343 -10.7784
-0.521366 14.3582 -9.22201
7.27744 -10.7511 -8.32914
7.58368 -9.1067 -7.58338
10.9478 -9.76909 -9.31637
7.02916 -10.8872 -8.07839
8.16523 -8.57207 -7.35543
0.114929 14.3685 -8.75602
7.73944 -8.70484 -7.01844
11.4366 -9.70958 -9.05409
8.94696 -8.87593 -7.44896
6.55512 -12.8026 -8.48604
5.49925 -13.9449 -8.81046
7.02697 -11.0582 -7.52177
5.10205 -12.8131 -7.7453
3.1585 -19.3075 -10.9706
6.59041 -11.0607 -7.21571
7.82972 -9.02548 -6.70098
12.1293 -10.1601 -8.84925
9.66327 -9.46654 -7.41887
13.2073 -10.588 -9.1316
14.9802 10.2598 -9.75324
14.9662 7.35323 -8.90986
13.7971 7.60661 -8.33159
11.3659 -9.80903 -7.71517
2.36511 -19.5013 -9.92386
10.634 -9.53337 -7.1857
7.32233 -9.24863 -5.91862
14.0419 -11.1376 -9.02576
17.9399 -12.8283 -10.7316
18.5129 5.7162 -9.41345
2.66345 -19.5719 -9.5926
12.7977 -10.5729 -8.0272
15.3161 -11.6614 -9.33977
7.2787 -10.7306 -6.24576
14.9314 7.31921 -7.73787
7.06682 -10.872 -6.04454
6.20423 -10.5983 -5.68837
9.97784 -2.50368 -4.72929
17.2721 -12.6205 -9.83036
-11.9007 17.0848 -9.49167
3.53745 -9.02284 -4.3909
-10.3118 16.8607 -8.8834
15.9078 7.19483 -7.81159
-11.3506 17.2704 -8.91467
-7.08478 6.87192 -4.25155
-6.50067 6.4851 -3.90944
1.19615 -15.4344 -6.58133
19.7703 20.482 -11.9453
16.1378 -12.1968 -8.50688
15.0835 7.4124 -7.02249
-10.0948 -1.10156 -4.21711
19.7379 21.4843 -11.978
14.0288 7.75113 -6.52298
16.3206 7.35087 -7.19039
14.9316 7.68316 -6.73523
1.48583 -17.9136 -7.01986
18.5721 5.73036 -7.52175
19.2719 21.5052 -11.1671
0.77008 16.2475 -6.24842
0.711064 -24.2341 -9.22078
16.8193 -12.4408 -7.82645
14.0888 7.86702 -5.83251
0.537559 -22.7124 -8.0071
-4.09038 13.7619 -5.03951
-10.7118 16.4639 -6.87614
-0.870034 -23.0269 -8.0998
-15.1751 18.7276 -8.3375
-8.99869 16.2573 -6.37812
-5.06925 14.4446 -5.16225
1.2711 17.5571 -5.86451
-5.39931 14.3905 -5.06855
38.1254 -19.5896 -14.1529
12.4282 -10.2802 -5.19855
7.99778 -9.16325 -3.89744
7.38531 -8.77219 -3.55001
-4.28549 14.4305 -4.5314
11.4955 -9.74975 -4.55028
15.0236 9.45581 -5.08311
13.5942 -10.615 -4.94962
-5.57209 14.8588 -4.46811
-13.604 18.2582 -6.42658
15.5748 10.5273 -5.17715
-9.72325 16.3406 -5.05455
-27.4448 21.2564 -9.06556
-24.1683 20.3023 -8.1657
-7.22808 15.3452 -4.33851
-8.02798 15.578 -4.27467
-26.3936 20.829 -8.1938
-3.32655 13.6175 -3.35789
-11.8732 17.2277 -5.00142
3.1012 -9.52493 -2.36932
14.6907 7.83641 -3.92988
-33.7668 -26.5087 -10.0665
5.37629 -11.5928 -3.01138
48.7302 -11.753 -11.6513
-7.39541 -36.1693 -8.48224
-9.85336 16.5261 -4.39927
14.9923 7.34613 -3.78168
-30.563 22.2206 -8.38905
-12.6288 -45.1926 -10.3039
3.71663 -9.39027 -2.22464
42.063 -10.6581 -9.37502
-35.2648 -23.1616 -8.99205
-14.9755 18.5831 -4.95683
14.5698 7.78175 -3.43008
-32.3347 -24.4673 -8.34688
