ply
format ascii 1.0 
element vertex 1878
comment /media/mkaihara/Seagate Backup Plus Drive/model_iterations/model_71.ply
property float32 x 
property float32 y 
property float32 z 
end_header 
4.71787 13.673 1.56103
4.22973 -8.04431 0.984628
6.41364 10.7299 1.37569
-6.80896 -3.92928 0.865524
6.28914 11.7922 1.48289
-6.90309 -3.8675 0.8768
9.66458 7.17099 1.34591
6.61348 11.287 1.45703
9.75989 6.99769 1.34928
5.38304 11.4754 1.43324
5.3853 11.9744 1.48301
4.65188 12.1057 1.46739
9.79104 6.65472 1.34934
-6.90013 -4.56913 0.947999
7.39436 -6.21971 1.10148
-7.34191 -0.78667 0.846968
-6.28198 -5.39668 0.953996
5.24612 -5.56484 0.882572
8.83173 7.85156 1.37688
4.41487 -7.17798 0.976331
10.3745 5.13601 1.3558
8.91569 7.75614 1.38925
5.1976 -5.60853 0.903488
8.56029 7.87961 1.38067
8.85248 9.00586 1.47759
-7.05753 -5.65889 1.07055
10.1053 4.73177 1.32957
-6.92692 -3.8564 0.955495
9.10497 6.12069 1.33075
5.16393 11.3191 1.50821
-6.90135 -3.0692 0.918003
-6.88568 -3.25541 0.921319
4.87878 -5.94996 0.93925
5.96827 -6.1233 1.0412
9.33904 5.60167 1.34636
8.42542 7.19308 1.36984
-6.95901 -4.31589 1.00897
-6.89035 -4.54065 1.01727
8.2158 8.54069 1.47039
4.98647 11.2141 1.52395
-6.55881 -5.62513 1.07554
3.70645 -7.56974 1.05046
8.46365 7.70676 1.43243
6.07281 -5.61274 1.03688
9.13201 6.03804 1.38748
-6.14187 -5.41955 1.0338
8.51493 6.58718 1.37301
8.05177 7.47571 1.39777
-7.10994 -1.78518 0.937958
-7.02211 -2.30886 0.944365
-6.45356 -5.32543 1.06776
8.79736 5.64005 1.3398
8.1156 8.00659 1.46946
-7.27334 -1.25494 0.946794
-6.90633 -4.12401 1.04022
7.40351 6.19751 1.25062
8.04418 7.01114 1.3838
7.93001 8.08562 1.46769
-6.91844 -2.82954 0.97344
-6.91972 -2.96959 0.973816
4.51636 10.0014 1.44219
8.97022 4.09833 1.29823
-7.25695 -1.60822 0.977183
6.8328 -4.25497 1.06988
4.92657 -5.94168 1.02342
-7.34289 -1.11865 0.994606
-7.02249 -2.20195 0.984828
-7.05969 -2.2713 0.991115
-6.00066 -4.40245 0.994891
5.18462 -6.56007 1.11448
6.90338 -4.17186 1.08601
8.03799 7.13869 1.45649
-7.16005 -1.72033 0.990351
-7.09104 -1.95804 0.989776
8.76477 4.83886 1.35991
8.30104 5.85133 1.38096
-6.92925 -3.62335 1.06581
8.83997 4.14883 1.33952
3.31256 10.4107 1.49555
-7.32222 -1.2015 1.01612
-6.01594 -4.44578 1.02908
-5.99643 -4.5447 1.03032
7.14043 -3.93004 1.12035
8.0396 6.45988 1.42646
5.32231 8.99565 1.44741
-6.389 -4.32606 1.05806
4.93187 -5.52469 1.02889
7.17797 -3.82585 1.13214
7.55095 -3.68213 1.1625
3.58764 9.9526 1.47308
3.40128 10.234 1.50344
-7.37887 -1.08355 1.04159
-7.08181 -2.00611 1.02609
4.97136 -5.28666 1.01457
7.23952 -3.73392 1.14448
7.35552 -3.66853 1.16591
7.86309 -3.35254 1.2153
-7.16307 -1.87691 1.05349
-7.01589 -2.94914 1.10324
-6.01374 -4.37768 1.0701
7.89759 -2.77963 1.22509
8.2086 4.60721 1.37927
4.96423 8.50409 1.44325
8.34577 4.49423 1.40105
7.8233 -2.33865 1.20377
7.12286 5.67016 1.36346
2.93612 9.37153 1.46825
-7.10172 -2.02175 1.10705
7.47818 -3.10736 1.22092
8.20545 4.53477 1.42122
5.76106 7.4091 1.42523
5.26696 7.59842 1.40888
5.10196 7.90454 1.4291
5.05498 8.01166 1.4338
7.3289 -3.16772 1.21957
7.6735 -2.75404 1.24162
-6.76288 -1.68448 1.0502
7.82525 -2.255 1.24893
7.21369 5.41018 1.38472
-7.11128 -1.95456 1.14487
-6.92711 -2.7888 1.16102
6.79457 5.5112 1.37239
-7.36457 -1.09712 1.16345
-7.15224 -1.8262 1.15651
-7.0541 -2.06975 1.15228
-7.12881 -1.87456 1.15716
-6.90218 -2.9373 1.17796
4.78945 7.42626 1.40542
3.4464 -6.03218 1.10941
-7.28456 -1.301 1.18588
3.52828 -5.70805 1.0811
3.56523 -5.61354 1.07051
7.06151 4.75992 1.38782
4.64378 7.34974 1.41498
-7.07887 -2.02574 1.20041
-7.101 -1.94912 1.20877
6.95703 4.82084 1.39994
3.80078 7.89583 1.45082
6.05236 -3.31883 1.14992
6.62549 4.86724 1.37087
4.64672 7.14191 1.42136
3.83659 -5.30083 1.09986
7.09825 4.42013 1.40811
7.47002 2.85638 1.3517
6.3119 5.27649 1.39446
-7.28817 -1.25731 1.25993
6.74753 4.07953 1.35426
-6.45655 -2.77443 1.19948
5.50936 -3.62962 1.1334
5.69054 -3.51845 1.14876
2.74127 7.81202 1.43127
-7.38227 -1.04092 1.293
5.33372 -3.78339 1.13998
-6.31642 -2.26165 1.16382
-6.27672 -2.41881 1.17825
4.28133 -4.6649 1.10729
4.49419 -4.47739 1.11287
4.59182 -4.44917 1.12175
-6.80839 -1.73446 1.23812
4.32187 6.484 1.39012
-7.16873 -0.929483 1.29264
-6.1492 -2.25963 1.16737
6.63536 3.68966 1.36111
6.09495 4.35821 1.3592
3.60916 -5.32816 1.17039
5.13998 5.67669 1.40081
2.50528 7.1689 1.42644
6.48235 3.05089 1.35473
-1.70644 -5.78282 1.14144
6.42615 -1.38593 1.24738
6.27127 2.77706 1.3206
6.21701 2.38097 1.32833
-4.46611 3.95218 1.40284
4.3226 3.53232 1.33527
4.20852 3.29021 1.32254
4.66514 -1.67774 1.24491
4.81854 -1.38091 1.254
-2.15454 4.82844 1.32178
3.72784 -2.95364 1.22271
3.67395 -2.55014 1.19394
3.40762 -2.96259 1.2262
4.00065 2.56708 1.32841
-2.5938 -3.53339 1.25093
-2.32515 -3.56933 1.21619
3.75165 2.05602 1.30068
3.72842 1.97848 1.30015
-2.85128 3.49677 1.39264
-2.29528 -2.41824 1.18722
1.95726 -2.78367 1.21395
-2.12854 2.77448 1.32909
-2.03321 2.76249 1.33525
2.25235 -1.87097 1.22617
2.38158 -1.4991 1.22306
-2.01858 1.87999 1.29892
-2.06334 -1.44232 1.22835
1.45122 -2.07229 1.24687
-1.99139 -1.08727 1.21448
-1.92404 -0.707379 1.22016
-1.9258 -0.703178 1.24576
-1.95518 -0.344244 1.2293
-1.89209 -0.564472 1.23013
-1.89172 -0.530695 1.23523
8.21003 -8.68894 -7.45645
12.0903 -10.2573 -8.77468
-8.84296 15.7871 -7.02238
20.3512 24.7818 -11.5185
-8.81903 -2.52563 -2.58493
-34.8165 -23.2576 -7.7344
-34.4048 -22.4998 -6.06541
-34.1354 -23.1978 -6.12887
-31.4581 -20.1752 -2.81035
9.26475 -8.82444 -0.390945
-7.80001 16.8129 -0.45725
-29.6606 -11.4777 0.732822
-6.93086 -8.28356 0.461431
16.4946 23.6854 1.56833
11.2928 15.8819 1.61195
-6.70366 -6.67667 0.884845
4.18382 12.1399 1.47969
8.68836 9.05016 1.46754
7.96937 -8.76073 -10.3757
8.82825 -8.53606 -10.493
6.95398 -11.9324 -11.5095
6.86972 -11.3458 -10.8917
8.14936 -8.26163 -9.52916
7.01936 -12.0249 -11.3224
7.06335 -10.9689 -10.4524
7.99911 -8.37455 -9.20044
6.72505 -11.2808 -10.2854
6.44286 -11.6932 -10.2097
7.75464 -8.84757 -8.96912
6.20298 -14.3112 -11.8039
8.29515 -8.69737 -9.09766
6.29762 -11.9052 -10.1722
6.14539 -12.0844 -10.1097
7.48828 -9.44168 -8.99779
7.90667 -9.05294 -8.9238
10.4579 -9.44133 -10.4789
6.11858 -14.111 -11.3686
6.10043 -13.6669 -11.0042
6.12916 -12.5729 -10.2881
9.19004 -8.81965 -9.34412
9.27779 -9.06616 -9.46129
5.86297 -12.5016 -10.0311
9.35364 -8.98293 -9.25543
6.85822 -11.1207 -9.27279
5.61389 -12.9666 -10.001
9.68322 -9.07297 -9.40428
7.60604 -9.34059 -8.4693
9.98783 -9.1781 -9.52968
10.9067 -9.48433 -10.1422
11.4277 -9.68755 -10.0613
8.3812 -8.60447 -7.9526
7.42801 -9.29533 -7.86201
8.16398 -8.71474 -7.89316
7.62493 -9.34821 -7.89261
7.83371 -9.39831 -7.84176
8.31709 -8.53183 -7.61686
0.360753 15.8792 -10.1336
7.52462 -9.32039 -7.62311
10.8987 -9.59667 -9.23324
7.22203 -10.6964 -8.16868
8.152 -8.49411 -7.42478
4.61207 -15.4041 -10.113
8.71017 -8.69736 -7.61576
7.91832 -9.02902 -7.4078
4.04761 -18.0173 -11.3752
8.19456 -8.62424 -7.27297
4.08579 -17.308 -10.8516
0.146582 14.885 -9.05688
6.65125 -11.2573 -7.96096
7.73966 -9.26461 -7.32492
10.1148 -9.30254 -8.33868
6.81741 -11.2463 -7.89536
8.05698 -9.20049 -7.34115
11.2545 -9.68445 -8.8773
5.39881 -13.8527 -8.81797
7.73184 -9.2625 -7.15542
9.34456 -9.02735 -7.69905
6.89888 -11.1101 -7.74039
7.97998 -9.12417 -7.11268
9.74458 -9.17985 -7.80219
14.8158 7.40322 -9.61838
8.66225 -8.82594 -7.14592
6.92948 -10.9594 -7.45218
2.63917 -11.2095 -6.62324
7.85644 -9.06774 -6.87161
9.59679 -9.13226 -7.52536
10.7815 -9.48537 -8.10099
3.27942 -20.6005 -11.731
6.798 -10.9775 -7.23878
10.0961 -9.28212 -7.68055
12.3199 -10.3375 -9.01907
9.23357 -9.00091 -7.20556
4.61336 -14.2864 -8.36995
7.99963 -9.21154 -6.77597
14.7379 7.53471 -9.08664
9.68881 -9.09898 -7.29987
0.837591 17.4658 -9.54817
2.7416 -19.859 -10.9314
11.1168 -9.63353 -7.98709
4.23014 -14.4119 -8.13075
14.6515 7.66196 -8.90524
15.034 10.3797 -9.80818
13.9887 7.7172 -8.53585
10.9369 -9.60591 -7.7409
13.2393 -10.7813 -9.08268
3.04389 -19.335 -10.2897
11.3403 -9.81162 -7.63034
2.16842 -20.3839 -10.3465
10.2484 -9.33054 -6.96948
14.2399 -11.2632 -9.11599
13.7764 -11.1429 -8.87057
10.9923 -9.64143 -7.28469
7.50301 -9.33095 -5.92959
3.562 -8.46565 -4.52639
-8.71655 -1.91385 -4.38772
2.22372 -20.1688 -9.9522
4.53041 -9.29623 -5.05766
0.404436 13.6557 -6.6872
7.60194 -9.26297 -5.8475
-8.54773 16.3135 -8.92036
-9.21872 -2.43708 -4.59457
14.9579 -11.551 -9.08228
19.316 5.52666 -9.60765
-10.3366 -2.5592 -5.0368
1.90923 -20.558 -9.8176
17.1322 16.0993 -11.1337
7.57424 -11.1979 -6.37918
19.9643 5.38869 -9.73782
13.9984 -11.0829 -8.30308
2.92634 -17.3179 -8.16699
19.2934 5.70845 -9.29464
17.7881 -12.9634 -10.1674
9.84988 -2.48793 -4.6939
20.218 5.12445 -9.62272
17.2563 16.2269 -10.9142
1.81013 -20.2312 -9.296
9.66022 -9.03323 -6.05627
-9.22881 -1.67513 -4.27773
9.43858 -3.46332 -4.57898
6.70461 -11.3026 -5.97768
9.89704 -2.61414 -4.64299
19.1864 5.8505 -9.02998
17.6357 17.4925 -11.1655
9.35495 -3.08162 -4.43334
15.3874 -11.8405 -8.71333
7.02761 -11.5465 -6.04619
7.14241 -10.9033 -5.8101
9.54453 -3.39948 -4.51498
-10.0765 16.5167 -8.61417
17.5975 -12.8429 -9.68121
19.4719 5.60931 -8.98113
16.0576 7.2834 -7.80746
17.7414 17.9195 -11.1511
16.3789 -12.1814 -8.99679
-11.3457 17.2535 -9.07693
-6.6085 15.1036 -7.22884
-5.25139 4.92564 -3.13728
20.0669 5.44847 -9.03954
9.54348 -3.39976 -4.37212
18.1311 18.3764 -11.0945
15.7777 -12.1418 -8.56715
14.8221 7.41086 -7.07195
3.83566 -9.29513 -4.27235
-11.2674 17.1372 -8.68315
6.93501 -10.8919 -5.44488
-13.6347 3.34151 -5.91468
0.743196 -22.4075 -9.44793
15.7651 -11.9368 -8.26999
-5.18212 5.70651 -3.2253
0.998842 -22.2714 -9.34529
1.23147 -20.7866 -8.72355
14.1332 7.57993 -6.7074
18.457 19.2342 -11.137
3.78014 -8.94874 -4.05116
14.7339 7.71002 -6.92153
17.8306 19.043 -10.8252
-9.53279 -1.0941 -3.961
4.00531 -8.49833 -3.84922
14.0002 7.73038 -6.56472
6.83448 -10.9719 -5.28495
-13.6725 2.55409 -5.69003
-8.03624 15.5692 -7.12048
19.1495 20.8077 -11.4553
15.0353 7.22438 -6.72051
-5.31655 14.5207 -6.20033
13.9187 -11.0041 -6.94983
1.52966 19.2044 -7.48167
-8.83107 15.9501 -7.08539
18.9343 5.77428 -7.66953
-1.76002 13.3398 -5.21184
5.29071 -9.38523 -4.15496
-2.3953 13.5644 -5.29073
19.4703 22.5231 -11.4149
4.65745 -8.50989 -3.68421
19.3588 5.55364 -7.66334
0.877756 -26.5952 -10.1122
14.8657 -11.4556 -7.06315
19.9153 5.39542 -7.72212
9.42942 -3.43547 -3.75201
0.533895 -22.7438 -8.47773
3.24448 -10.7814 -4.20651
20.0635 23.3418 -11.4294
0.909905 -8.7247 -3.25302
13.9935 -11.0822 -6.58231
20.3215 5.16853 -7.70938
17.7961 17.5844 -9.14185
-13.0837 2.29214 -4.82927
20.705 24.7248 -11.6954
2.28426 -13.244 -4.84197
13.0054 -10.5173 -6.01883
0.796014 15.4201 -5.52434
-8.2134 -2.80287 -3.10417
0.410069 -21.9013 -7.83015
-4.25446 13.9647 -5.1931
0.638488 -21.9667 -7.80944
15.8111 -11.9416 -7.02303
-15.9179 18.4025 -8.57558
5.92186 -11.326 -4.49397
-11.1488 16.8248 -7.05005
0.0932539 -18.5519 -6.5212
14.2295 -11.2772 -6.34884
20.2764 5.33998 -7.31842
0.657947 -23.0932 -7.97837
-5.06581 14.7074 -5.33035
3.63716 -8.44338 -3.16466
4.8728 -9.02624 -3.51508
-14.6784 18.2236 -8.0101
2.27376 -10.8809 -3.80947
-8.98889 16.3068 -6.34781
3.02233 -13.6751 -4.77518
-15.1591 18.6063 -8.13669
20.0949 5.46352 -6.99916
21.8784 27.0646 -11.6302
35.8299 -20.2262 -13.7503
-5.36354 14.2273 -5.05047
1.90973 20.6846 -6.89189
1.26714 -10.2471 -3.41398
-5.3098 14.622 -5.0532
-12.7379 17.4385 -7.00608
18.4991 -13.1823 -7.37696
3.55853 -8.66963 -3.00469
6.21291 -10.1018 -3.80079
2.31268 -11.0048 -3.57858
-4.60436 -34.5808 -11.0874
-1.14517 -23.9815 -7.64191
14.9701 10.31 -5.73607
-13.3697 17.791 -7.03485
-18.2185 19.6504 -8.4241
6.95158 -11.0786 -4.04371
1.38652 -21.9317 -6.79799
-2.5948 -27.6306 -8.51803
7.12982 32.9225 -10.2782
0.771053 15.0098 -4.56477
-11.2696 17.0041 -6.14907
-2.72473 -26.7485 -8.09639
-14.5209 18.1558 -6.93734
-5.34927 -35.0713 -10.5626
0.840117 -25.1456 -7.52251
-5.4564 15.0087 -4.75105
2.07497 20.6334 -6.10925
-21.5456 20.0897 -8.69171
18.1591 5.77862 -5.60896
-4.3433 14.5903 -4.47659
-8.02165 15.563 -5.13743
4.25256 -9.13637 -2.96201
4.63123 -11.6045 -3.65353
-12.6604 2.23029 -3.69471
-33.5222 -47.4842 -16.7245
-15.3831 18.5061 -6.9184
6.94792 -11.066 -3.76188
2.56232 -9.54079 -2.80696
12.9083 -10.4484 -4.72619
-8.46397 -2.46328 -2.49955
20.9178 26.9768 -9.67079
-8.59188 -2.2645 -2.51077
-2.57867 -26.3083 -7.41762
-13.0687 2.00261 -3.68188
4.38252 -11.3158 -3.36821
-9.42331 16.2061 -5.14729
-13.2173 17.6279 -6.05217
-5.45832 14.5689 -4.25295
-8.63364 -41.9239 -11.7103
-21.7408 20.2882 -7.99464
-9.84872 16.3317 -5.11153
-27.0552 20.7833 -9.07658
11.3971 11.4708 -4.26627
4.32153 -11.2816 -3.20057
46.7416 -13.5878 -12.8954
-8.3356 -39.3343 -10.5673
4.08612 -8.65021 -2.51906
11.1525 -9.91964 -3.90466
-14.6289 18.3168 -6.0959
6.52913 -10.4123 -3.1811
3.1757 -9.63908 -2.62371
-30.5996 -44.8162 -14.012
-4.41734 -28.9715 -7.58156
3.53746 -10.3618 -2.82331
4.06479 -9.37934 -2.62747
15.5666 -11.705 -4.96958
-7.2455 15.4366 -4.31683
-32.0334 -42.7205 -13.5397
4.30655 -11.1308 -3.02077
4.25258 -7.69982 -2.23867
6.5278 -10.648 -3.11492
44.4567 -13.441 -11.5799
-28.6337 21.603 -8.86826
-11.6697 17.1451 -5.11333
-27.9944 -40.8376 -12.1731
-10.0561 -39.5794 -10.0722
-24.7851 20.8175 -7.95457
4.34508 -10.3203 -2.7513
-12.2092 17.4885 -5.17192
-7.94021 15.4713 -4.19199
10.2598 -9.25443 -3.3084
39.9997 -13.2869 -10.0863
15.0758 7.53952 -4.01258
-6.41025 -36.7074 -8.87561
3.96249 -9.08031 -2.34758
46.615 -12.4761 -11.4532
-12.3873 -45.608 -11.1946
4.19687 -8.97981 -2.36472
3.85202 -11.0483 -2.75775
4.90413 -8.68568 -2.34655
-12.9327 17.6243 -5.08788
10.9895 -9.63066 -3.3398
-6.27097 -31.7984 -7.39461
-27.4894 21.2315 -7.87385
41.2247 -9.01553 -9.57657
-30.8875 22.426 -8.55821
-35.7874 -23.4524 -9.58693
40.427 -12.4972 -9.50104
5.4484 -9.46352 -2.43811
-12.4491 2.84061 -2.80178
40.3003 -11.8099 -9.27884
42.2546 -12.0565 -9.66762
-5.44738 14.2933 -3.3451
13.3613 -10.7517 -3.77508
37.8 -12.1477 -8.72875
-23.6697 20.6294 -6.81092
-30.4492 -75.069 -17.5766
4.30414 -9.68759 -2.29889
4.53398 -9.16984 -2.2096
-14.752 18.3796 -5.03345
-31.3326 22.7594 -8.26952
-32.2251 22.869 -8.44729
-29.0949 -77.192 -17.6806
-10.818 16.9042 -4.25601
-8.57484 -36.3982 -7.9511
3.1862 -9.67288 -2.17177
3.96073 -9.81571 -2.25693
45.4071 -10.5276 -9.9502
14.9086 7.46749 -3.53475
-15.3348 18.8774 -5.14969
5.15838 -9.04499 -2.18766
26.3022 38.055 -9.66601
14.9475 7.82276 -3.50241
-30.4277 -23.4995 -7.97517
-34.2394 -87.7906 -19.5068
-11.5828 17.0661 -4.19177
-15.8012 18.6823 -4.98168
-35.6415 23.9251 -8.72314
44.0655 -9.61156 -9.19759
-13.5167 -43.4924 -9.25556
4.13021 -9.72103 -2.14899
11.5822 -9.62794 -3.06446
-12.1357 17.4157 -4.23776
-20.4297 -58.6324 -12.4077
-13.1963 -40.9925 -8.52522
4.06415 -9.90763 -2.12035
-34.444 -23.5525 -8.22546
-27.0428 21.2242 -6.76618
-33.4652 -23.9382 -8.02033
-6.97377 15.4108 -3.28383
-27.268 -64.0704 -13.5241
-33.8723 -22.5498 -7.84131
3.43134 -9.35005 -1.9233
45.4874 -10.5391 -8.96629
-12.8899 17.599 -4.17062
3.98412 -9.33313 -1.93667
-36.7933 -22.3493 -8.14891
-21.5425 -34.9952 -7.81494
-15.8998 -45.8767 -9.1862
37.6336 -12.4144 -7.49164
-36.4156 24.4578 -8.20978
-34.0135 -23.4904 -7.7652
-32.9564 -24.1122 -7.66518
-21.7949 -53.9944 -10.9552
-17.2214 -46.7775 -9.24546
3.81668 -9.19841 -1.83951
42.2415 -11.3848 -8.1243
5.75023 -9.70034 -2.06674
-25.105 -56.9262 -11.3898
-20.8798 -51.8246 -10.1048
-14.7193 18.3481 -4.17127
-31.3954 -25.3211 -7.16927
-20.4882 -27.3012 -6.10374
-39.8898 25.1709 -8.32234
-27.0533 21.242 -5.98697
-34.5011 23.6088 -7.25881
3.90386 -10.0354 -1.86725
4.76735 -8.60443 -1.70953
13.9675 7.50092 -2.73419
14.0398 8.05664 -2.77212
-31.1836 22.6763 -6.61013
41.9235 -11.861 -7.41779
41.725 -10.8064 -7.33753
-31.5526 -25.0587 -6.83498
-21.2879 20.274 -4.93681
-20.8369 -51.7921 -9.43199
14.8209 7.42821 -2.78014
-32.0656 22.7006 -6.56282
-24.1154 -57.4948 -10.3015
43.2293 -11.6456 -7.2772
-10.4622 16.6095 -3.16807
-21.1347 -52.4318 -9.01541
-35.2274 -24.3177 -6.74506
-23.0115 20.2176 -4.7967
-24.4313 20.856 -4.97876
-40.6007 24.5824 -7.35495
-11.3392 16.9714 -3.15128
3.46751 -9.5164 -1.5665
3.86311 -10.2157 -1.69117
-7.70642 15.6309 -2.66235
-31.4182 22.867 -5.94025
-32.057 -24.7599 -6.15923
-28.2039 -26.3815 -5.8504
41.9113 -10.8956 -6.58254
44.5253 -9.70047 -6.94275
-6.61578 14.7362 -2.41739
9.82158 -5.14824 -1.64581
-33.8063 -24.3829 -6.20711
10.1785 -9.15159 -2.03989
44.6636 -10.3324 -6.80828
-37.0088 -24.6362 -6.54301
-31.8129 -26.2406 -6.03235
-12.9187 -42.8038 -6.57804
16.8701 -12.2055 -3.05025
-25.6556 21.123 -4.82967
-25.271 -56.6224 -8.93445
-7.70258 15.4278 -2.46614
-12.84 17.5067 -3.09567
6.02375 -11.5084 -1.85626
-13.5491 18.1098 -3.17732
-35.1078 23.7161 -5.9566
6.74819 -11.0229 -1.80653
37.3536 -12.3274 -5.53263
-31.4405 -25.1933 -5.62274
-33.3882 23.9944 -5.69594
-21.02 -50.6615 -7.57519
44.813 -10.0251 -6.33231
-6.94997 15.3706 -2.30569
-23.2373 -60.6459 -8.82194
7.74191 -9.36912 -1.63112
-14.1452 18.0612 -3.09283
13.1888 -10.5191 -2.28274
-22.4498 20.4208 -4.08102
41.8331 -10.816 -5.73661
44.5409 -9.75626 -6.03543
-22.8317 20.0921 -3.97711
-32.9915 -24.687 -5.38201
-15.0453 18.4236 -3.07577
-34.4127 22.9686 -5.3715
-38.6703 -16.3281 -5.41969
7.00595 -10.4193 -1.61104
10.7457 8.79772 -1.78298
-34.1157 -23.5103 -5.30203
-31.7915 23.2084 -4.97921
-35.9085 -22.4072 -5.30513
41.6998 -10.7842 -5.39038
6.78565 -10.3518 -1.54673
-7.7403 15.4823 -2.14361
-25.276 21.2237 -4.04156
-33.7794 23.8067 -5.09775
6.28253 -12.0492 -1.65555
44.4939 -9.49267 -5.57268
14.962 7.83868 -2.0306
-18.284 -44.2829 -5.77668
7.07567 -10.516 -1.5262
-20.6499 9.15173 -2.67337
-14.6028 -44.1726 -5.47003
-32.1428 -24.7816 -4.7457
-31.6245 -25.2916 -4.73852
41.7805 -11.1918 -5.08388
11.2123 -9.65579 -1.71437
-30.2105 22.9069 -4.362
6.63181 -10.8057 -1.45154
7.48025 -9.20958 -1.35721
11.5633 -9.70713 -1.71487
9.44045 -4.60548 -1.18944
14.9407 7.67759 -1.89295
-10.4561 16.646 -2.21875
-32.5508 23.785 -4.51644
38.6395 -12.7196 -4.56213
9.34392 -9.01068 -1.43616
-11.1773 16.7636 -2.1905
6.77812 -12.7611 -1.56534
44.6339 -9.70052 -4.95187
10.7433 8.82835 -1.49841
16.7254 -12.4241 -2.23631
41.974 -10.8862 -4.64665
9.60549 -8.96604 -1.39216
8.36933 -8.45436 -1.24628
-31.1813 -24.9523 -4.1584
-30.8879 -61.955 -7.22165
14.9378 7.49147 -1.70718
-32.0817 -24.7371 -4.15648
-12.9848 17.701 -2.22926
-12.9 17.2829 -2.14381
10.1923 -9.07449 -1.33694
-21.3294 -54.1686 -5.70723
6.30301 -12.0705 -1.31808
16.5958 -12.1417 -1.97675
41.8634 -11.2492 -4.15541
-31.4515 -63.5754 -6.74254
-21.3233 -55.9585 -5.6869
-23.544 20.5936 -2.92423
45.3248 -10.083 -4.33717
9.70267 -8.97424 -1.22353
39.4606 -13.017 -3.87227
-15.168 18.5934 -2.17318
-29.8935 -13.6294 -2.9947
-33.0994 -64.5247 -6.68429
15.8152 -11.8375 -1.79719
8.62527 -8.71613 -1.11045
12.864 -10.6186 -1.45263
44.9142 -10.4103 -3.94978
9.38876 -9.01537 -1.09422
10.9332 -9.62808 -1.22461
-34.5388 23.7194 -3.48669
16.7951 -12.2475 -1.72183
-17.2464 -44.8782 -3.85079
14.6464 -11.4525 -1.48273
-11.8914 -33.2905 -2.79017
-30.1416 22.9183 -2.9283
-33.4611 23.6515 -3.16332
-23.1899 -52.9718 -4.46418
-51.8505 28.2192 -4.47019
-21.5989 20.3278 -2.15763
-33.6911 23.8308 -2.99078
16.3332 -12.2041 -1.49168
41.889 -11.2095 -3.15943
-40.4041 -76.4483 -6.2402
13.9421 -11.031 -1.27244
-15.827 -41.9848 -3.09683
10.7482 -9.59882 -0.987382
-23.5685 20.6364 -2.11573
12.8425 -10.597 -1.11468
17.8975 -12.9809 -1.47414
15.9972 -12.1 -1.32482
-14.9237 -41.3772 -2.84535
43.6299 -11.3471 -2.81814
-32.6384 -66.1308 -4.50035
35.6608 -8.65133 -2.2522
42.8133 -9.79924 -2.69658
6.03313 -13.0413 -0.85898
30.7276 -20.3324 -2.20514
-9.94114 16.5953 -1.13738
-15.8239 -41.278 -2.51726
16.5627 -12.3781 -1.16111
-9.71439 -12.5932 -0.871559
14.9283 7.65873 -0.907016
13.8694 -10.9791 -0.947334
-12.9072 17.4912 -1.13549
-16.7392 -41.4894 -2.3761
14.8226 7.79419 -0.820645
-16.5714 -42.3586 -2.23187
-14.2856 18.1069 -1.10299
9.55193 -9.01001 -0.602312
-24.5048 -56.211 -2.7749
12.4258 -10.215 -0.745828
-16.3106 -45.4675 -2.14474
-17.5016 -43.1204 -1.99249
6.83839 -12.6271 -0.637199
-14.1752 -43.2104 -1.93726
-53.2917 28.9819 -2.45728
18.2781 -13.1315 -0.913539
16.7527 -12.4522 -0.81307
-42.6936 -82.8643 -3.51704
-18.5904 -48.7502 -1.92178
-33.9929 23.3562 -1.50829
42.3658 -10.9161 -1.57557
-35.3408 -70.2992 -2.6328
-26.4251 -57.9107 -2.14349
20.0178 23.1516 -1.01583
-21.6421 20.2806 -0.966231
8.09164 -14.2812 -0.551414
9.40839 -8.98175 -0.421685
11.2788 -9.92936 -0.488523
18.532 -13.1035 -0.746075
34.6538 -13.0702 -1.22931
21.7832 26.3685 -1.09625
-27.5484 -13.8181 -0.965953
-23.117 20.5857 -0.943192
-32.0221 22.6796 -1.22442
-25.5298 -58.6939 -1.98269
-14.0296 -39.6892 -1.29684
-21.9805 -56.0692 -1.82378
-16.9284 -45.8796 -1.40132
-34.298 -20.7957 -1.06827
11.4279 -9.69472 -0.401528
16.2924 -12.1181 -0.535392
-41.5322 25.6931 -1.28765
-30.6016 23.2849 -0.951075
-31.1229 22.8092 -0.911954
9.55427 -8.99424 -0.304017
-41.7207 14.4197 -0.97534
-31.9701 -53.5343 -1.4047
21.1892 -14.1714 -0.560497
30.3319 -18.3923 -0.800882
14.1983 3.92382 -0.300366
27.0055 47.191 -0.998737
23.4589 -10.9214 -0.455853
46.8424 -10.7863 -0.89433
-30.8754 -22.1882 -0.69329
-29.8588 -29.3273 -0.663719
-19.3275 -47.4248 -0.853197
12.6938 -10.4385 -0.270472
18.4606 -13.3395 -0.348211
-29.4555 -13.0923 -0.423065
-33.1126 -24.7807 -0.575447
-34.1819 -68.908 -1.03909
-28.3239 -60.2823 -0.913197
-34.2186 -23.3695 -0.540981
-30.6215 23.2963 -0.452635
16.9475 -12.656 -0.251269
29.164 -18.0832 -0.404045
-31.0795 22.8167 -0.428926
-19.4012 -44.4957 -0.519753
-12.2004 -36.722 -0.390036
-34.0529 -60.0005 -0.636139
-14.4586 18.3403 -0.178987
-26.8673 -13.5457 -0.242835
-15.1546 18.4732 -0.163134
-22.7682 20.3341 -0.156765
-21.1935 19.8787 -0.131866
-10.5955 -13.6215 -0.0605771
14.6907 7.71739 -0.0198817
11.0881 -9.7501 -0.00780899
-34.7667 -19.0425 0.0605654
-11.5026 -34.1859 0.117047
16.908 -12.2842 0.0906322
-19.1141 -43.8824 0.212271
18.7205 -13.1901 0.121546
7.16033 -12.3084 0.103894
25.9094 -10.6301 0.172188
-56.0246 20.0046 0.567857
16.2039 -12.0088 0.192506
37.2674 -7.6086 0.35887
-29.2527 -8.24863 0.355713
-36.5954 -22.0883 0.471482
-11.4815 -32.8961 0.373341
-12.8925 -35.7257 0.45176
-10.4224 -32.036 0.403836
6.31419 -12.9063 0.183412
7.20078 -11.0933 0.173887
-28.4719 22.3495 0.554763
11.2925 -9.86221 0.225386
-24.3541 20.827 0.529431
10.8811 -9.71552 0.228932
12.9441 -10.656 0.264124
36.2257 -7.7528 0.616314
-34.8535 -23.3513 0.763127
-31.5619 22.5669 0.762437
6.12718 -12.8017 0.275402
7.00964 -11.0312 0.251799
8.01508 -9.40516 0.241309
26.9514 55.4182 1.34094
7.71833 -9.4307 0.27552
10.1135 -9.16022 0.329192
-28.9879 -9.29529 0.733464
-23.5373 20.5445 0.845866
-27.8646 21.9711 0.952977
-29.1172 -8.74292 0.801318
9.17683 -8.88298 0.345015
9.61032 -8.93208 0.357637
-25.8491 21.7858 0.919115
25.2845 -5.11509 0.718249
12.9539 -10.6268 0.4991
14.6855 23.9237 0.866364
6.17447 -12.7376 0.44546
7.44263 -11.6018 0.432561
-28.6378 -8.0768 0.976487
-12.6842 -19.421 0.764127
-28.3183 -8.85087 1.026
16.0479 10.984 0.703008
-30.0495 -18.6205 1.23569
15.6065 27.1097 1.11666
-30.6669 -16.7279 1.29458
23.456 -4.23557 0.861178
-28.0383 -19.9414 1.27494
-7.30938 -7.96974 0.408206
9.03857 -8.81394 0.469282
12.3677 13.5291 0.70697
25.4969 52.5979 2.21418
24.3718 51.8899 2.15924
-11.5906 -9.17448 0.58298
8.7113 -8.65705 0.485834
-25.9332 21.3627 1.36465
21.7666 -2.94995 0.889939
-29.0084 -17.6198 1.39047
9.4 -8.91303 0.531121
12.3887 14.2682 0.813171
6.56106 -12.4253 0.5967
14.7489 19.1639 1.06336
20.5646 28.4052 1.53614
-9.53081 -13.8579 0.739249
-10.025 -15.6786 0.826035
7.58358 -10.93 0.586122
8.61236 -8.70168 0.553269
24.0992 -3.69179 1.10082
-30.0568 -8.75901 1.42922
6.72925 -11.0627 0.595788
-8.29186 -8.16018 0.547619
20.955 42.279 2.25792
-28.7684 -17.78 1.59867
-9.80517 -13.7536 0.803932
9.64506 -8.94892 0.619691
15.1425 42.0799 2.16513
-30.4676 -13.495 1.59062
-6.77572 -8.26061 0.525823
14.3135 33.2865 1.84913
-29.947 -11.7273 1.61416
-7.60686 -6.99478 0.522492
-6.71172 -7.60846 0.513362
15.9215 28.8417 1.71088
10.4857 12.2611 0.872053
14.1047 19.1941 1.27911
9.33005 -8.91121 0.691275
14.6903 19.114 1.33129
15.12 23.3526 1.5321
-27.7939 19.5698 1.86389
-6.98704 -8.21129 0.598007
-26.7199 20.5021 1.8732
6.0767 -12.8305 0.794353
-7.12249 -9.17902 0.662645
9.89462 12.359 0.931261
14.7342 24.8253 1.68677
6.44383 -12.942 0.832068
13.6894 22.3338 1.54749
-8.27865 -8.1376 0.699549
11.4691 11.5482 0.97074
14.5388 19.3368 1.45373
-7.41715 -10.0407 0.776421
6.99378 -11.1451 0.801883
11.2356 -9.69138 0.899522
5.85443 -10.7321 0.758639
-7.20815 -6.66258 0.613508
14.336 20.3365 1.57453
16.0726 7.13442 1.14188
-7.04901 -6.15879 0.61437
6.44402 -13.4067 0.991363
9.27835 20.9581 1.54632
10.3477 12.4722 1.10804
13.4267 18.0543 1.56947
12.2628 20.3316 1.6431
11.2743 11.9096 1.15124
6.58506 -9.82059 0.837354
11.4231 11.6869 1.18281
9.78618 -6.9081 0.852352
12.2803 11.8884 1.25546
9.90314 -8.36307 0.949577
-6.19153 6.71045 0.682048
10.3763 9.13657 1.03869
11.8051 17.6505 1.59784
11.3568 18.0936 1.60978
-6.95987 -7.71463 0.805813
10.7353 18.5289 1.64317
9.49149 -8.93624 1.00748
-6.42468 -4.305 0.610135
9.07845 18.1885 1.62456
10.0587 -6.88309 0.97593
12.3756 11.4822 1.36481
9.63019 18.6979 1.69366
-7.2844 -9.66216 0.985701
6.70374 -9.36062 0.936915
12.163 11.6356 1.37934
12.0664 11.8669 1.40551
11.346 11.8591 1.35888
-5.068 -11.5671 1.06232
10.2364 12.8071 1.39516
-6.97292 -6.09325 0.797771
-6.82963 -6.70832 0.808783
-5.22909 -11.4686 1.07192
-7.31688 -7.76418 0.918871
9.26476 -7.2405 1.01593
-7.13706 -8.0764 0.943348
-7.03219 -7.70717 0.917693
9.31928 12.4393 1.37813
-6.96857 -8.39199 0.974647
10.7547 9.02385 1.27958
10.3818 13.3711 1.52958
10.4642 9.19025 1.275
7.64896 13.8846 1.45816
-6.51273 -8.15409 0.956291
-6.92076 -9.04172 1.05105
11.1274 10.732 1.42655
11.186 9.12663 1.35108
10.7991 10.7341 1.42743
6.41851 14.8323 1.51873
-11.4717 2.93888 1.11091
-6.36966 -4.1764 0.713783
-6.81779 -6.30509 0.861328
9.35754 13.1968 1.56072
-6.06147 6.58647 0.881893
7.94761 -6.59858 1.00676
7.86534 13.1147 1.51913
-7.08384 -7.63397 1.04931
9.24241 11.5566 1.49268
6.9505 12.3409 1.43751
7.00351 12.9025 1.49671
9.47978 9.04153 1.35585
5.8043 13.8368 1.55525
9.07293 12.3399 1.59695
-6.11444 -4.46206 0.793615
5.9039 13.566 1.55847
6.16362 13.501 1.56036
-6.98032 -4.43405 0.884729
8.71817 8.96733 1.33345
9.07979 10.1151 1.47838
7.27825 10.9285 1.42706
5.7811 11.3867 1.38845
-6.31082 -7.42409 1.06518
10.2204 6.42327 1.3357
8.94454 8.09555 1.32996
7.25855 11.6025 1.51128
6.79562 11.5499 1.48165
5.31331 11.7986 1.43972
4.82707 11.9985 1.44696
4.65503 13.5377 1.57491
9.81949 7.02097 1.34798
8.7075 9.25598 1.42013
5.3397 11.4253 1.42023
-6.85341 -6.73526 1.06968
6.82038 10.6456 1.42431
4.27542 13.0422 1.5512
9.73562 -3.19027 1.14234
-6.11171 -5.42076 0.94601
7.27968 -6.11195 1.079
10.3698 5.68967 1.35669
-7.39178 -0.987204 0.854846
-6.26521 -5.36288 0.94948
5.24238 -5.55066 0.879641
5.02645 11.5292 1.46106
-6.89229 -4.56537 0.958232
4.4483 -7.25336 0.984036
10.3645 5.12724 1.35702
8.83821 7.84434 1.38734
-6.00855 -4.37298 0.866306
-6.49435 -5.28044 0.989024
4.08677 -7.85587 1.05315
4.9617 -5.84443 0.9198
10.1263 4.73492 1.34014
8.47285 8.22738 1.43057
5.23334 11.4012 1.53136
9.00459 6.23795 1.3413
7.96782 8.29221 1.44065
-6.49888 -5.75485 1.08083
3.70263 -7.56506 1.05492
8.63569 6.65845 1.37133
-6.47651 -5.35164 1.06353
9.05086 5.98666 1.38553
8.1439 7.10606 1.37907
8.07343 7.46982 1.40447
5.77069 -5.33965 1.0094
-6.98179 -4.44944 1.06297
8.05925 7.95719 1.46908
-7.36802 -1.0439 0.961832
-6.93223 -2.83014 0.978155
8.94414 4.08666 1.28788
8.36418 6.59866 1.39866
4.99359 -6.02225 1.02835
4.91167 -6.18651 1.04602
6.86208 -4.27764 1.07637
-7.14326 -1.72066 0.985344
-7.01902 -2.223 0.984666
-6.0324 -4.42753 1.00063
8.0985 6.62849 1.41884
8.5794 4.42385 1.31614
8.59805 5.14706 1.36881
7.9903 7.10426 1.45537
-6.81723 -3.73837 1.05599
8.83072 4.14511 1.33538
8.23119 5.80956 1.37975
-6.40588 -4.33445 1.05863
-5.96433 -4.53034 1.02314
5.32597 8.97495 1.44151
3.61122 9.99014 1.47514
-7.37823 -1.09454 1.03331
-6.91318 -3.93221 1.10402
4.94486 -5.53906 1.02618
5.22387 -5.39376 1.04216
7.45478 -3.53286 1.15369
3.35621 10.0651 1.48656
8.37263 4.58234 1.35024
7.36661 -3.67396 1.1678
7.57791 -3.33091 1.18015
7.75215 -3.30156 1.19561
8.91231 2.80623 1.34494
4.82987 -5.63086 1.06634
7.34545 -2.84987 1.14709
-6.96734 -3.30438 1.1243
7.90788 -2.77602 1.22196
8.65088 -1.81719 1.29758
4.97989 8.52614 1.4575
2.92812 9.35897 1.45875
7.72241 -1.88556 1.17158
7.20242 5.73592 1.37191
3.42808 9.48339 1.49051
3.1595 9.71281 1.51361
-7.38058 -1.04485 1.10563
-7.08353 -2.02567 1.09834
6.91984 6.26411 1.40928
-6.26982 -2.27413 1.00125
-7.24982 -1.37715 1.11434
7.91285 4.80162 1.41015
5.68359 7.3236 1.4066
5.26752 7.59499 1.40674
5.03093 7.97261 1.42529
6.75324 -3.2227 1.13164
7.23848 -3.12136 1.20719
7.62692 -2.75219 1.23561
-7.32699 -0.733999 1.12493
-7.10627 -1.95697 1.13801
6.78276 -3.08998 1.15267
3.74954 -5.78617 1.06617
-7.06185 -2.0786 1.15446
-7.35618 -1.09441 1.16819
7.33766 4.75935 1.3814
-7.2079 -1.44539 1.17001
-7.28117 -1.30283 1.18722
-7.1064 -2.02158 1.20187
7.04744 4.74811 1.3872
-7.1101 -1.94791 1.21141
6.98701 4.84936 1.41275
6.59429 4.83676 1.36478
5.18669 6.21955 1.34913
4.65153 7.13884 1.42301
3.80005 7.88706 1.45516
-7.25876 -1.37534 1.23371
2.79306 -5.77825 1.08187
7.1204 4.41521 1.41146
6.49175 5.22074 1.40544
3.87366 -5.36529 1.11571
3.9369 -5.02131 1.08013
-7.28202 -1.25411 1.25391
-6.60546 -2.62811 1.20653
7.39854 2.84088 1.34423
7.01054 3.88039 1.36553
-6.42098 -2.75589 1.18918
6.7553 4.08694 1.35545
5.68012 -3.5182 1.15001
-7.40632 -1.04106 1.29383
-6.3635 -2.28283 1.16267
5.53325 -3.64658 1.14227
5.31734 -3.77289 1.14282
3.57752 7.12357 1.40216
-6.80751 -1.73723 1.23426
4.47987 -4.4673 1.11339
-7.10156 -0.915856 1.27599
4.72469 -4.4573 1.14946
4.31005 6.46495 1.38646
6.56923 3.46496 1.34129
6.60804 3.67271 1.35817
-6.44847 -1.50223 1.19129
3.60927 -5.32697 1.1705
5.05957 5.59278 1.38092
-6.16128 -2.18547 1.19853
3.41395 -5.15981 1.15059
3.37032 6.73633 1.40913
-1.69718 -5.78028 1.1445
6.43028 2.72577 1.32913
-2.14276 -5.72648 1.17559
6.29482 2.78966 1.32558
-2.78732 -5.37629 1.18691
-3.53969 5.37557 1.39532
4.45934 3.88349 1.34956
4.15193 -2.87932 1.17724
4.62857 -2.18626 1.23687
4.19036 3.28451 1.31882
3.70891 -2.93144 1.22432
4.01132 2.57004 1.33089
-1.44254 -4.11625 1.22151
-2.32062 -3.5791 1.21252
3.85383 2.36053 1.30928
-2.86903 3.53623 1.36603
-2.48037 -2.91626 1.18955
-2.37781 -2.93737 1.19446
1.84453 -2.81402 1.18287
1.8675 -2.79215 1.21288
1.99351 -2.52823 1.19911
-2.04723 2.81279 1.32383
2.80402 -0.555733 1.25914
2.78314 -0.336852 1.24077
-2.08903 -1.61905 1.21315
-2.07684 -1.4512 1.23827
-1.86184 -1.79566 1.28349
-1.99448 -1.13137 1.20478
-1.98601 -1.07033 1.23163
-1.94588 -0.880351 1.23192
-1.93031 -0.708413 1.22227
-1.92919 -0.701516 1.2495
-1.90564 -0.469705 1.22241
-1.87108 -0.345717 1.21966
-1.8559 -0.401181 1.22635
2.37768 -19.6971 -10.0115
-7.61495 -8.99046 0.465953
8.01176 -8.79275 -10.4593
8.25802 -8.62347 -10.4961
8.20971 -8.28453 -9.87904
6.95279 -11.9488 -11.402
8.50942 -8.96646 -9.73368
7.84468 -8.93091 -9.12896
5.84666 -12.7915 -10.7237
9.41857 -8.82614 -9.73602
6.14396 -14.0872 -11.57
8.28083 -8.67234 -9.01551
8.01166 -9.16206 -9.10164
7.28668 -9.23913 -8.76696
5.9061 -14.1438 -11.1835
7.71232 -9.29883 -8.71758
7.84961 -9.10995 -8.66255
7.12327 -10.5727 -9.07686
6.81462 -11.0644 -9.21243
10.0421 -9.18271 -9.55723
6.53421 -11.1667 -8.85763
8.02691 -8.62131 -7.84422
7.35455 -9.27335 -7.86559
8.50894 -8.67416 -8.07685
7.71361 -9.46472 -8.02169
6.4815 -12.7639 -9.34817
7.9266 -9.17318 -7.90731
4.99978 -16.0327 -10.802
-0.472293 13.9408 -8.91903
7.72132 -9.23699 -7.72031
7.32838 -10.8538 -8.33885
8.37054 -8.55872 -7.62716
10.8614 -9.60849 -9.19845
8.98133 -8.81103 -7.89096
11.7475 -10.0177 -9.67609
8.06573 -8.52849 -7.22195
4.04014 -16.8414 -10.6149
4.24744 -15.3741 -9.79382
7.83767 -9.35085 -7.31219
3.95163 -15.628 -9.61271
11.4626 -9.81323 -9.03775
6.85764 -11.0668 -7.73097
7.76581 -8.8125 -6.95832
5.48328 -13.988 -8.87731
6.48259 -12.6956 -8.34277
8.35489 -8.58721 -6.98223
9.67708 -9.07115 -7.73433
2.78889 -11.7891 -6.94447
5.47299 -13.8844 -8.4507
9.58405 -9.09525 -7.46938
6.61174 -11.0605 -7.25598
3.34995 -20.7184 -11.7622
8.87036 -8.93071 -7.05641
12.1702 -10.2107 -8.90022
6.81744 -10.9964 -7.20817
4.67925 -14.6015 -8.47435
6.21603 -12.6109 -7.73476
0.897132 18.5618 -10.115
14.5844 7.70631 -8.961
4.20055 -14.2336 -8.01562
14.6911 -11.6254 -10.0993
14.9369 7.42233 -8.88309
13.9778 7.70116 -8.47816
4.76213 -14.8397 -8.28147
12.0615 -10.1321 -8.29001
1.81421 -20.5066 -10.5913
11.3963 -9.83521 -7.71252
2.08172 -20.23 -10.3199
13.9306 -11.0575 -8.9966
0.00615297 14.2789 -7.16656
-7.33294 15.2454 -8.48018
10.5776 -9.5856 -7.17304
7.50646 -9.41534 -5.99958
-8.55108 16.2135 -8.86111
11.6205 -9.75937 -7.34527
10.4784 -9.57035 -6.8147
14.7477 -11.3066 -8.96383
16.6321 15.7547 -10.8816
7.47409 -11.0472 -6.35523
14.9716 7.39731 -7.83408
13.8959 -11.0037 -8.28472
-12.0207 17.2151 -9.6223
15.7953 -11.9685 -9.05421
9.76637 -2.44868 -4.62474
-9.12485 -1.6589 -4.2177
18.6306 17.9774 -11.6795
3.91093 -9.09386 -4.49321
-10.2681 16.7759 -8.83509
-5.35697 4.45506 -3.13391
6.84902 -11.2761 -5.93982
9.41571 -9.07501 -5.76789
15.9717 7.28591 -7.74356
-6.66437 15.1393 -7.22682
1.49981 -18.7502 -8.13583
-11.2386 17.1016 -8.81319
9.57284 -3.36718 -4.34622
7.00842 -11.0316 -5.52539
15.7802 -11.929 -8.28114
14.6088 7.72234 -6.92982
18.6587 19.4119 -11.2503
1.02064 -22.6595 -9.44297
-4.548 13.9168 -6.03416
-9.95133 -1.11305 -4.15012
14.0494 7.75754 -6.55157
20.3302 22.1138 -12.2413
-13.1047 2.45589 -5.43175
15.0719 7.16097 -6.74744
-5.24357 14.374 -6.15569
3.63544 -8.80154 -3.79059
13.9067 -10.9807 -6.92522
19.1992 21.4866 -11.1749
18.7497 5.78171 -7.60732
1.53783 19.2055 -7.46864
-8.77752 15.8182 -6.9764
11.3802 -10.0341 -5.83618
19.1309 22.1788 -11.2796
0.683664 15.3604 -5.88709
-1.6638 12.7849 -4.96081
2.71267 -12.2421 -4.81109
-8.7833 -1.25448 -3.37257
0.703464 -23.7228 -8.95513
15.1391 -11.6019 -7.19386
9.48197 -3.45983 -3.80725
-14.6573 18.0711 -8.67427
-7.90187 -3.51019 -3.17134
1.09652 -10.467 -3.87055
7.01917 -11.2225 -4.84103
14.1558 7.90394 -5.85217
-8.30508 -2.85145 -3.15764
0.790077 15.2659 -5.44952
-3.97084 13.4346 -4.95828
5.7303 -10.9737 -4.35703
15.7865 -11.9306 -7.00906
19.0209 5.87457 -7.00277
2.10316 20.5153 -7.22941
21.4807 25.9674 -11.7087
-14.9699 18.4803 -8.1658
2.96629 -13.3184 -4.69688
-8.93989 16.1517 -6.31129
18.4091 -13.0389 -7.73265
-5.06146 14.5471 -5.23972
1.36249 -22.3077 -7.40587
1.75598 19.5554 -6.48418
1.44807 -10.32 -3.44415
38.8289 -19.8487 -14.3127
6.16167 -10.0357 -3.76982
17.5034 -12.3591 -6.86349
2.11322 20.6079 -6.59099
-13.4323 17.9339 -7.06705
1.45513 -22.8128 -7.12209
-4.32176 14.8001 -4.79346
-11.0144 16.6904 -6.06302
-2.77762 -28.2532 -8.62369
3.06116 -9.46055 -3.02219
0.79635 -24.3907 -7.33851
19.0428 -13.5166 -6.93013
17.5476 5.55134 -5.39974
-7.93033 15.3544 -5.0334
4.22241 -10.4783 -3.2836
3.61513 -10.5527 -3.17516
4.23412 -10.9272 -3.29006
-13.3914 17.9004 -6.22085
-9.34013 15.9684 -5.03508
-13.278 1.99042 -3.68161
-17.0297 19.5666 -7.04564
26.1529 -17.2171 -8.48532
-3.96595 -28.2722 -7.65549
3.77913 -9.13656 -2.64563
-9.85594 16.3856 -5.092
46.8637 -13.6833 -12.9468
10.5129 -9.37648 -3.72916
-6.48467 15.0174 -4.27563
-14.5032 18.1847 -6.1059
-8.10965 -38.3633 -10.2122
4.95062 -9.55709 -2.78623
6.54698 -10.4781 -3.18786
-7.2532 15.3964 -4.32867
-10.6153 16.5352 -5.02287
-10.0372 -39.7717 -10.1993
-9.18055 -39.6286 -9.93158
10.9187 -9.62519 -3.57943
-8.01338 15.5546 -4.24517
-11.7973 17.1484 -5.04073
14.5667 7.69453 -3.90949
4.04106 -9.23993 -2.38708
15.1688 7.51223 -3.98857
3.74186 -8.89714 -2.26912
-6.5997 -32.8767 -7.76385
5.61622 -9.86685 -2.6317
44.3943 -10.7432 -10.6169
-12.8877 17.5558 -5.01502
14.8226 7.59111 -3.76712
43.449 -9.39909 -10.0709
-9.84998 16.4087 -4.28569
3.7077 -9.23612 -2.16557
42.6201 -10.9335 -9.60409
15.0802 7.48121 -3.60431
-10.7046 16.7109 -4.25272
-22.1551 -34.8297 -8.8675
4.81171 -9.73249 -2.34256
44.6821 -10.4621 -9.8193
-14.8846 18.4421 -4.98789
-32.4833 -23.9755 -8.55715
41.3692 -13.842 -9.22972
14.806 7.82372 -3.49188
-35.8353 24.2337 -8.84706
-8.48929 -34.7217 -7.23743
3.94158 -11.4766 -2.4397
44.2174 -9.54011 -9.20117
11.751 -9.72693 -3.05955
42.6415 -10.9772 -8.77505
-27.1967 20.5233 -6.76386
6.12991 -10.2601 -2.37987
45.5563 -10.6531 -9.13845
-12.8784 17.5722 -4.21184
-27.0769 21.2199 -6.68582
15.983 12.0896 -3.82965
-6.93255 15.2625 -3.21998
-33.396 -24.1556 -7.88877
-31.8897 -24.9718 -7.78357
-36.0633 24.031 -8.16155
-33.9001 -22.3626 -7.67427
17.9646 5.64793 -3.51449
-34.4245 -20.7707 -7.50817
-15.3138 -44.1501 -8.70446
3.76299 -9.80148 -1.97716
-25.1466 -62.604 -12.5458
-17.0872 -46.032 -8.98011
3.96878 -9.61967 -1.87727
13.0363 -10.1866 -2.98395
45.0476 -10.0243 -8.29022
-14.8488 18.4166 -4.22837
-27.2319 21.3583 -6.11101
15.0415 7.96216 -2.96376
-30.5528 -26.6245 -7.06328
42.5015 -10.8865 -7.53327
-7.99356 15.4 -2.94074
-9.83335 18.1108 -3.48301
44.3271 -10.4346 -7.70117
-31.0348 22.6057 -6.46476
-30.5117 -23.4741 -6.43406
-20.9792 20.0596 -4.83004
-32.6746 23.0756 -6.674
15.8722 -11.8428 -3.24566
-10.4106 16.5285 -3.10892
-43.901 25.8327 -8.08184
-31.9066 -23.9695 -6.38852
-33.765 -23.29 -6.46019
3.4274 -9.47933 -1.57661
-23.9721 20.4781 -4.86976
16.8572 -11.917 -3.19823
-11.256 16.8466 -3.07928
45.6898 -10.7079 -7.12337
-23.3717 -54.162 -8.91263
-29.7769 22.3319 -5.5659
-38.8248 24.2081 -6.79161
-31.9335 -24.788 -6.03082
44.3318 -9.50001 -6.75138
-34.0553 -24.6292 -6.14076
-50.6518 28.2809 -8.34179
-35.8775 -23.9308 -6.20753
6.71093 -12.8787 -2.1092
-7.00836 15.4526 -2.35787
-13.2207 17.8472 -3.09119
-32.5084 23.4046 -5.59945
-25.1748 -56.065 -8.47389
-16.4782 -48.1709 -7.00098
36.4771 -12.1309 -5.27265
-23.3838 20.5486 -4.14255
-32.5684 -24.3901 -5.31199
-30.915 -25.3617 -5.28661
-34.2157 -23.5645 -5.32155
7.43429 -9.41639 -1.55152
42.5542 -10.8929 -5.63697
-33.872 23.0491 -5.20919
-29.9951 -16.0056 -4.33365
6.03501 -7.81574 -1.26141
44.4682 -10.4518 -5.79189
-31.4174 23.0899 -4.8656
14.4662 -11.2704 -2.25332
-30.3269 22.8413 -4.59309
-32.9592 23.299 -4.85993
-10.4467 16.6154 -2.26836
-31.79 -22.8638 -4.60689
12.9617 -10.4833 -1.95175
35.5922 -11.7612 -4.33796
6.33183 -10.3257 -1.39245
11.1723 -9.68156 -1.66585
16.3933 -12.2056 -2.30348
-11.1622 16.7375 -2.22824
6.74104 -12.5602 -1.56245
11.5781 -9.66888 -1.67073
42.395 -10.8713 -4.8056
-39.5111 24.6355 -4.9974
44.528 -10.4049 -4.92403
14.8755 -11.4227 -1.99565
-13.0702 17.658 -2.25698
14.7279 7.79524 -1.66495
13.9691 -11.0198 -1.77763
-14.13 18.0717 -2.22536
6.38421 -12.2346 -1.32877
9.38997 -8.90676 -1.25107
16.9607 -12.4018 -2.05096
-29.0796 -13.8958 -3.03604
-15.1169 18.5114 -2.22822
-38.152 -74.3269 -7.77675
-34.2754 -21.4477 -3.5801
16.088 -12.0552 -1.8094
38.2514 -12.7275 -3.60856
11.0913 -9.85926 -1.22656
42.7941 -10.9375 -3.68439
-16.5134 -42.9723 -3.69776
-41.2979 -80.7525 -7.06544
17.5555 -12.7926 -1.71587
-30.5335 23.1085 -2.92885
7.43601 -9.15986 -0.913374
-33.2489 23.5358 -3.02595
-16.8929 -41.7902 -3.36885
-37.8481 -71.2208 -5.73609
-36.7701 -73.6447 -5.63916
12.5434 -10.4388 -1.09863
17.0142 -12.3922 -1.4232
-39.9722 24.8838 -3.07837
43.0444 -11.0203 -2.91704
-28.8736 -13.5771 -1.9107
-41.6586 -80.4826 -5.48881
14.4698 -11.2805 -1.10576
30.9359 -20.3791 -2.02499
30.9145 -19.4842 -1.99795
15.2976 7.55515 -0.885005
14.7382 7.81505 -0.857473
-12.9958 17.7345 -1.11569
-25.2901 -55.808 -3.14845
-43.6979 -82.3561 -4.55364
9.64008 -9.07907 -0.662467
13.418 -10.6706 -0.842231
15.9074 10.1195 -0.890407
16.1969 11.3526 -0.920608
6.80977 -12.4897 -0.676688
-20.1283 -5.93923 -0.900929
-30.5379 -54.4215 -2.75388
10.1977 -13.7673 -0.700506
17.9881 -12.972 -0.906625
42.2762 -10.7989 -1.73673
-9.42387 -12.4642 -0.602797
43.7806 -10.2519 -1.76845
21.9669 26.4088 -1.17109
-33.14 22.6542 -1.39092
-36.8568 -20.6678 -1.37557
-18.6128 -46.3872 -1.60654
16.4289 -12.2568 -0.669004
14.3526 3.88765 -0.438421
-26.6172 -61.1634 -2.00098
-23.0666 20.5475 -0.882152
-12.5718 -38.1211 -1.07989
42.69 -9.06858 -1.22066
-42.6889 26.5525 -1.35863
-55.3326 19.8966 -1.4081
43.3618 -10.069 -0.957764
-31.4299 23.7528 -0.786938
-30.7215 9.77158 -0.673682
30.6997 53.75 -1.13655
-30.6702 22.6354 -0.729592
12.9397 -10.6025 -0.289982
-35.004 -21.7839 -0.639087
-31.4421 -63.2337 -1.05211
17.4287 -12.5691 -0.312384
-12.8501 -38.8487 -0.528705
-14.4142 18.298 -0.237085
-20.5176 -47.1538 -0.559642
30.0479 -18.82 -0.320092
-23.0558 20.5708 -0.209142
-9.96287 -12.787 -0.0490016
7.0002 -11.677 -0.0236023
14.5655 7.61698 0.000728015
-36.0317 -22.2495 0.225662
-24.2924 -41.5192 0.353829
-54.5426 29.8789 0.636957
6.67101 -11.8363 0.140735
7.99336 -9.08839 0.120953
-41.6873 -22.1633 0.519042
-11.6618 -33.0252 0.389967
11.0758 -9.65494 0.192613
-23.4408 20.0288 0.406621
-12.4785 -19.3609 0.33471
-31.6812 22.544 0.693676
-35.6964 -23.9315 0.769109
-35.2074 -26.0093 0.763711
10.6111 -9.53581 0.232779
7.7749 -9.58374 0.265201
7.88177 -9.19943 0.261405
-72.7782 25.2011 1.80181
18.0275 -13.0862 0.542362
-28.9795 -8.70628 0.810173
-28.411 22.2798 1.04118
11.5544 -9.8993 0.415002
17.2099 -7.45999 0.53411
-25.3801 21.5252 0.99199
-7.93408 -9.30397 0.389255
12.6126 13.7128 0.662895
6.11845 -12.6065 0.493122
8.89201 -8.74993 0.426324
24.4109 -4.32567 0.829196
18.3587 17.5322 0.917008
13.6589 23.6451 1.02736
-57.9954 19.0629 2.19918
24.2208 -4.70506 0.934799
-25.8513 21.1174 1.26306
9.35906 -8.90348 0.499448
22.2661 -3.0676 0.849216
12.1163 14.0333 0.759325
14.6132 18.8819 0.978174
6.49331 -12.3113 0.571423
17.4597 40.3543 1.83646
7.62628 -10.9896 0.563957
-7.57617 -7.4578 0.469872
-8.31962 -11.5104 0.634653
-29.879 -11.8282 1.53079
16.2759 10.5659 0.967357
-7.75314 -7.21396 0.507365
15.0702 23.413 1.4392
-6.97907 -8.21585 0.592753
14.3737 19.6828 1.33604
-26.4898 20.3978 1.85002
14.2054 23.1346 1.57248
-7.15386 -9.22185 0.667077
6.78463 -13.445 0.864607
9.82037 12.3527 0.934368
14.5293 19.304 1.5152
14.7537 26.2578 1.85504
10.0915 28.3011 1.91143
-7.33756 -10.0149 0.794338
9.33653 21.277 1.56001
11.3433 9.97799 1.0771
11.3607 12.0137 1.16753
13.5593 15.668 1.48319
8.15318 -12.568 1.05769
10.6921 8.92523 1.02504
12.765 14.3172 1.43562
-14.4889 8.54434 1.27276
-11.1832 2.10674 0.861403
12.2931 16.0021 1.5664
11.4245 18.2072 1.66965
10.0656 -6.88837 0.952436
-7.70196 -8.14759 0.897109
12.6439 11.4454 1.39143
11.7519 11.4968 1.36504
-7.0297 -6.1851 0.76109
-7.08312 -6.92619 0.821945
11.3632 11.8614 1.41675
10.5571 9.29983 1.27926
-11.4597 2.93442 1.08769
-7.64894 -7.12432 0.939306
11.5536 8.91484 1.39762
9.11425 12.8885 1.51609
7.09876 13.062 1.45732
8.32008 12.9361 1.5427
-6.76638 -6.74267 0.949726
7.84581 -6.52166 0.998675
9.58232 12.0021 1.53951
9.84866 10.0605 1.45431
-6.9025 -5.41845 0.913452
9.53642 9.08087 1.40409
8.1107 11.027 1.43511
6.67051 12.9342 1.55072
9.516 8.30374 1.33709
9.09834 10.1336 1.48381
5.61019 12.3579 1.46932
-6.40981 -7.54895 1.07037
6.61002 11.2501 1.43582
5.16325 12.9371 1.5369
-6.84405 -3.99166 0.875247
-6.71696 -6.09618 0.999644
3.9142 -7.75735 0.961998
5.43235 -6.08614 0.916667
9.28817 7.4772 1.34037
8.98325 9.5601 1.47955
7.83483 11.1592 1.52439
6.70148 10.5761 1.42796
-6.89794 -4.58178 0.939474
4.69907 -7.66701 1.03913
-10.7104 7.18002 1.49741
-7.10777 -2.13851 0.864164
8.95248 6.04769 1.28556
5.81105 11.8601 1.56098
4.90784 11.3497 1.45852
4.76712 -5.85539 0.888795
4.10562 -7.87188 1.07965
8.2939 3.84155 1.14586
10.8884 5.43098 1.49566
4.48539 12.4795 1.6507
-6.1743 -5.40202 1.00651
-9.17711 1.30813 1.15596
8.19147 7.49193 1.40513
-6.45435 -5.3343 1.0594
7.72439 8.11298 1.44036
-6.90469 -3.58224 1.00756
4.96128 -5.95831 1.00108
5.01692 -5.42025 0.963085
8.33831 6.86032 1.43051
7.8761 7.78804 1.47386
-7.2228 -1.72861 1.00112
-7.04951 -2.21525 0.990614
-6.50258 -4.38437 1.0422
4.82355 -6.08023 1.03288
8.32596 6.31014 1.42112
-6.868 -4.22923 1.08717
-6.06339 -4.45532 1.01229
4.94357 -5.5307 1.0187
7.39683 -3.51329 1.13983
8.31427 4.22113 1.32456
8.2763 4.54786 1.34014
-6.95779 -2.91464 1.07904
7.46371 -3.72517 1.19122
7.00494 -3.04995 1.07783
4.93435 -5.78104 1.09722
8.17116 -1.72901 1.20966
-6.9772 -3.26623 1.14303
7.33815 5.52944 1.38015
5.70028 7.35952 1.40612
7.9405 3.89089 1.35126
7.861 4.16886 1.35297
5.37939 7.72443 1.4312
5.02086 8.57643 1.50159
3.4452 9.42361 1.51364
-7.02656 -2.83414 1.15552
7.66387 -2.78806 1.24929
7.8273 -2.23064 1.25612
7.77723 -2.01204 1.24139
7.41973 4.17911 1.37325
7.02349 4.72267 1.39088
6.6983 4.88199 1.37833
5.33818 6.39688 1.38658
-7.22683 -1.36479 1.21828
4.94216 7.25779 1.46551
4.67652 7.1575 1.43529
-7.24232 -0.806759 1.22075
2.86667 -5.93129 1.11063
6.66157 4.06498 1.33345
6.46284 5.19144 1.40787
3.78885 7.84098 1.46154
-6.3948 -2.30638 1.15384
-6.30023 -2.68838 1.16867
3.77226 -5.24016 1.09937
-6.99321 -1.80086 1.26244
4.23456 -4.64138 1.1042
6.6319 3.49219 1.35368
5.02258 5.55543 1.36879
3.63233 -5.36075 1.1793
3.32484 6.66685 1.38888
6.46674 3.03449 1.35717
6.40156 2.70305 1.32676
-1.64983 -5.71025 1.14124
-2.17222 -5.76684 1.20168
6.22985 2.36846 1.33228
3.93909 -4.58049 1.20171
-3.00817 5.61641 1.35966
-3.63192 5.22503 1.38786
4.20912 -2.9279 1.20526
-4.28641 3.93725 1.419
4.58701 -2.18725 1.23342
4.47838 -1.26922 1.15746
3.70992 -2.93653 1.23259
3.67978 -2.58548 1.19321
3.42674 -2.97936 1.22554
-2.32003 -3.61514 1.20693
-2.49811 -2.92589 1.19721
1.87422 -2.49416 1.13267
1.93581 -2.65223 1.19736
-2.04375 2.80572 1.31635
-2.07074 -1.46328 1.19709
-1.82353 -1.8296 1.30226
-1.97528 -1.17139 1.20963
9.65077 -9.02749 -9.35454
9.21491 -8.9021 -7.63574
2.44645 -20.0731 -10.7391
3.66758 -9.28913 -4.50356
26.268 32.6332 -14.0659
2.06771 20.4649 -6.0976
9.48677 -8.75257 -1.61365
8.73924 -8.61116 -1.23032
8.88888 -8.76713 -0.925621
19.0582 -13.4941 -1.27723
43.0612 -11.566 -2.30889
-31.6993 -13.4066 0.347333
10.0128 6.89128 1.29075
-3.50628 5.33545 1.37228
7.96334 -8.22147 -10.2688
7.82448 -8.24748 -10.0085
8.35385 -8.44369 -9.83746
6.82151 -11.7787 -11.1838
7.95438 -8.21401 -9.04571
7.99409 -8.69212 -9.07626
6.20076 -14.1201 -11.6039
5.85122 -14.1396 -11.206
9.06091 -8.80851 -9.26492
7.61055 -9.18577 -8.64657
7.83879 -9.08933 -8.58137
7.19721 -10.6649 -9.15604
10.1965 -9.28276 -9.66697
6.40845 -11.0464 -8.72656
8.14943 -9.04934 -8.16686
7.31901 -9.30315 -7.90154
7.93905 -9.1802 -7.98015
5.02329 -15.9373 -10.7804
-0.522671 14.3523 -9.2184
7.28413 -10.7606 -8.3364
7.59017 -9.11437 -7.58964
10.9624 -9.78197 -9.32849
7.03543 -10.8966 -8.08519
8.17273 -8.57987 -7.362
0.113362 14.3628 -8.75268
7.74544 -8.71145 -7.02369
11.4536 -9.72393 -9.06727
8.9569 -8.88574 -7.45704
6.56076 -12.813 -8.49272
5.50282 -13.9528 -8.81531
7.03329 -11.0679 -7.52815
5.10439 -12.8181 -7.74818
3.15904 -19.3057 -10.9695
6.59645 -11.0705 -7.22193
7.83667 -9.03337 -6.70673
12.1493 -10.1768 -8.86354
9.67539 -9.47833 -7.42793
13.2319 -10.6076 -9.1483
15.0212 10.288 -9.78067
15.0015 7.37069 -8.93144
13.8285 7.62407 -8.35115
11.383 -9.82363 -7.72646
-0.0623082 15.1732 -7.67436
2.36432 -19.4877 -9.91697
10.6485 -9.54625 -7.19524
7.32923 -9.25724 -5.924
14.0703 -11.1601 -9.04368
17.9854 -12.8607 -10.7584
18.5614 5.73118 -9.43845
2.6616 -19.5519 -9.58288
12.8183 -10.5897 -8.0398
15.351 -11.6879 -9.36068
7.28659 -10.742 -6.25223
14.9676 7.33702 -7.7571
7.07411 -10.8829 -6.05046
6.21031 -10.6085 -5.69365
9.98766 -2.50617 -4.73405
17.3158 -12.6523 -9.85477
-11.8405 16.9972 -9.44233
3.53864 -9.0257 -4.39222
-10.2599 16.7746 -8.83729
15.9477 7.21297 -7.83165
-11.291 17.1787 -8.86658
-7.06742 6.85472 -4.24058
-6.48523 6.46935 -3.89961
1.197 -15.4387 -6.58298
19.865 20.5806 -12.0037
16.175 -12.2248 -8.52609
15.121 7.43088 -7.04036
-10.0809 -1.10006 -4.21117
19.8388 21.5947 -12.0404
14.0634 7.77035 -6.53955
16.3628 7.36997 -7.20941
14.9693 7.70264 -6.75268
1.48627 -17.9104 -7.01851
18.6219 5.74576 -7.54224
19.3666 21.6115 -11.2231
0.76955 16.2694 -6.25731
-9.247 -1.34113 -3.62022
0.710339 -24.1722 -9.19745
16.8601 -12.4709 -7.84509
14.1243 7.88696 -5.84766
0.536957 -22.6464 -7.98408
-4.07198 13.6964 -5.0149
-10.6516 16.3704 -6.83645
