ply
format ascii 1.0 
element vertex 1883
comment /media/mkaihara/Seagate Backup Plus Drive/model_iterations/model_85.ply
property float32 x 
property float32 y 
property float32 z 
end_header 
7.04872 12.5429 1.45202
8.96942 11.2405 1.46326
6.89955 13.3573 1.53855
5.77437 13.7206 1.52811
9.11321 10.3895 1.4284
8.93263 12.1693 1.56847
11.3093 7.60493 1.42177
9.17152 9.91862 1.40657
4.96901 -5.81458 0.821146
-6.85643 -4.66325 0.874903
5.48578 13.667 1.563
-7.07039 -4.51391 0.894819
8.84375 10.5966 1.48196
-6.77888 -6.78858 1.02637
5.90146 -5.82493 0.895717
9.61972 8.46959 1.38156
8.88863 9.28385 1.38245
9.17494 10.2278 1.48975
4.69747 13.6138 1.55411
4.22803 -8.04102 0.984182
6.39682 10.7017 1.37198
-6.81156 -3.93076 0.865911
6.27037 11.7569 1.47834
-6.9058 -3.86901 0.877203
9.64953 7.15983 1.34373
6.59527 11.2558 1.45291
9.74498 6.987 1.34713
5.36617 11.4393 1.42862
5.36746 11.9347 1.47796
4.635 12.0617 1.46191
9.77662 6.64492 1.34727
-6.90288 -4.57095 0.948431
7.39092 -6.21678 1.1009
-7.34591 -0.787074 0.847517
-6.2842 -5.39858 0.954376
5.24532 -5.56396 0.882372
8.81688 7.83836 1.37447
4.41378 -7.17617 0.976033
10.3613 5.12949 1.35399
8.90088 7.74326 1.38686
5.19686 -5.6077 0.903292
8.5458 7.86627 1.37824
8.83543 8.98851 1.47465
-7.06071 -5.66144 1.07108
10.0931 4.72607 1.32788
-6.92966 -3.85791 0.955934
9.09248 6.1123 1.32884
5.1476 11.2832 1.5033
-6.90409 -3.07041 0.918436
-6.88838 -3.25668 0.921747
4.87812 -5.94911 0.939056
5.96649 -6.12144 1.04083
9.32694 5.59442 1.34452
8.41227 7.18185 1.36761
-6.96181 -4.31762 1.00944
-6.89309 -4.54244 1.01773
8.20062 8.5249 1.46757
4.9706 11.1783 1.51895
-6.5614 -5.62734 1.076
3.70553 -7.56782 1.05015
8.44958 7.69394 1.42995
6.07113 -5.61115 1.03652
9.11959 6.02983 1.3855
-6.14394 -5.42137 1.03419
8.50261 6.57765 1.37094
8.03869 7.46357 1.39541
-7.11323 -1.78598 0.938473
-7.02513 -2.30983 0.944849
-6.45594 -5.32739 1.0682
8.78603 5.63279 1.33799
8.10153 7.99271 1.46681
-7.27704 -1.25556 0.947364
-6.90905 -4.12562 1.04069
7.39329 6.18896 1.2488
8.03189 7.00043 1.38159
7.91607 8.07139 1.46501
-6.92123 -2.83066 0.973905
-6.9225 -2.97077 0.974278
4.50341 9.97263 1.4379
8.96065 4.09397 1.29676
-7.2605 -1.60898 0.977747
6.83068 -4.25362 1.06948
4.92583 -5.94074 1.0232
-7.34673 -1.11921 0.995217
-7.02554 -2.20288 0.985335
-7.06277 -2.27227 0.991627
-6.00238 -4.4037 0.995231
5.18326 -6.5583 1.11412
6.90118 -4.1705 1.08558
8.02549 7.12758 1.45412
-7.16342 -1.72112 0.990902
-7.09424 -1.95891 0.990306
8.75459 4.83325 1.35824
8.29013 5.84364 1.37906
-6.932 -3.62477 1.0663
8.83054 4.14441 1.33801
3.30056 10.3728 1.48991
-7.32599 -1.2021 1.01674
-6.01768 -4.44706 1.02944
-5.99817 -4.54601 1.03068
7.13797 -3.92866 1.11988
8.02815 6.45068 1.42433
5.31007 8.97491 1.44395
-6.39114 -4.3275 1.05848
4.93132 -5.52403 1.0287
7.17548 -3.82449 1.13166
7.54797 -3.68064 1.16197
3.57603 9.92022 1.46811
3.3894 10.1981 1.49797
-7.38277 -1.0841 1.04224
-7.08498 -2.00699 1.02663
4.97086 -5.28609 1.01439
7.23694 -3.73256 1.14399
7.3528 -3.66715 1.1654
7.8597 -3.35107 1.2147
-7.16638 -1.87776 1.05406
-7.01874 -2.95032 1.10376
-6.01548 -4.37894 1.07047
7.89413 -2.77839 1.22447
8.19951 4.60211 1.37765
4.95325 8.48523 1.43992
8.33662 4.48931 1.39942
7.81987 -2.3376 1.20316
7.11379 5.66294 1.36162
2.92639 9.34019 1.46315
-7.10491 -2.02264 1.10763
7.4753 -3.10614 1.22037
8.19643 4.52979 1.41956
5.75097 7.39608 1.42261
5.2571 7.58416 1.40612
5.0918 7.88875 1.42612
5.04468 7.99528 1.43074
7.32627 -3.16655 1.21905
7.67034 -2.75289 1.24102
-6.76581 -1.68519 1.05074
7.82182 -2.25398 1.2483
7.20485 5.40354 1.38292
-7.1145 -1.95543 1.14548
-6.92992 -2.78992 1.16157
6.78611 5.50433 1.37058
-7.36844 -1.09768 1.16416
-7.15555 -1.82702 1.15714
-7.05721 -2.07064 1.15288
-7.13208 -1.8754 1.15778
-6.90494 -2.93846 1.17851
4.78034 7.41209 1.40261
3.44662 -6.0325 1.10941
-7.28823 -1.30164 1.18657
3.52863 -5.70856 1.08113
3.5656 -5.61406 1.07055
7.05372 4.75467 1.38619
4.63497 7.33573 1.41215
-7.08202 -2.02662 1.20103
-7.10421 -1.94999 1.2094
6.9493 4.81548 1.39828
3.792 7.87749 1.44729
6.05116 -3.31814 1.14961
6.61806 4.86178 1.36923
4.6382 7.12875 1.4186
3.83691 -5.30123 1.09988
7.09083 4.41551 1.40653
7.46391 2.85405 1.3505
6.3043 5.27013 1.39267
-7.29186 -1.25792 1.26067
6.74095 4.07554 1.35284
-6.4588 -2.77538 1.19998
5.50869 -3.62915 1.13318
5.68969 -3.5179 1.14851
2.73392 7.79083 1.42718
-7.38618 -1.04145 1.29379
5.33319 -3.78298 1.13979
-6.31863 -2.26242 1.16431
-6.27883 -2.41961 1.17873
4.28154 -4.66508 1.10726
4.49428 -4.47743 1.11281
4.59185 -4.44915 1.12168
-6.81131 -1.73518 1.23875
4.31463 6.47308 1.38764
-7.17239 -0.929933 1.29341
-6.15119 -2.26034 1.16784
6.62935 3.68632 1.35977
6.08876 4.35377 1.35771
3.60958 -5.32872 1.17045
5.13304 5.66901 1.39879
2.49908 7.1509 1.42265
6.4772 3.04847 1.35355
-1.7059 -5.7811 1.14115
6.42415 -1.38547 1.2469
6.26663 2.775 1.31952
6.2128 2.37936 1.32733
-4.47106 3.95667 1.40462
4.31895 3.52932 1.33401
4.20521 3.2876 1.32137
4.66488 -1.67762 1.24474
4.81806 -1.38074 1.25378
-2.15848 4.83775 1.32462
3.72849 -2.95411 1.22282
3.67456 -2.55052 1.19403
3.40842 -2.96324 1.22638
3.9982 2.56549 1.32745
-2.59312 -3.5325 1.25071
-2.3244 -3.56822 1.21591
3.74982 2.055 1.2999
3.72667 1.97754 1.29939
-2.85414 3.50049 1.39434
-2.29457 -2.41753 1.187
1.9584 -2.78516 1.21448
-2.13006 2.77676 1.33039
-2.03462 2.76473 1.33655
2.25333 -1.87171 1.22653
2.38244 -1.49958 1.22333
-2.01937 1.88094 1.29976
-2.06276 -1.44195 1.2282
1.45217 -2.07344 1.24742
-1.99088 -1.08701 1.21438
-1.92363 -0.707231 1.22012
-1.92539 -0.703035 1.24573
-1.95489 -0.344176 1.22936
-1.89172 -0.564358 1.23013
-1.89135 -0.530588 1.23524
8.2051 -8.68379 -7.45213
12.0777 -10.2467 -8.7658
-8.87208 15.8398 -7.0463
20.2781 24.6923 -11.4764
-8.82494 -2.5273 -2.58669
-34.9543 -23.3496 -7.7648
-34.5374 -22.5866 -6.08862
-34.2688 -23.2885 -6.15265
-31.566 -20.2444 -2.81987
9.25663 -8.81669 -0.390687
-7.84827 16.917 -0.460079
-29.7406 -11.5086 0.734914
-6.93524 -8.28878 0.461733
16.4178 23.5751 1.56098
11.2553 15.829 1.60651
-6.70679 -6.67977 0.885286
4.16759 12.0926 1.47377
8.67158 9.03267 1.46461
7.96518 -8.75623 -10.3705
8.82323 -8.5313 -10.4872
6.95061 -11.927 -11.5045
6.86645 -11.3408 -10.8869
8.14504 -8.25733 -9.52429
7.01629 -12.0201 -11.318
7.0599 -10.9639 -10.4477
7.99482 -8.37013 -9.19567
6.72179 -11.2756 -10.2808
6.43983 -11.6881 -10.2054
7.75058 -8.84304 -8.96462
6.19999 -14.3051 -11.799
8.29036 -8.69244 -9.0926
6.29469 -11.9001 -10.1679
6.14278 -12.0797 -10.1059
7.48404 -9.43646 -8.99294
7.90255 -9.04835 -8.91935
10.4493 -9.4336 -10.4705
6.11629 -14.1065 -11.3651
6.09871 -13.6638 -11.0017
6.12647 -12.5679 -10.2842
9.18379 -8.81373 -9.33796
9.27148 -9.06009 -9.45507
5.86039 -12.4966 -10.0272
9.34733 -8.97696 -9.24939
6.85428 -11.1146 -9.26784
5.61152 -12.9618 -9.99734
9.67586 -9.06615 -9.39735
7.60193 -9.33567 -8.46493
9.98008 -9.17105 -9.5225
10.898 -9.47687 -10.1343
11.4174 -9.6789 -10.0525
8.37638 -8.5996 -7.94819
7.42382 -9.2902 -7.85778
8.159 -8.70949 -7.88851
7.62054 -9.34295 -7.88828
7.82922 -9.39303 -7.83746
8.31214 -8.52683 -7.61249
0.361759 15.8802 -10.1341
7.52026 -9.3151 -7.6189
10.8894 -9.58852 -9.22554
7.21737 -10.6897 -8.1637
8.14721 -8.48918 -7.42057
4.61083 -15.4013 -10.1112
8.7054 -8.69272 -7.61175
7.9138 -9.02397 -7.40375
4.04659 -18.015 -11.3739
8.18983 -8.61934 -7.26893
4.08557 -17.3091 -10.8523
0.147546 14.8865 -9.05769
6.64725 -11.2508 -7.9565
7.7354 -9.25964 -7.32109
10.1059 -9.2944 -8.33155
6.81342 -11.24 -7.89105
8.05213 -9.19506 -7.33692
11.244 -9.67547 -8.86922
5.3963 -13.847 -8.81448
7.72738 -9.25727 -7.15148
9.33802 -9.02112 -7.69385
6.89467 -11.1036 -7.73598
7.97528 -9.1189 -7.10867
9.73702 -9.17279 -7.79633
14.7943 7.39239 -9.60408
8.65633 -8.81996 -7.1412
6.92544 -10.9532 -7.44811
2.6383 -11.2065 -6.6216
7.85179 -9.06246 -6.86772
9.58927 -9.12516 -7.51964
10.7724 -9.47749 -8.09439
3.28016 -20.6091 -11.7359
6.79436 -10.9719 -7.23518
10.0879 -9.2746 -7.67446
12.3061 -10.3259 -9.00921
9.22698 -8.99455 -7.20059
4.61104 -14.2801 -8.36642
7.99442 -9.20561 -6.77173
14.7162 7.52352 -9.07292
9.68126 -9.09195 -7.29436
0.838433 17.4617 -9.54575
2.74255 -19.8703 -10.9376
11.1068 -9.62495 -7.98012
4.22727 -14.4031 -8.12599
14.6299 7.65057 -8.89177
15.0083 10.3619 -9.79102
13.9683 7.70587 -8.52307
10.927 -9.59725 -7.73406
13.2234 -10.7685 -9.07208
3.04496 -19.3455 -10.2952
11.3295 -9.80238 -7.6233
2.16892 -20.3944 -10.3518
10.2391 -9.32207 -6.96331
14.2225 -11.2495 -9.10514
13.7585 -11.1285 -8.85932
10.9815 -9.63205 -7.27777
7.49825 -9.3251 -5.92599
3.56136 -8.46422 -4.52568
-8.72281 -1.91521 -4.39096
2.22488 -20.1848 -9.96001
4.52966 -9.29491 -5.05698
0.405238 13.6527 -6.68555
7.59718 -9.25726 -5.844
-8.57084 16.3588 -8.94553
-9.22573 -2.43892 -4.59814
14.937 -11.5349 -9.06986
19.2834 5.51734 -9.59131
-10.3456 -2.56142 -5.04126
1.90958 -20.5683 -9.82255
17.0919 16.0613 -11.1069
7.56863 -11.1898 -6.3747
19.9298 5.37936 -9.72083
13.9815 -11.0696 -8.29332
2.9247 -17.3108 -8.16381
19.2605 5.69871 -9.27865
17.7586 -12.942 -10.1509
9.84379 -2.48637 -4.69097
20.1829 5.11554 -9.60588
17.2153 16.1881 -10.8877
1.81087 -20.246 -9.30275
9.65294 -9.02649 -6.05186
-9.23598 -1.67642 -4.28113
9.43318 -3.46131 -4.57634
6.6995 -11.2942 -5.97339
9.8909 -2.6125 -4.64008
19.1536 5.84049 -9.01438
17.5905 17.4474 -11.1363
9.34964 -3.07985 -4.4308
15.3641 -11.8226 -8.70043
7.02206 -11.5376 -6.04168
7.13753 -10.8961 -5.80635
9.53897 -3.39748 -4.51234
-10.1051 16.5644 -8.63942
17.5679 -12.8214 -9.66525
19.4385 5.59966 -8.96555
16.0319 7.27171 -7.79472
17.6951 17.8725 -11.1214
16.3539 -12.1629 -8.98335
-11.3833 17.3113 -9.10781
-6.62655 15.1462 -7.24967
-5.25782 4.93184 -3.14143
20.0317 5.4389 -9.02355
9.53793 -3.39777 -4.36956
18.0823 18.3267 -11.0641
15.7542 -12.1238 -8.55466
14.7992 7.3994 -7.06081
3.83443 -9.29232 -4.27114
-11.3037 17.1933 -8.71196
6.93016 -10.8845 -5.4413
-13.6551 3.34655 -5.92367
0.743319 -22.4311 -9.45778
15.7434 -11.9206 -8.2589
-5.18937 5.71471 -3.23016
0.999311 -22.2965 -9.35573
1.23142 -20.7959 -8.72749
14.1118 7.5684 -6.69699
18.405 19.1797 -11.105
3.77918 -8.94659 -4.05026
14.711 7.69796 -6.9105
17.7813 18.99 -10.7947
-9.54061 -1.09498 -3.96432
4.00488 -8.49755 -3.8489
13.9788 7.71852 -6.55444
6.82962 -10.9642 -5.28141
-13.6921 2.55779 -5.69831
-8.06121 15.6186 -7.14349
19.0913 20.7441 -11.4198
15.0119 7.21312 -6.70985
-5.33037 14.5603 -6.21759
13.9001 -10.9894 -6.94075
1.52827 19.1741 -7.46945
-8.85986 16.0029 -7.10929
18.902 5.76441 -7.6563
-1.76175 13.3595 -5.21973
5.2883 -9.38107 -4.15321
-2.39854 13.5876 -5.29998
19.4062 22.4485 -11.3766
4.65623 -8.50776 -3.68335
19.3253 5.54402 -7.64996
0.879 -26.6577 -10.1357
14.8443 -11.439 -7.05318
19.8802 5.38591 -7.7084
9.42407 -3.43351 -3.74987
0.534563 -22.799 -8.49803
3.2425 -10.7752 -4.20421
19.9952 23.2619 -11.3897
0.910354 -8.72949 -3.25477
13.9752 -11.0677 -6.57391
20.2852 5.15931 -7.69553
17.747 17.5357 -9.11615
-13.1016 2.2953 -4.83597
20.6302 24.6351 -11.6524
2.283 -13.238 -4.83994
12.9896 -10.5046 -6.01174
0.796177 15.4054 -5.51877
-8.21847 -2.80458 -3.10613
0.4103 -21.9453 -7.84568
-4.26631 14.0058 -5.20878
0.638864 -22.0008 -7.82143
15.7866 -11.9231 -7.01236
-15.979 18.4734 -8.60903
5.9189 -11.3206 -4.49193
-11.1895 16.8866 -7.07638
0.0929859 -18.5849 -6.53265
14.2108 -11.2624 -6.34073
20.24 5.33039 -7.30519
0.658435 -23.1335 -7.99215
-5.08198 14.7561 -5.34844
3.63641 -8.44172 -3.16409
4.87115 -9.02331 -3.51401
-14.7348 18.294 -8.04146
2.27345 -10.88 -3.80925
-9.02177 16.3671 -6.37175
3.01915 -13.6617 -4.7707
-15.218 18.6788 -8.16879
20.0588 5.45371 -6.98651
21.7887 26.9533 -11.5818
35.7043 -20.1554 -13.7027
-5.38152 14.2763 -5.06834
1.90671 20.6408 -6.87681
1.26739 -10.2501 -3.41498
-5.32726 14.6716 -5.07079
-12.7865 17.5054 -7.03336
18.4635 -13.1569 -7.36303
3.5585 -8.66975 -3.00476
6.20931 -10.096 -3.79873
2.31281 -11.0062 -3.57906
-4.6264 -34.7403 -11.1381
-1.14917 -24.0533 -7.6645
14.9413 10.2901 -5.72477
-13.4214 17.8601 -7.06255
-18.2942 19.7323 -8.45954
6.94587 -11.0696 -4.04057
1.38777 -21.9615 -6.80716
-2.60523 -27.7352 -8.54993
7.09894 32.7748 -10.2313
0.771145 14.994 -4.55968
-11.3138 17.0711 -6.17373
-2.73651 -26.859 -8.12943
-14.5788 18.2284 -6.96546
-5.37296 -35.2213 -10.6074
0.841485 -25.2086 -7.54114
-5.47669 15.066 -4.76962
2.07118 20.5858 -6.09468
-21.6371 20.1751 -8.72897
18.1284 5.76883 -5.59937
-4.3577 14.6408 -4.49251
-8.05229 15.6231 -5.1577
4.25095 -9.13301 -2.96099
4.62826 -11.5974 -3.65141
-12.677 2.23324 -3.69962
-33.758 -47.818 -16.8415
-15.4451 18.5809 -6.94669
6.94145 -11.0558 -3.75855
2.56209 -9.54024 -2.80684
12.8932 -10.4363 -4.72083
-8.46937 -2.46483 -2.50118
20.8323 26.8662 -9.63064
-8.59753 -2.26597 -2.51245
-2.59145 -26.434 -7.45263
-13.0862 2.00531 -3.68685
4.37929 -11.3078 -3.36594
-9.46101 16.2714 -5.16842
-13.2704 17.6989 -6.0769
-5.47959 14.6269 -4.27033
-8.69067 -42.1972 -11.7861
-21.8354 20.3766 -8.02972
-9.88825 16.3976 -5.13256
-27.1774 20.8772 -9.11778
11.3738 11.4472 -4.25725
4.31823 -11.2732 -3.19833
46.551 -13.5324 -12.8433
-8.39802 -39.6266 -10.6451
4.08429 -8.64635 -2.51802
11.1408 -9.9093 -3.90072
-14.6897 18.3931 -6.12161
6.52495 -10.4057 -3.17921
3.17472 -9.63634 -2.62303
-30.8105 -45.1249 -14.108
-4.44431 -29.1462 -7.62674
3.53556 -10.3564 -2.82196
4.06298 -9.37525 -2.6264
15.542 -11.6865 -4.96192
-7.27664 15.5035 -4.336
-32.2421 -42.9988 -13.6275
4.30345 -11.1231 -3.01879
4.25107 -7.69704 -2.23792
6.52237 -10.6392 -3.11248
44.2807 -13.3878 -11.5345
-28.7691 21.7052 -8.91038
-11.718 17.2163 -5.13491
-28.1603 -41.0792 -12.2448
-10.1292 -39.8653 -10.1444
-24.8968 20.9114 -7.99065
4.34277 -10.315 -2.74998
-12.2599 17.5614 -5.19379
-7.97303 15.5358 -4.20985
10.2505 -9.24612 -3.30554
39.859 -13.2402 -10.0512
15.0507 7.52695 -4.00577
-6.45475 -36.9592 -8.93596
3.96129 -9.07767 -2.34696
46.4267 -12.4257 -11.4074
-12.4916 -45.9904 -11.2878
3.84769 -11.0359 -2.75483
4.90175 -8.68148 -2.3455
-12.9869 17.6983 -5.10956
10.9785 -9.62104 -3.33659
-6.30674 -31.9777 -7.43591
-27.6169 21.33 -7.91052
41.077 -8.98318 -9.54257
-31.0401 22.5367 -8.60062
-35.9326 -23.5475 -9.62558
40.2843 -12.4532 -9.46786
5.4452 -9.45803 -2.43678
-12.466 2.84447 -2.80559
40.1558 -11.7675 -9.24592
42.1002 -12.0124 -9.63264
-5.47198 14.3588 -3.36084
13.3432 -10.7371 -3.77011
37.6755 -12.1077 -8.70034
-23.7765 20.7226 -6.84184
-30.872 -76.1105 -17.8195
4.30154 -9.68182 -2.29761
4.53143 -9.16471 -2.20845
-14.8156 18.4589 -5.05543
-31.4894 22.8733 -8.31104
-32.3879 22.9845 -8.49007
-29.5338 -78.3555 -17.9461
-10.8651 16.9779 -4.27488
-8.63418 -36.6486 -8.00534
3.18442 -9.6676 -2.17067
3.95797 -9.80893 -2.25548
45.2269 -10.4858 -9.91107
14.8838 7.45505 -3.52875
-15.4018 18.9599 -5.17247
5.15557 -9.0401 -2.18657
26.142 37.8229 -9.60644
14.922 7.80937 -3.4963
-30.5423 -23.5879 -8.005
-11.6331 17.1404 -4.21032
-15.8695 18.7631 -5.00347
-35.8315 24.0527 -8.76974
43.8964 -9.57465 -9.16264
-13.6358 -43.8752 -9.33645
4.12763 -9.71502 -2.14776
11.5691 -9.61706 -3.06114
-12.1885 17.4916 -4.25649
-20.6626 -59.3002 -12.5483
-13.2958 -41.3007 -8.58885
4.06161 -9.90153 -2.11914
-34.5807 -23.6459 -8.2579
-27.1689 21.3233 -6.79786
-33.5971 -24.0325 -8.05171
-7.00663 15.4839 -3.29979
-27.5829 -64.8097 -13.6794
-34.0023 -22.6364 -7.87122
3.42945 -9.34494 -1.92234
45.3096 -10.4979 -8.93159
-12.9462 17.6759 -4.18909
3.98178 -9.32768 -1.93562
-36.9396 -22.4381 -8.18107
-21.6579 -35.1827 -7.85652
-16.0412 -46.2841 -9.26725
37.5074 -12.3728 -7.46686
-36.6139 24.5909 -8.25453
-34.1473 -23.5829 -7.79555
-33.0862 -24.2072 -7.69519
-22.0111 -54.5296 -11.0632
-17.3712 -47.184 -9.32532
3.81532 -9.19522 -1.83894
42.0853 -11.3427 -8.09459
5.7462 -9.69356 -2.0654
-25.3672 -57.5204 -11.5081
-21.0725 -52.3024 -10.1975
-14.7845 18.4294 -4.18996
-31.5195 -25.4211 -7.1974
-20.5676 -27.4069 -6.1272
-40.1178 25.3148 -8.36992
-27.1803 21.3417 -6.01515
-34.6831 23.7334 -7.29714
3.90127 -10.0289 -1.86613
4.76506 -8.60028 -1.70878
13.9445 7.48857 -2.7296
14.0157 8.04281 -2.76726
-31.3405 22.7903 -6.64343
41.7686 -11.8172 -7.39072
41.5736 -10.7672 -7.31123
-31.6765 -25.1571 -6.86163
-21.3843 20.3658 -4.95927
-21.0382 -52.292 -9.52255
14.796 7.41573 -2.77539
-32.2274 22.8151 -6.59596
-24.3653 -58.0901 -10.4077
43.0642 -11.6011 -7.24974
-10.5097 16.6851 -3.18274
-21.3414 -52.9443 -9.10309
-35.3705 -24.4165 -6.77228
-23.1151 20.3086 -4.81836
-24.544 20.9523 -5.0018
-40.8317 24.7222 -7.39676
-11.3904 17.0482 -3.16575
3.46535 -9.5105 -1.56561
3.86 -10.2075 -1.68993
-7.74569 15.7108 -2.67626
-31.5777 22.983 -5.97042
-32.1829 -24.8571 -6.18324
-28.3136 -26.4841 -5.87299
41.7578 -10.8557 -6.55876
44.3538 -9.66309 -6.91633
-6.64952 14.8116 -2.43009
9.81547 -5.14503 -1.64484
-33.9409 -24.48 -6.23165
10.1687 -9.14274 -2.03803
44.4903 -10.2922 -6.78218
-37.1635 -24.7392 -6.57017
-31.9414 -26.3466 -6.05656
-13.0302 -43.1727 -6.63437
16.8409 -12.1843 -3.04514
-25.7759 21.222 -4.85235
-25.5245 -57.1899 -9.02362
-7.74106 15.5051 -2.47876
-12.8974 17.5851 -3.10968
6.01694 -11.4954 -1.85429
-13.6111 18.1927 -3.19202
-35.2948 23.8424 -5.9883
6.74118 -11.0114 -1.80477
37.2275 -12.2857 -5.51426
-31.5639 -25.2921 -5.64463
-33.5661 24.1222 -5.72628
-21.2137 -51.1281 -7.64463
44.6384 -9.98606 -6.30795
-6.98716 15.4532 -2.31837
-23.5115 -61.3611 -8.92555
7.73588 -9.36183 -1.62994
-14.2086 18.1423 -3.10684
13.1707 -10.5047 -2.27976
-22.552 20.5137 -4.09964
41.6782 -10.7759 -5.71567
44.3683 -9.71843 -6.01236
-22.9346 20.1827 -3.99507
-33.1218 -24.7845 -5.40311
-15.113 18.5065 -3.08973
-34.5914 23.0879 -5.39936
-38.8146 -16.3891 -5.43974
6.99934 -10.4095 -1.60963
10.727 8.78243 -1.77978
-34.2493 -23.6024 -5.32263
-31.9554 23.3281 -5.00485
-36.0496 -22.4953 -5.32582
41.5483 -10.745 -5.3711
6.77926 -10.3421 -1.54538
-7.78022 15.5623 -2.15492
-25.3951 21.3237 -4.0606
-33.9587 23.933 -5.12476
6.27492 -12.0346 -1.65368
44.3219 -9.45594 -5.55144
14.9357 7.82494 -2.02699
-18.43 -44.6363 -5.82255
7.06888 -10.5059 -1.52484
-20.7038 9.17564 -2.6803
-14.7309 -44.56 -5.51775
-32.2686 -24.8786 -4.76413
-31.7485 -25.3908 -4.75697
41.6269 -11.1506 -5.0655
11.2 -9.64523 -1.71261
-30.3638 23.0232 -4.38411
6.62529 -10.7951 -1.45022
7.47472 -9.20278 -1.3563
11.5502 -9.69607 -1.71304
9.43482 -4.60272 -1.18878
14.9147 7.66425 -1.88961
-10.5059 16.7254 -2.22948
-32.7231 23.9109 -4.54029
38.5037 -12.6749 -4.5464
9.33565 -9.0027 -1.43499
-11.2293 16.8415 -2.20081
6.76859 -12.7432 -1.56328
44.4613 -9.66298 -4.93303
10.7243 8.81275 -1.49567
16.6958 -12.4021 -2.23253
41.8185 -10.8459 -4.62974
9.59675 -8.95786 -1.39099
8.36317 -8.44812 -1.24545
-31.3021 -25.049 -4.17438
-31.2255 -62.6321 -7.30032
14.912 7.47857 -1.7042
-32.2063 -24.8331 -4.17248
-13.0447 17.7827 -2.23963
-12.9578 17.3604 -2.1535
10.1826 -9.06577 -1.33575
-21.5505 -54.73 -5.76617
6.29417 -12.0536 -1.31636
16.5668 -12.1205 -1.97347
41.7082 -11.2075 -4.14031
-31.8042 -64.2884 -6.81793
-21.5566 -56.5708 -5.74891
-23.6529 20.6889 -2.93773
45.1451 -10.043 -4.32028
9.69379 -8.96601 -1.22251
39.3185 -12.9701 -3.85862
-15.2378 18.679 -2.18323
-29.9796 -13.6686 -3.0032
-33.4725 -65.2518 -6.75939
15.789 -11.8178 -1.79437
8.61835 -8.70913 -1.10965
12.8469 -10.6045 -1.45083
44.7354 -10.3688 -3.93436
9.38036 -9.0073 -1.09334
10.9215 -9.61777 -1.22341
-34.7223 23.8454 -3.50508
16.7657 -12.2262 -1.71898
-17.3933 -45.2604 -3.88348
14.6238 -11.4348 -1.48059
-11.9648 -33.4958 -2.80731
-30.2951 23.035 -2.9431
-33.639 23.7772 -3.18001
-23.4124 -53.4799 -4.50689
-52.1996 28.4092 -4.50003
-21.6979 20.421 -2.16747
-33.8688 23.9564 -3.00641
16.3046 -12.1827 -1.48922
41.732 -11.1675 -3.14788
-40.9418 -77.4655 -6.32308
13.9215 -11.0147 -1.2707
-15.9531 -42.3193 -3.12143
10.7366 -9.58853 -0.986429
-23.6774 20.7317 -2.12542
12.8253 -10.5828 -1.1133
17.8634 -12.9562 -1.47151
15.9695 -12.079 -1.32268
-15.043 -41.7081 -2.86805
43.4601 -11.3029 -2.80747
-33.0215 -66.9069 -4.5531
35.5497 -8.62435 -2.24542
42.6527 -9.76247 -2.68675
6.02263 -13.0186 -0.857599
30.6191 -20.2605 -2.19764
-9.99138 16.6791 -1.14317
-15.9452 -41.5942 -2.53652
16.5333 -12.3561 -1.1592
-9.72756 -12.6102 -0.872729
14.902 7.64526 -0.905413
13.8493 -10.9631 -0.946087
-12.9667 17.5719 -1.14071
-16.8656 -41.8028 -2.39404
14.7964 7.78038 -0.819184
-16.7014 -42.6908 -2.24937
-14.3516 18.1906 -1.10805
9.54305 -9.00161 -0.601841
-24.758 -56.7919 -2.80359
12.4097 -10.2017 -0.744973
-16.4566 -45.8742 -2.16396
-17.6396 -43.4603 -2.00822
6.82719 -12.6063 -0.636257
-14.2989 -43.5873 -1.9542
-53.6578 29.1809 -2.47382
18.2415 -13.1052 -0.911873
16.7221 -12.4295 -0.811736
-43.321 -84.0821 -3.56876
-18.7651 -49.2084 -1.9399
-34.1698 23.4778 -1.51591
42.2087 -10.8756 -1.57001
-35.779 -71.1706 -2.66549
-26.7004 -58.5139 -2.16587
19.933 23.0535 -1.01143
-21.7417 20.374 -0.970542
8.07559 -14.2528 -0.550434
9.39985 -8.97358 -0.421389
11.2658 -9.91784 -0.48806
18.4949 -13.0772 -0.744742
34.5428 -13.0284 -1.22563
21.679 26.2423 -1.09089
-27.6215 -13.8547 -0.968418
-23.2241 20.681 -0.94741
-32.1854 22.7952 -1.23045
-25.806 -59.3288 -2.00421
-14.1347 -39.9864 -1.30662
-22.2141 -56.6648 -1.84324
-17.0785 -46.2862 -1.41382
-34.4224 -20.8711 -1.07203
11.4147 -9.68349 -0.401165
16.264 -12.0969 -0.534598
-41.7782 25.8453 -1.29499
-30.7591 23.4047 -0.955752
-31.2809 22.925 -0.916361
9.54554 -8.986 -0.303826
-41.9101 14.4851 -0.979493
-32.2426 -53.9905 -1.41672
21.1408 -14.139 -0.559396
30.2307 -18.3309 -0.798463
14.179 3.9185 -0.299995
26.7646 46.77 -0.9896
23.4075 -10.8974 -0.455027
46.6457 -10.7409 -0.890877
-30.9843 -22.2664 -0.695657
-29.9859 -29.4522 -0.66651
-19.4945 -47.8346 -0.860691
12.6771 -10.4248 -0.270227
18.423 -13.3123 -0.347657
-29.5369 -13.1284 -0.424124
-33.2418 -24.8773 -0.577616
-34.5979 -69.7466 -1.05189
-28.6275 -60.9285 -0.923131
-34.3498 -23.4591 -0.542969
-30.7798 23.4168 -0.454732
16.9163 -12.6326 -0.250949
29.0715 -18.0258 -0.403001
-31.2353 22.9311 -0.430829
-19.5532 -44.8442 -0.523947
-12.2856 -36.9783 -0.392885
-34.3846 -60.5848 -0.642457
-14.5259 18.4257 -0.179694
-26.9367 -13.5807 -0.243369
-15.2249 18.5589 -0.163757
-22.8717 20.4265 -0.157279
-21.289 19.9683 -0.132273
-10.6116 -13.6421 -0.0606699
14.6647 7.70372 -0.0198733
11.0753 -9.73882 -0.00789563
-34.8896 -19.1098 0.0608854
-11.5774 -34.408 0.117654
16.8772 -12.2617 0.0903302
-19.2612 -44.22 0.213735
18.6828 -13.1635 0.121151
7.14968 -12.2901 0.103663
25.8475 -10.6046 0.171596
-56.3615 20.1249 0.571693
16.1752 -11.9875 0.192035
37.146 -7.58378 0.357472
-29.3281 -8.26988 0.356763
-36.7371 -22.1738 0.473402
-11.5512 -33.0956 0.375444
-12.9764 -35.9582 0.454524
-10.4852 -32.2292 0.406104
6.30314 -12.8836 0.183024
7.19218 -11.08 0.173607
-28.6115 22.4592 0.557765
11.2794 -9.8507 0.225029
-24.4673 20.9238 0.532143
10.8687 -9.70445 0.22858
12.9261 -10.6412 0.263651
36.1097 -7.72792 0.614117
-34.9875 -23.4411 0.766134
-31.7207 22.6804 0.766579
6.1165 -12.7793 0.27486
7.00143 -11.0182 0.251434
8.00799 -9.39681 0.241022
26.6454 54.7889 1.32582
7.71151 -9.42233 0.275204
10.1033 -9.15093 0.328774
-29.0629 -9.31933 0.735489
-23.6449 20.6384 0.849999
-27.9999 22.0778 0.957903
-29.1922 -8.76542 0.803513
9.16854 -8.87492 0.344624
9.60135 -8.92371 0.357221
-25.9736 21.8907 0.923827
25.2309 -5.10423 0.716572
12.9359 -10.612 0.498303
14.6135 23.8064 0.862128
6.1641 -12.7162 0.444657
7.43293 -11.5867 0.431929
-28.7099 -8.09712 0.979079
-12.7152 -19.4685 0.765947
-28.389 -8.87295 1.02869
16.0117 10.9593 0.701376
-30.1437 -18.6789 1.23963
15.5193 26.9582 1.11043
-30.7598 -16.7786 1.29859
23.4104 -4.22732 0.85936
-28.1252 -20.0031 1.27893
-7.31404 -7.97482 0.408481
9.03049 -8.80603 0.468786
12.3345 13.4927 0.705046
25.2193 52.0251 2.1901
24.104 51.3196 2.13553
-11.6033 -9.18447 0.583645
8.70397 -8.64973 0.48535
-26.0554 21.4634 1.3714
21.7273 -2.9446 0.888201
-29.0951 -17.6724 1.39469
9.39126 -8.9047 0.530548
12.3534 14.2276 0.810829
6.5509 -12.406 0.595722
14.6934 19.0918 1.05934
20.4543 28.2528 1.52787
-9.54495 -13.8784 0.740322
-10.0429 -15.7067 0.827475
7.57466 -10.9171 0.585366
8.60523 -8.69445 0.552737
24.051 -3.68437 1.09847
-30.1363 -8.78217 1.43314
6.72138 -11.0497 0.595032
-8.29795 -8.16616 0.54804
20.7694 41.9043 2.23789
-28.854 -17.8329 1.60349
-9.81961 -13.7738 0.805093
9.63586 -8.94035 0.61902
14.982 41.6337 2.14215
-30.5544 -13.5335 1.59525
-6.7799 -8.2657 0.526157
14.2016 33.0261 1.83463
-30.029 -11.7594 1.61869
-7.61134 -6.99888 0.522824
-6.71539 -7.61261 0.513658
15.8247 28.6664 1.70045
10.4591 12.23 0.86981
14.0506 19.1205 1.27417
9.32148 -8.90298 0.690562
14.635 19.0421 1.32624
15.0484 23.2421 1.5248
-27.9157 19.6555 1.87239
-6.99144 -8.21644 0.598395
-26.841 20.5951 1.88203
6.06614 -12.8082 0.792934
-7.12776 -9.1858 0.663139
9.86895 12.3269 0.928804
14.658 24.6969 1.67799
6.43264 -12.9194 0.830582
13.6255 22.2296 1.54021
-8.2847 -8.14353 0.70008
11.4423 11.5212 0.968425
14.4831 19.2627 1.4481
-7.42352 -10.0493 0.777084
6.98539 -11.1317 0.800865
11.2226 -9.68006 0.898388
5.8479 -10.7201 0.757745
-7.21193 -6.66606 0.613857
14.2774 20.2535 1.56804
16.0437 7.12158 1.13974
-7.05237 -6.16171 0.614694
6.4325 -13.3827 0.989557
9.22995 20.8487 1.53818
10.3209 12.4398 1.10511
13.378 17.9887 1.5637
12.2096 20.2433 1.6359
11.247 11.8808 1.1484
6.57916 -9.81174 0.836546
11.3961 11.6593 1.17995
9.77874 -6.90281 0.851623
12.2511 11.8601 1.2524
9.8942 -8.3555 0.94864
-6.20363 6.72362 0.683523
10.3565 9.11918 1.03665
11.7613 17.5851 1.59185
11.3127 18.0233 1.60345
-6.96388 -7.71907 0.806295
10.6912 18.4528 1.63634
9.48262 -8.92785 1.00646
-6.42687 -4.30645 0.610388
9.0388 18.109 1.61738
10.0506 -6.87752 0.975064
12.347 11.4556 1.36158
9.58796 18.6159 1.68615
-7.29024 -9.6699 0.986491
6.69836 -9.35307 0.936105
12.1345 11.6083 1.37603
12.0376 11.8385 1.40207
11.3186 11.8305 1.35553
-5.07311 -11.5787 1.06335
10.209 12.7727 1.39134
-6.97614 -6.09604 0.798173
-6.83295 -6.71156 0.809203
-5.23419 -11.4798 1.07292
-7.32136 -7.76893 0.919454
9.25781 -7.23503 1.01509
-7.14151 -8.08142 0.943951
-7.03628 -7.71163 0.918245
9.29436 12.4061 1.37437
-6.97302 -8.39733 0.975281
10.7345 9.0069 1.2771
10.3527 13.3337 1.52521
10.4442 9.17264 1.27248
7.62343 13.8382 1.4532
-6.51647 -8.15877 0.956852
-6.92562 -9.04807 1.05179
11.103 10.7084 1.42333
11.1648 9.10933 1.34843
10.7753 10.7104 1.4242
6.39274 14.7727 1.51252
-11.4861 2.94258 1.11243
-6.37175 -4.17775 0.714066
-6.82093 -6.30798 0.861756
9.33073 13.159 1.55616
-6.07304 6.5991 0.883743
7.94308 -6.59478 1.00612
7.84126 13.0745 1.51437
-7.08794 -7.63838 1.04994
9.21958 11.528 1.4889
6.92962 12.3038 1.43309
6.98126 12.8615 1.49184
9.46176 9.02433 1.35319
5.78182 13.7831 1.5491
9.0487 12.3069 1.59258
-6.11628 -4.46339 0.793902
5.88183 13.5152 1.55251
6.14121 13.4518 1.55456
-6.98317 -4.43585 0.885142
8.70147 8.95015 1.33081
9.06029 10.0934 1.47512
7.25985 10.9008 1.42335
5.76391 11.3527 1.3842
-6.31388 -7.42769 1.06572
10.2057 6.414 1.33369
8.92908 8.08155 1.32758
7.23873 11.5707 1.50704
6.77664 11.5176 1.47741
5.29597 11.76 1.43488
4.81011 11.9563 1.44173
4.6349 13.479 1.56793
9.80443 7.01021 1.34583
8.69029 9.23767 1.41723
5.323 11.3895 1.41566
-6.85676 -6.73853 1.07023
6.8032 10.6187 1.42061
4.25735 12.9869 1.54446
9.72934 -3.18818 1.14152
-6.11373 -5.42254 0.946364
7.2764 -6.10917 1.07845
10.3558 5.68201 1.35478
-7.39576 -0.987713 0.855392
-6.26741 -5.36474 0.949855
5.24158 -5.54978 0.87944
5.00993 11.4912 1.45612
-6.89504 -4.56718 0.958668
4.44712 -7.25138 0.983718
10.3513 5.12074 1.35521
8.82337 7.83116 1.38492
-6.01029 -4.37423 0.866607
-6.49678 -5.28241 0.989439
4.08536 -7.8531 1.05274
4.96104 -5.84362 0.919612
10.114 4.7292 1.33844
8.45785 8.21281 1.42794
5.21675 11.365 1.52636
8.99206 6.22927 1.33934
7.95345 8.27725 1.43796
-6.50144 -5.75711 1.08129
3.70173 -7.56315 1.05461
8.62306 6.64871 1.36923
-6.47892 -5.35362 1.06397
9.03865 5.97858 1.38357
8.13129 7.09506 1.37684
8.06032 7.45768 1.4021
5.76947 -5.33849 1.00912
-6.98464 -4.45124 1.06346
8.04535 7.94345 1.46644
-7.37193 -1.04443 0.962433
-6.93504 -2.83127 0.978623
8.93463 4.08232 1.28642
8.35206 6.5891 1.39654
4.99274 -6.02119 1.02811
4.9108 -6.18536 1.04577
6.85992 -4.27626 1.07595
-7.14661 -1.72145 0.985891
-7.02206 -2.22394 0.985172
-6.03416 -4.42882 1.00098
8.08672 6.61885 1.41668
8.57003 4.41902 1.31461
8.5877 5.14087 1.36707
7.97791 7.09323 1.45302
-6.81984 -3.73978 1.05646
8.82131 4.1407 1.33387
8.22044 5.80198 1.37785
-6.40804 -4.3359 1.05905
-5.96604 -4.53162 1.02349
5.31375 8.95432 1.43807
3.5995 9.95755 1.47015
-7.38212 -1.09509 1.03395
-6.9159 -3.93373 1.10452
4.94429 -5.53838 1.02599
5.2231 -5.39292 1.04193
7.45194 -3.53149 1.15317
3.34469 10.0303 1.48125
8.36336 4.57727 1.34865
7.36387 -3.67257 1.16728
7.5749 -3.32956 1.1796
7.74889 -3.30015 1.19502
8.90425 2.8037 1.34363
4.82935 -5.63022 1.06616
7.34278 -2.84881 1.1466
-6.97013 -3.30569 1.12482
7.90442 -2.77478 1.22135
8.6462 -1.81618 1.29679
4.96885 8.50718 1.45412
2.91842 9.32771 1.45368
7.71904 -1.88471 1.17099
7.19316 5.72854 1.37005
3.41729 9.45339 1.48561
3.14886 9.67985 1.50827
-7.3845 -1.04538 1.10631
-7.0867 -2.02656 1.09892
6.9102 6.25536 1.40721
-6.27197 -2.27489 1.00167
-7.25343 -1.37782 1.11499
7.90391 4.7962 1.40846
5.67371 7.31084 1.40404
5.25767 7.58075 1.40398
5.0207 7.95636 1.42226
6.75125 -3.22172 1.13123
7.23594 -3.12023 1.20668
7.62383 -2.75105 1.23503
-7.33098 -0.734375 1.12565
-7.10948 -1.95784 1.13861
6.78074 -3.08903 1.15225
3.74973 -5.78639 1.06615
-7.06498 -2.0795 1.15506
-7.36003 -1.09496 1.16891
7.32952 4.75407 1.37977
-7.21143 -1.44608 1.17068
-7.28484 -1.30347 1.18792
-7.10959 -2.02247 1.2025
7.03967 4.74288 1.38557
-7.11332 -1.94878 1.21205
6.9792 4.84394 1.41106
6.58693 4.83135 1.36316
5.179 6.21029 1.347
4.64299 7.12569 1.42026
3.79128 7.86876 1.45162
-7.26237 -1.376 1.23442
2.7937 -5.77948 1.08204
7.11296 4.4106 1.40988
6.48405 5.21454 1.40366
3.87394 -5.36564 1.11572
3.93729 -5.02176 1.08016
-7.2857 -1.25473 1.25465
-6.60789 -2.62905 1.20706
7.39252 2.83857 1.34304
7.00388 3.8767 1.36413
-6.42319 -2.75683 1.18968
6.74869 4.08295 1.35402
5.67928 -3.51765 1.14976
-7.41024 -1.04159 1.29462
-6.36575 -2.28362 1.16317
5.53255 -3.64609 1.14204
5.31683 -3.7725 1.14263
3.57012 7.10873 1.39908
-6.81043 -1.73796 1.23489
4.47997 -4.46737 1.11333
-7.10513 -0.916293 1.27674
4.7246 -4.45717 1.14936
4.30285 6.45408 1.38399
6.56355 3.46197 1.34003
6.60207 3.66939 1.35684
-6.45104 -1.5028 1.19186
3.60969 -5.32752 1.17055
5.05282 5.5853 1.37895
-6.16332 -2.18618 1.19901
3.41452 -5.16061 1.1507
3.36366 6.72291 1.40616
-1.69664 -5.77854 1.1442
6.42551 2.72375 1.32804
-2.14226 -5.72519 1.17537
6.29014 2.78759 1.32449
-2.78692 -5.37554 1.1868
-3.54582 5.3851 1.39804
4.45521 3.87987 1.34817
4.15231 -2.87955 1.17725
4.62849 -2.1862 1.23675
4.18708 3.28192 1.31765
3.70956 -2.93191 1.22442
4.00885 2.56845 1.32993
-1.44178 -4.11427 1.22101
-2.31986 -3.57799 1.21224
3.85166 2.35919 1.3084
-2.87192 3.54001 1.36771
-2.47965 -2.91545 1.18933
-2.37709 -2.93652 1.19423
1.84569 -2.81564 1.18343
1.86864 -2.79371 1.21344
1.99464 -2.52954 1.19961
-2.04868 2.81512 1.32514
2.80438 -0.555785 1.25915
2.78342 -0.33687 1.24074
-2.08842 -1.61861 1.21297
-2.07627 -1.45083 1.23812
-1.86117 -1.79508 1.28324
-1.99396 -1.13109 1.20467
-1.98551 -1.07008 1.23153
-1.94542 -0.880158 1.23185
-1.9299 -0.708266 1.22224
-1.92879 -0.701374 1.24947
-1.9053 -0.46961 1.22242
-1.87076 -0.34564 1.2197
-1.85556 -0.401094 1.22638
2.37835 -19.7074 -10.0167
-7.62075 -8.9973 0.466316
8.00737 -8.78803 -10.4538
8.25393 -8.61933 -10.4911
8.20563 -8.28052 -9.87432
6.94924 -11.9431 -11.3967
8.50445 -8.96134 -9.72821
7.8407 -8.92649 -9.12452
5.84414 -12.7865 -10.7196
9.41235 -8.82039 -9.72979
6.14129 -14.0819 -11.5658
8.27613 -8.66751 -9.01058
8.00714 -9.15702 -9.09672
7.28286 -9.23441 -8.76258
5.90325 -14.1378 -11.1789
7.70799 -9.29373 -8.71291
7.8453 -9.10506 -8.658
7.11969 -10.5677 -9.07261
6.81101 -11.0588 -9.20791
10.0342 -9.17554 -9.54991
6.53078 -11.1611 -8.85334
8.02256 -8.61672 -7.84013
7.35046 -9.26829 -7.86142
8.50396 -8.66918 -8.07229
7.7089 -9.45905 -8.01701
6.4778 -12.7571 -9.34333
7.92194 -9.16789 -7.90285
4.99861 -16.0303 -10.8005
-0.471489 13.9441 -8.92104
7.71695 -9.23187 -7.71613
7.32379 -10.8472 -8.33394
8.36546 -8.5536 -7.6227
10.8521 -9.60031 -9.19075
8.97573 -8.80563 -7.88621
11.7356 -10.0077 -9.66653
8.06074 -8.52326 -7.21764
4.03988 -16.8422 -10.6155
4.24638 -15.3716 -9.79234
7.83289 -9.34525 -7.30793
3.95129 -15.6283 -9.61292
11.4514 -9.8037 -9.02914
6.85347 -11.0603 -7.72657
7.76196 -8.80825 -6.95503
5.48064 -13.982 -8.87364
6.47891 -12.6889 -8.33848
8.35 -8.58226 -6.9783
9.66971 -9.06431 -7.72862
2.7878 -11.7853 -6.94235
5.46876 -13.8743 -8.44476
9.57656 -9.08819 -7.46372
6.60801 -11.0545 -7.25218
3.35141 -20.7314 -11.7695
8.86447 -8.92486 -7.05188
12.1574 -10.2 -8.8911
6.81358 -10.9904 -7.20438
4.67678 -14.5948 -8.4706
6.21221 -12.6035 -7.73042
0.897684 18.5513 -10.1089
14.563 7.69493 -8.94753
4.19834 -14.2271 -8.01211
14.6713 -11.6099 -10.0861
14.9148 7.41127 -8.86962
13.9575 7.68992 -8.46555
4.76023 -14.8349 -8.27888
12.0494 -10.1221 -8.28196
1.81473 -20.5193 -10.5978
11.3854 -9.82581 -7.7053
2.08223 -20.2408 -10.3254
0.00708345 14.2787 -7.16634
-7.35196 15.2862 -8.50332
10.5682 -9.57708 -7.16681
7.50146 -9.40914 -5.99576
-8.57488 16.2598 -8.88682
11.6082 -9.74913 -7.33774
10.4692 -9.562 -6.80889
14.7278 -11.2914 -8.952
16.5943 15.7187 -10.8563
7.46813 -11.0385 -6.35041
14.9487 7.38597 -7.82186
13.8793 -10.9906 -8.27508
-12.0598 17.2717 -9.65441
15.7727 -11.9516 -9.04157
9.7604 -2.44716 -4.62187
-9.13182 -1.66015 -4.22101
18.5806 17.9288 -11.6475
3.90958 -9.09084 -4.4918
-10.3 16.829 -8.86348
-5.36299 4.46021 -3.13772
6.84364 -11.2674 -5.93541
9.40873 -9.06835 -5.76376
15.9463 7.27428 -7.73101
-6.68313 15.1833 -7.24825
1.49952 -18.753 -8.13711
-11.2758 17.1589 -8.84319
9.56725 -3.36519 -4.34367
7.00307 -11.0234 -5.5214
15.7584 -11.9126 -8.26994
14.5862 7.71032 -6.91884
18.6059 19.3566 -11.2179
1.02111 -22.685 -9.45354
-4.55777 13.9489 -6.04839
-9.95993 -1.114 -4.15377
14.0278 7.74558 -6.54126
20.2637 22.0412 -12.2006
-13.1229 2.45931 -5.43936
15.0485 7.1498 -6.73674
-5.25736 14.4136 -6.17304
3.63419 -8.79861 -3.78941
13.8884 -10.9663 -6.91634
19.1404 21.4204 -11.14
18.7179 5.7719 -7.59428
1.53656 19.177 -7.45713
-8.80631 15.8709 -7.00008
11.3691 -10.0245 -5.83071
19.0694 22.1071 -11.2426
0.684084 15.3488 -5.88239
-1.66522 12.8024 -4.96775
2.71262 -12.2429 -4.81143
-8.78971 -1.25537 -3.3751
0.703936 -23.7622 -8.96986
15.1167 -11.5847 -7.18345
9.47651 -3.45782 -3.80506
-7.90644 -3.51221 -3.17322
1.09702 -10.473 -3.87273
7.01386 -11.2141 -4.83758
14.1334 7.89136 -5.84266
-8.31028 -2.85322 -3.15966
0.790268 15.2519 -5.44421
-3.982 13.4746 -4.97344
5.72651 -10.9667 -4.35436
15.7623 -11.9124 -6.99859
18.9878 5.86436 -6.99049
2.09802 20.4561 -7.2079
21.3962 25.8649 -11.6619
-15.0275 18.5516 -8.19772
2.96442 -13.3111 -4.69442
-8.97234 16.211 -6.33492
18.3748 -13.0146 -7.71853
-5.07676 14.5929 -5.2566
1.36392 -22.342 -7.41712
1.75362 19.518 -6.47133
1.4484 -10.3233 -3.44524
38.6817 -19.7735 -14.259
6.15829 -10.0303 -3.7679
17.4728 -12.3375 -6.85173
2.10988 20.5654 -6.57695
-13.4842 18.0036 -7.09488
1.45738 -22.8588 -7.13627
-4.335 14.8478 -4.80929
-11.0569 16.7552 -6.08695
-2.7906 -28.3794 -8.66176
3.06028 -9.45804 -3.02146
0.79749 -24.4471 -7.35532
19.0044 -13.4893 -6.91643
17.5189 5.54226 -5.39081
-7.96011 15.4128 -5.05294
4.22026 -10.4732 -3.28209
3.61304 -10.5469 -3.17352
4.23126 -10.9201 -3.28803
-13.4457 17.9733 -6.24655
-9.37744 16.0326 -5.05572
-13.296 1.99314 -3.68664
-17.1019 19.6498 -7.07591
26.082 -17.1704 -8.46269
-3.99016 -28.4424 -7.70102
3.77796 -9.13385 -2.64491
-9.89533 16.4515 -5.11286
46.6739 -13.6279 -12.8948
10.5027 -9.36743 -3.72569
-6.51153 15.0804 -4.29401
-14.5624 18.259 -6.13119
-8.16516 -38.6234 -10.2809
4.94787 -9.55185 -2.7848
6.54233 -10.4708 -3.18574
-7.28422 15.4629 -4.3478
-10.658 16.6019 -5.0435
-10.1142 -40.0754 -10.2765
-9.25666 -39.9558 -10.0129
10.9072 -9.61505 -3.57579
-8.04657 15.6196 -4.26329
-11.8462 17.2197 -5.06201
14.5424 7.68167 -3.90283
4.03965 -9.23683 -2.38635
15.1436 7.49973 -3.98182
3.74058 -8.89416 -2.26843
-6.63835 -33.0671 -7.8084
5.61285 -9.86102 -2.63024
44.2254 -10.7024 -10.5769
-12.9415 17.6293 -5.03631
14.7979 7.57841 -3.7607
43.2867 -9.36396 -10.0337
-9.89187 16.4788 -4.30434
3.70565 -9.23107 -2.16447
42.4617 -10.8929 -9.56876
15.0549 7.46865 -3.59816
-10.7505 16.7828 -4.27132
-22.2711 -35.012 -8.91358
4.80866 -9.72639 -2.34119
44.5098 -10.4217 -9.78178
-14.9488 18.5218 -5.00968
-32.6098 -24.0689 -8.59025
41.2189 -13.7917 -9.19656
14.7808 7.81037 -3.48581
-36.0285 24.3643 -8.89484
-8.55231 -34.9787 -7.29053
3.9382 -11.467 -2.43779
44.0481 -9.50356 -9.16627
11.7373 -9.71557 -3.05612
42.483 -10.9364 -8.7428
-27.3202 20.6166 -6.79469
6.12473 -10.2515 -2.37798
45.3765 -10.6111 -9.10273
-12.9343 17.6487 -4.2304
-27.2034 21.319 -6.71716
15.9467 12.0621 -3.82079
-6.96571 15.336 -3.23586
-33.528 -24.251 -7.91974
-32.0159 -25.0706 -7.81416
-36.2576 24.1605 -8.20557
-34.0299 -22.4483 -7.70347
17.9339 5.63828 -3.50844
-34.5535 -20.8485 -7.5361
-15.4451 -44.5285 -8.77856
3.7605 -9.79505 -1.97596
-25.4428 -63.3411 -12.6928
-17.2336 -46.426 -9.0565
3.96667 -9.61465 -1.87637
13.0201 -10.1739 -2.98038
44.873 -9.98545 -8.25843
-14.9144 18.4981 -4.2473
-27.3602 21.4589 -6.13989
15.0153 7.94828 -2.9585
-30.6766 -26.7324 -7.09171
42.3423 -10.8457 -7.50539
-8.03083 15.4721 -2.95481
-9.88417 18.2047 -3.50137
44.1558 -10.3943 -7.67174
-31.1907 22.7193 -6.4973
-30.6255 -23.5616 -6.45788
-21.0734 20.1496 -4.85183
-32.8421 23.1939 -6.70826
15.8469 -11.8239 -3.24067
-10.4575 16.6033 -3.12321
-44.1637 25.9873 -8.13015
-32.0296 -24.0618 -6.41296
-33.8962 -23.3805 -6.4851
3.42557 -9.47434 -1.57586
-24.0811 20.5712 -4.89196
16.8273 -11.8958 -3.19274
-11.3064 16.9223 -3.09332
45.5076 -10.6652 -7.0953
-23.6046 -54.7015 -9.00098
-29.9241 22.4424 -5.59345
-39.0404 24.3425 -6.82928
-32.0585 -24.885 -6.05426
44.1629 -9.46382 -6.72598
-34.1919 -24.7279 -6.16521
-50.9898 28.4696 -8.39734
-36.0234 -24.028 -6.23259
6.70111 -12.8599 -2.10628
-7.04633 15.5366 -2.37099
-13.2808 17.9284 -3.1054
-32.6777 23.5265 -5.6286
-25.4302 -56.6337 -8.55947
-16.6372 -48.6355 -7.06814
36.3581 -12.0913 -5.25574
-23.4911 20.643 -4.1616
-32.6958 -24.4855 -5.33261
-31.0363 -25.4612 -5.3072
-34.35 -23.657 -5.34227
7.42847 -9.40902 -1.5504
42.3946 -10.852 -5.61615
-34.0479 23.1688 -5.23619
-30.0856 -16.054 -4.34661
6.03215 -7.81201 -1.26088
44.2951 -10.411 -5.76966
-31.5787 23.2085 -4.89055
14.4444 -11.2534 -2.25009
-30.48 22.9567 -4.61625
-33.1309 23.4204 -4.88519
-10.4963 16.6944 -2.27931
-31.9067 -22.9477 -4.62366
12.9447 -10.4696 -1.94933
35.4785 -11.7236 -4.32437
6.32601 -10.3162 -1.39127
11.1601 -9.67091 -1.66414
16.3648 -12.1843 -2.29964
-11.2139 16.815 -2.23869
6.73172 -12.5429 -1.56042
11.5647 -9.65767 -1.66891
42.2359 -10.8305 -4.78787
-39.7341 24.7746 -5.02549
44.3539 -10.3642 -4.90509
14.8525 -11.405 -1.99272
-13.1302 17.7392 -2.26744
14.7021 7.78163 -1.662
13.9487 -11.0037 -1.77517
-14.1945 18.1542 -2.23557
6.3753 -12.2175 -1.32704
9.38172 -8.89892 -1.25007
16.9303 -12.3795 -2.04746
-29.1617 -13.9349 -3.04449
-15.1862 18.5963 -2.23848
-38.654 -75.3048 -7.8788
-34.403 -21.5275 -3.59329
16.0605 -12.0346 -1.80647
38.1176 -12.683 -3.59623
11.0789 -9.84824 -1.2253
42.6311 -10.8958 -3.67066
-16.6469 -43.3195 -3.72753
-41.8912 -81.9124 -7.16673
17.5218 -12.768 -1.71275
-30.6899 23.2268 -2.94374
7.42975 -9.15211 -0.912688
-33.4236 23.6594 -3.0417
-17.0219 -42.1092 -3.39449
-38.3151 -72.0996 -5.80673
-37.2534 -74.6126 -5.71314
12.527 -10.4251 -1.09732
16.9836 -12.3699 -1.4208
-40.2004 25.0258 -3.09574
42.879 -10.9779 -2.90613
-28.9536 -13.6147 -1.91588
-42.2513 -81.6276 -5.5668
14.4478 -11.2634 -1.10422
30.8266 -20.3071 -2.01813
30.8093 -19.4179 -1.99144
15.2706 7.5418 -0.883438
14.7121 7.80123 -0.855947
-13.0565 17.8174 -1.12089
-25.5443 -56.369 -3.18008
-44.3294 -83.5463 -4.61941
9.63088 -9.07037 -0.661926
13.3994 -10.6558 -0.841184
15.8739 10.0983 -0.888516
16.16 11.3267 -0.918481
6.79907 -12.47 -0.675727
-20.1632 -5.9495 -0.902404
-30.8102 -54.9067 -2.77843
10.1796 -13.7429 -0.69939
17.9528 -12.9465 -0.905008
42.1172 -10.7583 -1.73048
-9.43623 -12.4806 -0.603581
43.6102 -10.2119 -1.76186
21.8618 26.2824 -1.16537
-33.3089 22.7696 -1.3978
-36.9971 -20.7464 -1.38068
-18.7699 -46.7787 -1.62016
16.4002 -12.2354 -0.667981
14.333 3.88236 -0.437858
-26.9175 -61.8534 -2.02364
-23.1734 20.6425 -0.88608
-12.6662 -38.407 -1.08808
42.5297 -9.03449 -1.21635
-42.9491 26.7143 -1.36662
-55.6679 20.0172 -1.41627
43.1947 -10.0301 -0.954352
-31.5962 23.8784 -0.790868
-30.8245 9.80435 -0.675741
30.3888 53.2056 -1.12478
-30.8256 22.75 -0.73306
12.9223 -10.5882 -0.289704
-35.1354 -21.8657 -0.641385
-31.7894 -63.9321 -1.06387
17.3965 -12.5459 -0.311953
-12.9486 -39.1465 -0.532885
-14.4809 18.3826 -0.238059
-20.6901 -47.5503 -0.56448
29.9477 -18.7572 -0.31927
-23.1616 20.6652 -0.209904
-9.97656 -12.8046 -0.049069
6.99105 -11.6617 -0.0236495
14.54 7.60362 0.00069931
-36.1705 -22.3351 0.226624
-24.4492 -41.7872 0.355997
-54.9158 30.0834 0.641774
6.66217 -11.8205 0.140477
7.98668 -9.08076 0.120777
-41.8634 -22.2569 0.521358
-11.7318 -33.2234 0.392146
11.0635 -9.64413 0.192304
-23.546 20.1187 0.408682
-12.5086 -19.4076 0.335481
-31.8404 22.6573 0.697467
-35.8376 -24.0262 0.772224
-35.3519 -26.116 0.766902
10.5995 -9.52537 0.232435
7.76784 -9.57499 0.264887
7.8751 -9.1916 0.261111
-73.3476 25.3982 1.81647
17.9921 -13.0605 0.541158
-29.0539 -8.72862 0.812384
-28.5498 22.3886 1.04657
11.5405 -9.88741 0.414411
17.1845 -7.44895 0.533202
-25.5011 21.6279 0.997008
-7.94058 -9.31158 0.389582
12.5783 13.6755 0.66107
6.10844 -12.5859 0.492263
8.88428 -8.74229 0.425877
24.3608 -4.31677 0.827348
18.2981 17.4744 0.913943
13.5905 23.5267 1.02222
-58.3431 19.1772 2.21283
24.1718 -4.69553 0.93276
-25.9718 21.2159 1.26925
9.35044 -8.89525 0.498909
22.225 -3.06191 0.847515
12.0822 13.9938 0.757163
14.559 18.8118 0.974522
6.48345 -12.2926 0.570501
17.302 39.9897 1.81987
7.61726 -10.9766 0.563223
-7.58086 -7.46241 0.470184
-8.32876 -11.523 0.63534
-29.9607 -11.8605 1.5351
16.24 10.5426 0.96516
-7.75793 -7.2184 0.507702
14.9988 23.302 1.43234
-6.98347 -8.22101 0.593137
14.3174 19.6056 1.33076
-26.6092 20.4898 1.8587
14.1372 23.0235 1.56489
-7.15914 -9.22864 0.667573
6.77196 -13.4199 0.862952
9.79486 12.3206 0.931899
14.4738 19.2302 1.50934
14.6716 26.1117 1.84466
10.0146 28.0853 1.89678
-7.34384 -10.0235 0.795014
9.28725 21.1646 1.5517
11.3202 9.95769 1.07485
11.333 11.9844 1.16463
13.5175 15.6197 1.47856
8.14098 -12.5492 1.05605
10.6723 8.90866 1.02308
12.7286 14.2763 1.43145
-14.5205 8.56299 1.27573
-11.1959 2.10917 0.8625
12.2531 15.95 1.56123
11.3801 18.1363 1.66306
10.0575 -6.88281 0.95159
-7.7072 -8.15312 0.897737
12.6148 11.419 1.38815
11.7246 11.4701 1.36179
-7.03304 -6.18803 0.761485
-7.08685 -6.92982 0.822404
11.3358 11.8328 1.41326
10.5367 9.28186 1.27671
-11.474 2.93811 1.08918
-7.65349 -7.12855 0.939893
11.5321 8.89823 1.39493
9.0886 12.8522 1.51173
7.07609 13.0203 1.45257
8.29573 12.8982 1.53808
-6.76962 -6.7459 0.95021
7.84145 -6.518 0.998047
9.5579 11.9715 1.53549
9.82801 10.0394 1.45118
-6.90545 -5.42075 0.913885
9.51823 9.06355 1.40132
8.09086 11 1.43151
6.64869 12.8918 1.54552
9.49918 8.28907 1.33465
9.0788 10.1118 1.48053
5.59119 12.3159 1.46422
-6.41306 -7.55276 1.07093
6.59194 11.2193 1.43179
5.14369 12.888 1.53093
-6.84669 -3.99319 0.875642
-6.71985 -6.0988 1.00011
3.913 -7.75492 0.961652
5.43118 -6.0848 0.916404
9.27327 7.46521 1.33813
8.96501 9.54067 1.47646
7.81511 11.1311 1.52045
6.6846 10.5494 1.42426
-6.9007 -4.58361 0.939903
4.69737 -7.66418 1.0387
-10.73 7.19322 1.50035
-7.11095 -2.13944 0.864626
8.94038 6.03951 1.28373
5.79275 11.8227 1.55593
4.89181 11.3126 1.45361
4.76656 -5.85467 0.888626
4.10417 -7.86905 1.07922
8.28573 3.83777 1.14465
10.874 5.42378 1.49358
4.4682 12.4314 1.64418
-6.1764 -5.40384 1.00689
-9.18532 1.30933 1.15712
8.17813 7.47973 1.40275
-6.45673 -5.33626 1.05983
7.7107 8.09858 1.4377
-6.9074 -3.58363 1.00802
4.96051 -5.95733 1.00085
5.01633 -5.41957 0.962902
8.3258 6.85003 1.42826
7.86273 7.77481 1.47125
-7.22623 -1.72941 1.00168
-7.05259 -2.2162 0.991126
-6.50486 -4.3859 1.04262
4.82283 -6.07927 1.03266
8.31433 6.30132 1.41904
-6.87069 -4.23087 1.08766
-6.0652 -4.45663 1.01265
4.943 -5.53002 1.01851
7.39406 -3.51195 1.13932
8.30554 4.21671 1.32308
8.26722 4.54288 1.33857
-6.96061 -2.91581 1.07956
7.46087 -3.72372 1.19068
7.00264 -3.04892 1.0774
4.93368 -5.7802 1.097
8.1671 -1.72812 1.20898
-6.98001 -3.26753 1.14356
7.32897 5.52252 1.37832
5.69033 7.34664 1.40354
7.93264 3.88705 1.34983
7.85292 4.16458 1.35149
5.36922 7.70979 1.42837
5.00968 8.55727 1.4981
3.43444 9.39403 1.50871
-7.02946 -2.83529 1.15608
7.66073 -2.78689 1.24869
7.82385 -2.22963 1.25549
7.77381 -2.01113 1.24076
7.41229 4.17491 1.37178
7.01578 4.71749 1.38925
6.69078 4.87651 1.37668
5.33006 6.38712 1.38434
-7.2304 -1.36544 1.21898
4.93315 7.24452 1.4627
4.66792 7.14428 1.4325
-7.24616 -0.807164 1.22151
2.8672 -5.9323 1.11076
6.65511 4.06104 1.33206
6.45517 5.18528 1.40609
3.78015 7.82288 1.458
-6.39707 -2.30718 1.15433
-6.30232 -2.68925 1.16914
3.77268 -5.2407 1.09941
-6.99633 -1.80165 1.2631
4.23482 -4.64163 1.10419
6.62611 3.48915 1.3524
5.01592 5.54804 1.36685
3.63271 -5.36125 1.17934
3.31832 6.65366 1.38596
6.46163 3.0321 1.35599
6.39685 2.70106 1.32568
-1.64928 -5.70846 1.14093
-2.17174 -5.76565 1.20148
6.22564 2.36687 1.33128
3.9395 -4.58092 1.20174
-3.01419 5.62796 1.36272
-3.63794 5.23389 1.39046
4.20946 -2.9281 1.20526
-4.29116 3.94173 1.42081
4.58694 -2.18719 1.23331
4.47814 -1.26914 1.15729
3.71057 -2.937 1.2327
3.68039 -2.58587 1.1933
3.42753 -2.98 1.22571
-2.31927 -3.61401 1.20665
-2.49739 -2.9251 1.19699
1.87539 -2.4956 1.1332
1.93694 -2.65366 1.19788
-2.04521 2.80806 1.31766
-2.07016 -1.4629 1.19694
-1.82287 -1.82901 1.30199
-1.97474 -1.17109 1.20951
9.64369 -9.02096 -9.34789
9.20857 -8.89605 -7.63066
2.44705 -20.0829 -10.7443
3.66671 -9.2871 -4.50264
26.1429 32.4774 -13.9981
2.06463 20.4243 -6.08508
9.47875 -8.74517 -1.61238
8.73213 -8.60414 -1.22941
8.88153 -8.75986 -0.924942
19.0185 -13.466 -1.27475
42.8951 -11.5214 -2.30028
9.99758 6.88081 1.28871
-3.51233 5.34487 1.37495
7.95933 -8.21742 -10.2638
7.82048 -8.24335 -10.0036
8.34902 -8.43888 -9.83195
6.81817 -11.7733 -11.1789
7.95002 -8.20957 -9.04091
7.98969 -8.68742 -9.07146
6.19834 -14.1154 -11.6001
5.84853 -14.1339 -11.2016
9.05499 -8.80284 -9.25906
7.60642 -9.1809 -8.6421
7.83455 -9.08454 -8.57693
7.1933 -10.6593 -9.15138
10.188 -9.27513 -9.65918
6.40504 -11.0408 -8.72226
8.14415 -9.04354 -8.16176
7.31493 -9.29807 -7.89735
7.93449 -9.17503 -7.97576
5.02234 -15.9356 -10.7793
-0.521872 14.356 -9.22067
7.27979 -10.7544 -8.33173
7.58595 -9.10939 -7.5856
10.953 -9.77371 -9.32075
7.03136 -10.8905 -8.08081
8.16785 -8.57481 -7.35776
0.114324 14.3663 -8.75475
7.74155 -8.70719 -7.02032
11.4426 -9.71469 -9.05881
8.95041 -8.87935 -7.4518
6.55713 -12.8064 -8.48846
5.50054 -13.9479 -8.81227
7.02919 -11.0616 -7.52404
5.10289 -12.815 -7.74638
3.15873 -19.3072 -10.9704
6.59251 -11.0642 -7.2179
7.83214 -9.02824 -6.70302
12.1364 -10.166 -8.85436
9.66752 -9.47068 -7.42208
13.216 -10.595 -9.13758
14.9955 10.2703 -9.76351
14.9793 7.35971 -8.91791
13.8087 7.61309 -8.33889
11.372 -9.81422 -7.71921
2.36487 -19.4969 -9.92164
10.6392 -9.53794 -7.18911
7.32468 -9.25158 -5.92049
14.052 -11.1457 -9.03219
17.9564 -12.84 -10.7414
18.5309 5.72175 -9.42276
2.66283 -19.5653 -9.58936
12.8052 -10.579 -8.03179
15.3285 -11.6709 -9.34728
7.28142 -10.7345 -6.24802
14.9448 7.32583 -7.74506
7.06933 -10.8758 -6.0466
6.20629 -10.6018 -5.69019
9.98136 -2.50457 -4.73103
17.2878 -12.632 -9.83921
-11.8781 17.0519 -9.47313
3.53781 -9.02373 -4.39132
-10.2922 16.8283 -8.86604
15.9226 7.20156 -7.81908
-11.3281 17.2359 -8.89657
-7.07823 6.86543 -4.24741
-6.49483 6.47914 -3.90572
1.19645 -15.4362 -6.58203
19.8055 20.5187 -11.9671
16.1512 -12.207 -8.51386
15.0974 7.41926 -7.02916
-10.0897 -1.10101 -4.21495
19.7756 21.5256 -12.0014
14.0417 7.7583 -6.52921
16.3362 7.35794 -7.19747
14.9456 7.6904 -6.74176
1.48601 -17.913 -7.01958
18.5905 5.73606 -7.52938
19.3071 21.5447 -11.188
0.769877 16.2558 -6.25183
