ply
format ascii 1.0 
element vertex 1879
comment /media/mkaihara/Seagate Backup Plus Drive/model_iterations/model_39.ply
property float32 x 
property float32 y 
property float32 z 
end_header 
-6.43796 -5.31248 1.06478
8.86205 5.68157 1.34966
8.19585 8.08584 1.48406
-7.2515 -1.25115 0.943297
-6.8892 -4.11371 1.03716
7.4616 6.24621 1.26045
8.11431 7.07234 1.3959
8.00948 8.16673 1.48247
-6.90132 -2.82249 0.970471
-6.90262 -2.9622 0.970859
4.59055 10.1661 1.46629
9.025 4.12339 1.30616
-7.23585 -1.6035 0.973704
6.84671 -4.26363 1.07208
4.93255 -5.94889 1.02466
-7.32029 -1.11518 0.990871
-7.00408 -2.19614 0.981643
-7.04109 -2.26528 0.987904
-5.98915 -4.39393 0.992524
5.19409 -6.57206 1.1165
6.91769 -4.18051 1.08828
8.1093 7.20209 1.46948
-7.13995 -1.71547 0.986935
-7.07181 -1.9527 0.986473
8.823 4.87105 1.36897
8.36329 5.89526 1.39136
-6.91216 -3.61436 1.06266
8.89395 4.1742 1.34773
3.38152 10.6284 1.52746
-7.29996 -1.19782 1.01236
-6.00427 -4.43708 1.02663
-5.98479 -4.53581 1.02787
7.15619 -3.93872 1.12284
8.10484 6.51237 1.4381
5.39207 9.11377 1.46666
-6.37509 -4.31656 1.05529
4.93678 -5.53019 1.02992
7.19393 -3.83436 1.13468
7.5696 -3.69122 1.1654
3.65421 10.1381 1.50107
3.46948 10.4401 1.53433
-7.35591 -1.08016 1.03767
-7.06274 -2.00067 1.0227
4.97588 -5.29148 1.01551
7.25586 -3.74235 1.14709
7.37269 -3.67709 1.16866
7.88399 -3.36145 1.21857
-7.14324 -1.87168 1.04993
-6.99831 -2.94171 1.0999
-6.00217 -4.36918 1.06757
7.91876 -2.78708 1.22841
8.26054 4.63641 1.38805
5.02673 8.61142 1.46176
8.39804 4.52242 1.40988
7.84411 -2.34486 1.207
7.17453 5.71138 1.37344
2.99203 9.55121 1.49712
-7.08252 -2.01625 1.10341
7.49609 -3.1148 1.22388
8.25687 4.56323 1.43019
5.81845 7.48306 1.43965
5.32299 7.67946 1.42414
5.15973 7.99427 1.44558
5.11354 8.1047 1.45072
7.34562 -3.17493 1.22239
7.69296 -2.76102 1.24481
-6.74545 -1.68009 1.04684
7.84616 -2.26101 1.25231
7.26403 5.448 1.39448
-7.09194 -1.94921 1.14111
-6.90986 -2.78181 1.15753
6.84271 5.55033 1.38223
-7.34179 -1.0937 1.15914
-7.13245 -1.82111 1.15265
-7.03533 -2.0642 1.14857
-7.10923 -1.86937 1.15332
-6.8852 -2.93002 1.17447
4.84116 7.50668 1.42093
3.44638 -6.03216 1.10944
-7.26283 -1.29709 1.18163
3.52764 -5.70703 1.08095
3.56447 -5.61236 1.07033
7.1059 4.78991 1.39665
4.69388 7.42929 1.43061
-7.05986 -2.02026 1.19652
-7.08173 -1.9438 1.20482
7.0011 4.85145 1.40893
3.85071 8.00001 1.47045
6.0606 -3.32333 1.15154
6.66771 4.89834 1.37973
4.69514 7.21657 1.43654
3.83611 -5.3002 1.09978
7.14047 4.44649 1.4166
7.50507 2.86983 1.35812
6.35509 5.31269 1.40417
-7.26634 -1.25351 1.25542
6.78506 4.10228 1.36191
-6.44247 -2.76832 1.19625
5.51454 -3.63302 1.13452
5.69671 -3.52226 1.15006
2.78333 7.93298 1.45415
-7.35925 -1.03764 1.28822
5.33805 -3.78645 1.14096
-6.30284 -2.25673 1.16067
-6.26359 -2.4137 1.17514
4.2815 -4.66509 1.1074
4.49504 -4.47823 1.11315
4.59307 -4.45038 1.12212
-6.79086 -1.72995 1.23423
4.36295 6.54592 1.40373
-7.1472 -0.926676 1.288
-6.13678 -2.25502 1.16436
6.66964 3.70879 1.36827
6.13011 4.38345 1.36721
3.60798 -5.32644 1.17009
5.17931 5.72029 1.4118
2.54071 7.27159 1.44766
6.51176 3.0648 1.36101
-1.70749 -5.78562 1.14165
6.4383 -1.38853 1.24982
6.29782 2.78888 1.32632
6.24112 2.39027 1.33362
-4.43878 3.92758 1.39275
4.34324 3.54935 1.34199
4.22727 3.30503 1.32878
4.66732 -1.6785 1.24566
4.82196 -1.38186 1.25505
-2.13351 4.77875 1.30627
3.72508 -2.95146 1.222
3.67121 -2.54824 1.19326
3.40384 -2.95933 1.22508
4.01462 2.5762 1.33342
-2.59628 -3.53639 1.25134
-2.32802 -3.57327 1.21689
3.76214 2.06193 1.30471
3.73846 1.98396 1.30405
-2.8358 3.47672 1.38313
-2.2983 -2.42105 1.1878
1.951 -2.77514 1.21066
-2.12041 2.76241 1.32183
-2.02569 2.75065 1.32805
2.24715 -1.8668 1.2239
2.3771 -1.49637 1.22131
-2.01429 1.87495 1.29412
-2.06594 -1.44383 1.22864
1.44588 -2.0654 1.2433
-1.99372 -1.0883 1.21455
-1.92596 -0.707939 1.21991
-1.92768 -0.703714 1.24549
-1.95649 -0.344455 1.2286
-1.89383 -0.564883 1.22974
-1.89341 -0.531076 1.23481
8.24307 -8.72359 -7.48583
12.1689 -10.3237 -8.83074
-8.67753 15.4877 -6.88684
20.7725 25.2975 -11.762
-8.78458 -2.51576 -2.57486
-34.0403 -22.739 -7.56272
-33.657 -22.0107 -5.9342
-33.3843 -22.6873 -5.99463
-30.8478 -19.7837 -2.75618
9.31619 -8.87349 -0.393016
-7.53069 16.2326 -0.44174
-29.2045 -11.3011 0.721132
-6.90327 -8.25053 0.459411
16.9424 24.3285 1.61045
11.5089 16.1858 1.64266
-6.6836 -6.65663 0.88191
4.27761 12.4127 1.51337
8.78426 9.15013 1.48377
7.99734 -8.79096 -10.4112
8.86154 -8.56779 -10.5317
6.9776 -11.9708 -11.546
6.89266 -11.3819 -10.9258
8.17825 -8.29057 -9.56227
7.04159 -12.0607 -11.3557
7.08754 -11.005 -10.4863
8.02787 -8.40431 -9.23282
6.748 -11.3175 -10.3184
6.46443 -11.7302 -10.2416
7.7823 -8.87863 -9.00027
6.22422 -14.356 -11.8401
8.32704 -8.73041 -9.13186
6.31862 -11.9427 -10.2036
6.16464 -12.1197 -10.1388
7.51678 -9.47701 -9.03096
7.93495 -9.08473 -8.95483
10.5126 -9.49035 -10.5327
6.13597 -14.1467 -11.397
6.11474 -13.6948 -11.0264
6.14884 -12.6105 -10.3183
9.23057 -8.85821 -9.38452
9.31885 -9.10586 -9.50228
5.88189 -12.5391 -10.0606
9.39487 -9.02211 -9.2954
6.88525 -11.1631 -9.30753
5.6315 -13.0039 -10.0292
9.73012 -9.11661 -9.44896
7.63426 -9.37462 -8.49976
10.0373 -9.2232 -9.57597
10.9627 -9.53249 -10.1932
11.4924 -9.74204 -10.1174
8.41372 -8.63748 -7.98282
7.45659 -9.33057 -7.89137
8.19707 -8.74975 -7.92446
7.65479 -9.38429 -7.92264
7.86444 -9.43458 -7.87163
8.35019 -8.56549 -7.64659
0.354722 15.8622 -10.1236
7.55431 -9.35667 -7.65234
10.9584 -9.64884 -9.28288
7.25371 -10.7423 -8.2031
8.18413 -8.52731 -7.45347
4.62282 -15.4328 -10.1314
8.74304 -8.72967 -7.64389
7.94917 -9.06374 -7.43594
4.05611 -18.0423 -11.3906
8.22658 -8.65759 -7.30081
4.09019 -17.315 -10.8558
0.140963 14.8657 -9.04582
6.67924 -11.3033 -7.99282
7.76913 -9.29933 -7.35204
10.1708 -9.35389 -8.38403
6.84555 -11.2914 -7.92636
8.08982 -9.23753 -7.37032
11.3208 -9.74118 -8.92866
5.41782 -13.8973 -8.84573
7.76248 -9.2987 -7.18301
9.38749 -9.06846 -7.73373
6.92819 -11.1561 -7.77177
8.01205 -9.16038 -7.14055
9.79338 -9.22552 -7.84053
14.9397 7.46564 -9.7013
8.70114 -8.86532 -7.17738
6.95805 -11.0034 -7.48151
2.64649 -11.2365 -6.63865
7.88817 -9.10394 -6.89868
9.64516 -9.17805 -7.56259
10.8397 -9.53616 -8.14391
0.126162 15.3032 -8.63193
3.27751 -20.5658 -11.7115
6.82436 -11.0188 -7.26548
10.1491 -9.3305 -7.72008
12.405 -10.4086 -9.0803
9.27676 -9.0427 -7.23861
4.63076 -14.335 -8.39767
8.03459 -9.25145 -6.80488
14.863 7.59915 -9.16616
9.73757 -9.14451 -7.33593
0.83203 17.4742 -9.55402
2.73804 -19.8087 -10.904
11.1805 -9.68838 -8.03205
4.25011 -14.4743 -8.16497
14.7757 7.72742 -8.98311
15.1811 10.4821 -9.90716
14.1058 7.78232 -8.60973
11.0001 -9.66108 -7.78481
13.3372 -10.8608 -9.14875
3.03984 -19.2885 -10.2653
11.4084 -9.87025 -7.67538
2.16689 -20.3371 -10.3229
10.3072 -9.38394 -7.00878
14.3482 -11.3484 -9.18421
13.886 -11.2313 -8.94002
11.0596 -9.70035 -7.32857
7.53542 -9.37089 -5.95454
3.56931 -8.48243 -4.53517
-8.68059 -1.90593 -4.36931
2.21861 -20.0915 -9.91459
4.53921 -9.3131 -5.06675
0.399505 13.6611 -6.69092
7.63445 -9.30224 -5.87188
-8.41515 16.0541 -8.77631
-9.17841 -2.42639 -4.57423
15.0862 -11.6498 -9.15898
19.5049 5.58086 -9.70322
-10.2848 -2.54635 -5.01133
1.90837 -20.5115 -9.79552
17.3629 16.3179 -11.2877
7.61245 -11.2534 -6.41016
20.1652 5.44301 -9.8373
14.104 -11.166 -8.36466
2.93836 -17.3741 -8.19261
19.4848 5.76518 -9.3884
17.9682 -13.0943 -10.2689
9.88706 -2.49741 -4.7122
20.4225 5.17637 -9.72149
17.4919 16.4501 -11.0672
1.80709 -20.1595 -9.26344
9.70794 -9.07756 -6.08564
-9.18783 -1.66768 -4.25846
9.47226 -3.47576 -4.59577
6.73969 -11.3608 -6.0077
9.93463 -2.62415 -4.66118
19.3775 5.90887 -9.12145
17.8953 17.7517 -11.3341
9.3878 -3.09253 -4.44942
15.5288 -11.9492 -8.79222
7.06558 -11.6079 -6.07756
7.17656 -10.9546 -5.83682
9.57912 -3.41189 -4.5318
-9.91436 16.2459 -8.471
17.7773 -12.9738 -9.77872
19.6665 5.66546 -9.07236
16.2062 7.35107 -7.88161
18.0072 18.1898 -11.3224
16.532 -12.2949 -9.07961
-11.1327 16.9259 -8.9021
-6.50434 14.8581 -7.10908
-5.21455 4.89037 -3.11384
20.2719 5.50421 -9.1333
9.57802 -3.41215 -4.38838
18.4119 18.6629 -11.2706
15.9222 -12.2527 -8.64437
14.9531 7.47675 -7.13642
3.84698 -9.3217 -4.28422
-11.0611 16.8198 -8.52006
6.96901 -10.9445 -5.47057
-13.5186 3.31302 -5.86372
0.742699 -22.2795 -9.39453
15.8998 -12.0383 -8.3395
-5.14061 5.65984 -3.19782
0.996566 -22.1373 -9.28968
1.2323 -20.7423 -8.70492
14.2558 7.64609 -6.76756
18.7564 19.5481 -11.322
3.78992 -8.97116 -4.06106
14.8654 7.77924 -6.98527
18.1135 19.3471 -11.0013
-9.48788 -1.08893 -3.9421
4.0123 -8.51242 -3.85555
14.1227 7.79844 -6.62414
6.86852 -11.0257 -5.31026
-13.561 2.53324 -5.64314
-7.8938 15.2882 -6.98959
19.4871 21.1765 -11.6618
15.1698 7.28931 -6.78246
-5.23605 14.2912 -6.1003
14.0331 -11.0943 -7.00602
1.53543 19.3508 -7.54132
-8.6669 15.6493 -6.94943
19.1219 5.8316 -7.74689
-1.7483 13.2139 -5.16178
5.30976 -9.41848 -4.16934
-2.37455 13.4202 -5.23343
19.8409 22.954 -11.6369
4.66927 -8.53104 -3.69322
19.5537 5.60962 -7.7418
0.870838 -26.2465 -9.98125
14.9971 -11.5567 -7.12461
20.1191 5.45072 -7.80241
9.46288 -3.44773 -3.76571
0.530373 -22.4425 -8.36716
3.26025 -10.8319 -4.2255
20.4582 23.8033 -11.659
0.908686 -8.70925 -3.24758
14.107 -11.1718 -6.63479
20.5323 5.2222 -7.79054
18.0781 17.8644 -9.29029
-12.982 2.27433 -4.79139
21.1362 25.2422 -11.9439
2.29451 -13.2952 -4.86
13.1031 -10.5961 -6.06332
0.794019 15.4843 -5.54908
-8.18394 -2.79279 -3.09295
0.408972 -21.6623 -7.74595
-4.1849 13.7247 -5.10175
0.63664 -21.7821 -7.74466
15.9612 -12.0548 -7.08867
-15.5742 18.0038 -8.3877
5.94567 -11.37 -4.51101
-10.9202 16.4772 -6.90216
0.0949239 -18.381 -6.4622
14.3458 -11.3691 -6.39987
20.4876 5.39566 -7.3958
0.655382 -22.8711 -7.90263
-4.97192 14.4255 -5.22585
3.64606 -8.46362 -3.17207
4.88754 -9.053 -3.52529
-14.3597 17.8264 -7.83339
2.27911 -10.9023 -3.81671
-8.80324 15.9663 -6.21294
3.04482 -13.7711 -4.80757
-14.83 18.2006 -7.95725
20.3046 5.52059 -7.07336
22.4015 27.7139 -11.9134
36.5898 -20.6547 -14.0394
-5.25995 13.9452 -4.94797
1.92375 20.9014 -6.96707
1.26776 -10.246 -3.4136
32.8965 -20.6799 -12.7768
-5.20902 14.3362 -4.95221
-12.4648 17.0629 -6.85309
18.7138 -13.3353 -7.4614
3.5637 -8.68127 -3.00871
6.23986 -10.1449 -3.81665
2.31583 -11.0152 -3.58187
-4.47957 -33.6757 -10.7998
-1.12284 -23.5807 -7.51597
15.1365 10.4249 -5.80181
-13.0799 17.4037 -6.87971
-17.7933 19.1909 -8.2252
3.00497 -9.6909 -3.20096
6.99128 -11.1412 -4.06599
1.38023 -21.7745 -6.74985
-2.53697 -27.0511 -8.34149
7.29628 33.7219 -10.5328
0.769308 15.0772 -4.58692
-11.0213 16.6276 -6.01083
-2.65855 -26.1273 -7.91075
-14.1966 17.7491 -6.78008
-5.21293 -34.2061 -10.3042
0.832388 -24.7898 -7.41743
-5.33983 14.6805 -4.64479
2.09264 20.8678 -6.18147
-21.0342 19.6122 -8.48356
18.3373 5.8354 -5.66515
-4.25929 14.2966 -4.38438
-7.84841 15.2235 -5.02317
4.26715 -9.16724 -2.97174
4.65491 -11.6621 -3.67111
-12.5652 2.21355 -3.6668
-32.225 -45.6483 -16.0806
-15.0361 18.0876 -6.76018
6.99179 -11.1355 -3.78486
2.56826 -9.56111 -2.81275
13.0034 -10.5252 -4.76039
-8.43256 -2.45413 -2.49029
21.4102 27.6145 -9.90306
-8.55913 -2.25586 -2.50121
-2.5079 -25.6121 -7.22394
-12.9693 1.98741 -3.65376
4.40747 -11.3789 -3.38637
-9.21149 15.8396 -5.02882
-12.9196 17.2297 -5.91365
-5.33689 14.2383 -4.15418
-8.31442 -40.3928 -11.2857
-21.2126 19.7949 -7.79883
-9.62691 15.9618 -4.99382
-26.373 20.2591 -8.84645
11.5298 11.605 -4.31813
4.34698 -11.3467 -3.21845
47.8836 -13.9198 -13.2088
-7.99358 -37.7323 -10.1404
4.10153 -8.68281 -2.52828
11.2261 -9.98498 -3.92994
-14.2882 17.8894 -5.95198
6.56015 -10.4611 -3.19565
3.18679 -9.67162 -2.63228
-29.4439 -43.1243 -13.4855
-4.26996 -28.0168 -7.33473
3.55425 -10.4097 -2.83592
4.08083 -9.41587 -2.63739
15.7166 -11.8178 -5.0167
-7.06978 15.059 -4.20902
-30.8859 -41.1906 -13.0571
4.33096 -11.1927 -3.037
4.2654 -7.72327 -2.24534
6.56545 -10.7091 -3.13229
45.5098 -13.7596 -11.8527
-27.8814 21.0353 -8.63415
-11.3992 16.7464 -4.9927
-27.0704 -39.4908 -11.7736
-9.65526 -38.01 -9.6759
-24.1615 20.2935 -7.75321
4.36485 -10.3664 -2.76319
-11.9259 17.0814 -5.04987
-7.75555 15.1088 -4.09186
10.3193 -9.30796 -3.32723
40.8437 -13.5672 -10.2978
15.2201 7.61186 -4.05226
-6.16492 -35.3186 -8.54271
3.9751 -9.10866 -2.35471
47.747 -12.7791 -11.7299
-11.8162 -43.5139 -10.684
4.2177 -9.0246 -2.37612
3.88306 -11.1367 -2.77904
4.92285 -8.7188 -2.35527
-12.6298 17.2107 -4.96694
11.0595 -9.6919 -3.36068
-6.07192 -30.7998 -7.16465
-26.7808 20.6841 -7.66995
42.0981 -9.20677 -9.77852
-30.043 21.8128 -8.32339
-34.9713 -22.9175 -9.36921
-5.27609 -25.1241 -5.72631
41.2827 -12.7618 -9.70089
5.47263 -9.50537 -2.4486
-12.3534 2.81879 -2.78021
41.1598 -12.062 -9.47556
43.1814 -12.3209 -9.87842
28.06 39.5212 -10.6196
-5.3079 13.9228 -3.25623
13.4726 -10.8413 -3.80597
38.5471 -12.3877 -8.90012
-23.0747 20.1108 -6.63873
-28.2255 -69.5907 -16.2984
4.32497 -9.73417 -2.30958
4.55402 -9.2103 -2.21906
-14.3976 17.9375 -4.91108
-30.4589 22.1248 -8.03819
-31.3164 22.2242 -8.20836
-26.8155 -71.1483 -16.3012
-10.5549 16.4919 -4.15064
-8.24597 -35.0097 -7.65029
3.20231 -9.72119 -2.18223
3.98251 -9.86945 -2.26886
46.4784 -10.7762 -10.1838
15.0513 7.53908 -3.56974
-14.9617 18.4175 -5.02297
5.17997 -9.08276 -2.19656
27.2505 39.4297 -10.0197
-27.3077 -26.7236 -7.93421
15.0947 7.89992 -3.53809
-29.7849 -23.0029 -7.80753
-31.2028 -80.0081 -17.7829
41.0479 -11.0467 -8.79034
-11.3018 16.6513 -4.08848
-15.4203 18.2315 -4.86033
-34.5814 23.2137 -8.46315
45.069 -9.83068 -9.40604
-12.8759 -41.4331 -8.82025
4.15108 -9.76985 -2.15943
4.27459 -9.73431 -2.1669
11.6629 -9.69509 -3.08545
-11.8409 16.992 -4.1333
-19.1857 -55.0658 -11.6565
-12.6493 -39.297 -8.17495
4.085 -9.95801 -2.13077
-33.6744 -23.0262 -8.04249
-26.3397 20.6725 -6.58962
-32.7229 -23.4071 -7.84323
-6.78926 15.0003 -3.19455
-25.5846 -60.1175 -12.6929
-33.1393 -22.0618 -7.6724
3.4481 -9.39549 -1.93233
46.5532 -10.7861 -9.17526
-12.5759 17.1698 -4.06768
4.00326 -9.37785 -1.94564
-35.9673 -21.8476 -7.96675
-20.9027 -33.956 -7.58424
-15.1352 -43.6724 -8.74743
38.386 -12.6627 -7.64033
-35.3108 23.7159 -7.96029
-33.2603 -22.9703 -7.59403
-32.2263 -23.578 -7.49618
-20.6322 -51.1159 -10.3739
-16.4076 -44.5693 -8.81143
3.83057 -9.23139 -1.84591
43.1751 -11.6365 -8.30275
5.77936 -9.74935 -2.07689
-23.7075 -53.7581 -10.7586
-19.8343 -49.2321 -9.60169
-14.3559 17.8949 -4.06723
-30.6963 -24.7572 -7.01039
-20.0424 -26.7073 -5.97181
-38.6269 24.3742 -8.05864
-26.346 20.6868 -5.83002
-33.4905 22.9175 -7.0459
3.92523 -10.0899 -1.87704
4.78559 -8.63737 -1.71591
14.0997 7.57201 -2.76114
14.1783 8.13623 -2.80058
-30.3132 22.0434 -6.42529
42.8494 -12.1231 -7.58054
42.6307 -11.0411 -7.49579
-30.8542 -24.504 -6.68442
-20.7512 19.7629 -4.81176
-19.754 -49.1014 -8.94426
14.964 7.50003 -2.808
-31.1665 22.0642 -6.37855
-22.7661 -54.2796 -9.72767
44.2158 -11.9115 -7.44217
-10.1973 16.1884 -3.08664
-20.0204 -49.6684 -8.54236
-34.4208 -23.7608 -6.59129
-22.4352 19.7113 -4.67619
-23.8027 20.3196 -4.85034
-39.3257 23.8106 -7.12402
-11.054 16.5442 -3.07098
3.48604 -9.56703 -1.57455
3.88763 -10.2802 -1.70148
-7.48797 15.1869 -2.58528
-30.5325 22.2225 -5.77266
-31.348 -24.2122 -6.02365
-27.5842 -25.8019 -5.7225
42.8288 -11.1342 -6.72567
45.5493 -9.92369 -7.10147
-6.42757 14.3155 -2.3469
9.8605 -5.16862 -1.65241
-33.047 -23.8352 -6.06834
-25.3709 -64.1526 -10.2332
10.2404 -9.20731 -2.05206
45.6998 -10.5722 -6.96525
-36.1387 -24.057 -6.38984
-31.087 -25.6418 -5.89535
-12.3147 -40.8053 -6.27267
17.048 -12.3342 -3.08181
-24.987 20.5727 -4.70362
-23.8961 -53.5428 -8.45026
-7.48808 14.9973 -2.39604
-12.52 17.0703 -3.01775
6.07018 -11.5969 -1.87007
-13.2048 17.6494 -3.09583
-34.0701 23.0153 -5.7806
6.79535 -11.0998 -1.81875
38.1048 -12.5754 -5.64292
-30.7447 -24.6357 -5.49888
-32.4017 23.2857 -5.52768
-19.9689 -48.1291 -7.19807
45.8558 -10.2586 -6.47872
-6.74268 14.911 -2.23537
-21.7794 -56.8421 -8.27053
7.78202 -9.4176 -1.63935
9.22364 -9.08004 -1.78518
-13.7918 17.61 -3.01496
13.2985 -10.6067 -2.30135
-21.8788 19.9015 -3.97703
42.7551 -11.0545 -5.86212
45.5706 -9.98198 -6.17405
-22.2605 19.5896 -3.8775
-32.2558 -24.1365 -5.26255
-14.6687 17.9624 -2.99829
-33.422 22.3076 -5.21705
-37.856 -15.9842 -5.30616
7.05014 -10.485 -1.62089
10.8514 8.88451 -1.80166
-33.3627 -22.9913 -5.18554
-30.881 22.544 -4.83674
-35.1121 -21.9102 -5.18802
42.6077 -11.0191 -5.50683
6.82839 -10.4171 -1.55617
-7.51904 15.0391 -2.08119
-24.6127 20.6669 -3.9355
-32.7845 23.1058 -4.94781
6.33449 -12.1485 -1.66875
45.5201 -9.71176 -5.70033
15.1129 7.91781 -2.05196
-17.4869 -42.3531 -5.52598
7.12099 -10.5833 -1.53567
-20.3459 9.01715 -2.63435
-13.904 -42.06 -5.2096
-31.433 -24.2342 -4.64138
-30.9233 -24.7307 -4.63394
42.6993 -11.438 -5.19476
11.2887 -9.72166 -1.7258
-29.3592 22.2616 -4.23929
6.67597 -10.8775 -1.46088
7.51724 -9.25506 -1.36375
11.6448 -9.7756 -1.72669
9.47562 -4.62266 -1.19398
15.0899 7.75434 -1.91269
-10.1795 16.2056 -2.15942
-31.5982 23.0892 -4.38455
39.4491 -12.9863 -4.65677
9.3967 -9.06161 -1.44409
-10.8889 16.3311 -2.13349
6.84114 -12.8795 -1.57937
45.6667 -9.92509 -5.06559
10.8514 8.91736 -1.51454
16.9051 -12.5576 -2.2598
42.9019 -11.127 -4.74848
9.66077 -9.01768 -1.4
8.40966 -8.4951 -1.25217
-30.4994 -24.4065 -4.06787
-29.084 -58.3368 -6.80078
15.086 7.56584 -1.7249
-31.3772 -24.1938 -4.06561
-12.6516 17.2469 -2.17176
-12.5772 16.8506 -2.08994
10.2539 -9.12935 -1.34483
-20.1415 -51.1522 -5.39024
6.36051 -12.1807 -1.32969
16.7713 -12.2702 -1.99716
42.7913 -11.4987 -4.24663
-29.563 -59.7581 -6.33837
-20.0723 -52.6761 -5.35412
-22.9398 20.0653 -2.84946
46.3978 -10.3218 -4.43898
9.75891 -9.02629 -1.23046
40.3073 -13.2965 -3.95442
-14.7813 18.1196 -2.11774
-29.4046 -13.4064 -2.94616
-31.1134 -60.6533 -6.28383
15.9748 -11.957 -1.81488
8.66984 -8.76121 -1.11606
12.9692 -10.7055 -1.4642
45.9781 -10.6571 -4.04248
9.4422 -9.06672 -1.1003
11.0065 -9.69261 -1.2326
-33.5197 23.0199 -3.38447
16.9736 -12.3778 -1.73966
-16.4461 -42.7958 -3.67249
14.784 -11.5602 -1.49628
-11.4863 -32.1566 -2.69545
-29.2899 22.271 -2.84616
-32.4786 22.9574 -3.07112
-21.9842 -50.2179 -4.23237
-49.9309 27.1749 -4.30576
-21.0459 19.8076 -2.10281
-32.7031 23.1321 -2.90381
16.5065 -12.3337 -1.50706
42.8241 -11.4599 -3.22912
-37.561 -71.0689 -5.8012
14.0671 -11.13 -1.28352
-15.1364 -40.1528 -2.96186
10.8199 -9.66293 -0.993775
-22.9619 20.1055 -2.06182
12.9479 -10.6841 -1.12354
18.1041 -13.1308 -1.49067
-22.5477 -51.9484 -3.7431
16.1646 -12.2267 -1.33827
-14.2686 -39.5609 -2.72055
44.6432 -11.6108 -2.88274
-30.6001 -62.0007 -4.21914
36.3209 -8.81161 -2.29332
43.7727 -10.019 -2.75625
6.10157 -13.1893 -0.86836
31.3803 -20.7644 -2.2509
-9.66353 16.1321 -1.10562
-15.1566 -39.5372 -2.41104
16.7413 -12.5116 -1.17321
-9.63625 -12.4918 -0.864695
15.0796 7.73641 -0.916831
13.9923 -11.0764 -0.95543
-12.577 17.0439 -1.10674
-16.0419 -39.761 -2.27698
14.9738 7.87372 -0.829625
-15.8572 -40.533 -2.13547
-13.9197 17.6435 -1.07515
9.60722 -9.0622 -0.605673
-23.1393 -53.0788 -2.61983
12.5236 -10.2955 -0.751468
-15.5141 -43.247 -2.03968
-16.7417 -41.248 -1.90564
6.90921 -12.7581 -0.643525
-13.498 -41.1466 -1.84441
-51.278 27.8871 -2.36592
18.4981 -13.2897 -0.924087
16.937 -12.5893 -0.821628
-39.403 -76.4774 -3.24497
-17.64 -46.2577 -1.82299
-33.008 22.6798 -1.46571
43.3108 -11.1596 -1.60996
-33.0038 -65.6501 -2.45776
-24.938 -54.6516 -2.02212
20.5119 23.7232 -1.04223
-21.0886 19.7623 -0.942369
8.19264 -14.4596 -0.557971
9.46227 -9.03325 -0.42399
11.3596 -10.0005 -0.491843
18.756 -13.262 -0.754662
35.319 -13.3212 -1.25221
22.396 27.1104 -1.12856
-27.1294 -13.6078 -0.951604
-22.5214 20.0557 -0.919805
-31.1197 22.0408 -1.19104
-24.0406 -55.2699 -1.8662
-13.448 -38.0444 -1.2426
-20.7228 -52.8615 -1.71863
-16.1057 -43.6499 -1.33256
-33.5928 -20.368 -1.04654
11.5091 -9.76369 -0.404215
16.4647 -12.2463 -0.540715
-40.1763 24.8548 -1.24701
-29.7271 22.6198 -0.925068
-30.2461 22.1669 -0.887453
9.6095 -9.04627 -0.30567
-40.6629 14.0543 -0.951876
-30.4879 -51.0526 -1.33879
21.4804 -14.3663 -0.567712
30.9388 -18.7605 -0.816103
14.3099 3.95468 -0.30306
28.4598 49.7332 -1.05496
23.7661 -11.0645 -0.461423
48.0137 -11.0562 -0.915905
-30.2605 -21.7462 -0.679602
-29.1388 -28.62 -0.647571
-18.4121 -45.1788 -0.811878
12.7962 -10.5228 -0.272454
18.6871 -13.5033 -0.352088
-28.9908 -12.8856 -0.416767
-32.3822 -24.2339 -0.562804
-31.9576 -64.4237 -0.970035
-26.6922 -56.8096 -0.859344
-33.4764 -22.8625 -0.529361
-29.7432 22.6286 -0.440963
17.137 -12.7976 -0.25374
29.7228 -18.4297 -0.411059
-30.2097 22.1784 -0.418247
-37.4476 -20.9243 -0.483104
-18.5639 -42.5753 -0.496396
-11.727 -35.2975 -0.374111
-32.242 -56.8098 -0.601089
-14.0857 17.8676 -0.175262
-26.472 -13.3463 -0.23958
-14.7653 17.9991 -0.159861
-22.195 19.8223 -0.153989
-20.6616 19.3801 -0.129686
-10.5006 -13.4994 -0.0600756
14.8408 7.79624 -0.0205112
11.1662 -9.81885 -0.00773221
-34.0726 -18.6622 0.059123
-11.0836 -32.9405 0.113713
17.0939 -12.4194 0.0919204
-18.3019 -42.0177 0.204425
18.9479 -13.3503 0.123368
7.22769 -12.4244 0.104964
26.2764 -10.7807 0.17502
-54.1531 19.3366 0.547019
16.3758 -12.1363 0.194811
37.9876 -7.75578 0.366287
-28.8229 -8.12733 0.349948
-35.7951 -21.6051 0.461051
-11.0904 -31.7753 0.361593
-53.0501 29.0748 0.738308
-12.4231 -34.425 0.436397
-10.0701 -30.9534 0.391169
6.38425 -13.0497 0.185499
7.25502 -11.177 0.175261
-27.6953 21.7402 0.538088
11.3734 -9.93294 0.22712
-23.7253 20.2895 0.514326
10.9567 -9.78308 0.230631
13.053 -10.7458 0.266511
36.9104 -7.89951 0.628425
-34.0943 -22.8425 0.746492
-30.6819 21.938 0.739533
6.19483 -12.9432 0.27846
7.06178 -11.1134 0.253717
8.0602 -9.45817 0.242715
28.829 59.2795 1.43258
7.76152 -9.48356 0.277101
10.1765 -9.21731 0.331317
-28.5611 -9.1583 0.722168
-22.9391 20.0225 0.82284
-27.1125 21.3784 0.925617
-28.6895 -8.61436 0.789024
9.22844 -8.93301 0.347009
9.6663 -8.98417 0.359781
-25.1578 21.2034 0.892927
25.602 -5.17938 0.727487
13.0628 -10.7162 0.503441
15.1064 24.6096 0.890431
6.2406 -12.8742 0.450202
7.50368 -11.6971 0.436139
-28.2264 -7.96063 0.961912
-12.5031 -19.1436 0.753523
-27.9143 -8.7245 1.01085
16.2574 11.1274 0.711836
-29.5141 -18.2887 1.21358
16.1171 27.9971 1.15243
-30.1351 -16.4377 1.27194
23.7259 -4.28436 0.871258
-27.5441 -19.5898 1.25248
-7.28018 -7.93784 0.40637
9.08859 -8.86279 0.471922
12.5596 13.739 0.717481
27.193 56.0972 2.36026
26.0174 55.3938 2.30382
-11.5155 -9.11492 0.578981
8.75717 -8.7027 0.488426
-25.2522 20.802 1.32709
21.997 -2.98125 0.899475
-28.5147 -17.3198 1.3667
9.45411 -8.96441 0.534225
12.5926 14.503 0.826116
6.62519 -12.5468 0.602489
15.0719 19.5836 1.08615
21.2145 29.3029 1.58405
-9.44639 -13.7351 0.732789
-9.91848 -15.512 0.817453
7.63864 -11.0095 0.590388
8.65736 -8.7472 0.556188
24.3848 -3.73561 1.11404
-29.6053 -8.62736 1.40721
6.77949 -11.1454 0.600213
-8.25423 -8.12308 0.544921
22.0756 44.5401 2.37789
-28.2798 -17.4779 1.57143
-9.71901 -13.6327 0.796948
9.70181 -9.00165 0.623384
16.1161 44.786 2.30365
-29.9746 -13.2766 1.56455
-6.7492 -8.22822 0.523584
14.9817 34.8405 1.93488
-29.4802 -11.5444 1.5886
-7.57898 -6.96908 0.520314
-6.68848 -7.58207 0.511368
16.4922 29.8755 1.77166
10.6379 12.4392 0.884373
14.4184 19.621 1.30714
9.38336 -8.96219 0.69526
15.0116 19.5321 1.36001
15.5385 23.999 1.57406
-27.1148 19.0917 1.81653
-6.95926 -8.17856 0.595441
-26.0461 19.9852 1.8241
6.14272 -12.97 0.802852
-7.08941 -9.13631 0.659435
10.0421 12.5433 0.944826
15.1806 25.5774 1.73745
6.51326 -13.0815 0.840914
14.0621 22.942 1.58924
-8.24127 -8.10079 0.696176
11.6225 11.7028 0.98343
14.8623 19.767 1.48571
-7.37729 -9.98667 0.772168
7.04633 -11.229 0.807862
11.3151 -9.76 0.905949
5.89617 -10.8088 0.763964
-7.18427 -6.64044 0.611195
14.6752 20.8178 1.61145
16.24 7.20869 1.15363
-7.02761 -6.14003 0.612198
6.51585 -13.556 1.00224
9.56147 21.5978 1.59331
10.5011 12.6571 1.12421
13.7091 18.4341 1.60222
12.5721 20.8444 1.68428
11.4309 12.0751 1.167
6.62301 -9.87727 0.84213
11.5785 11.846 1.19869
9.83214 -6.94055 0.856381
12.4489 12.0516 1.27248
9.9585 -8.40988 0.954917
-6.12417 6.63739 0.673601
10.4891 9.23593 1.04978
12.058 18.0287 1.63188
11.612 18.5003 1.64577
-6.93426 -7.68616 0.802628
10.9907 18.97 1.68212
9.5465 -8.98809 1.01333
10.5672 14.1848 1.38668
-6.41064 -4.29555 0.608394
9.30805 18.6486 1.66558
10.108 -6.91689 0.980745
12.5399 11.6347 1.38277
9.87525 19.1739 1.73669
-7.24777 -9.61349 0.980652
6.73819 -9.40876 0.941684
12.3268 11.7923 1.39775
12.232 12.0297 1.42463
11.5029 12.0231 1.37752
-5.03509 -11.4919 1.05556
10.3939 13.0041 1.41649
-6.95228 -6.07514 0.795085
-6.80839 -6.68739 0.805985
-5.19629 -11.3967 1.06532
-7.28866 -7.73415 0.915102
9.30775 -7.27414 1.02066
-7.1089 -8.04444 0.939425
-7.00623 -7.67864 0.914082
9.46206 12.63 1.39914
-6.94031 -8.35786 0.970519
10.8705 9.1211 1.29325
10.549 13.5865 1.55412
10.5787 9.29087 1.28884
7.79599 14.1516 1.4862
-6.48846 -8.12361 0.952544
-6.88989 -9.00131 1.04623
11.2674 10.8671 1.44439
11.3077 9.22592 1.36567
10.9355 10.8697 1.44537
6.56738 15.1766 1.5541
-11.3903 2.91805 1.10213
-6.35615 -4.16749 0.711837
-6.79786 -6.2866 0.858498
9.51133 13.4138 1.58635
-5.99724 6.51656 0.87139
7.97609 -6.62226 1.01037
8.00363 13.3454 1.54587
-7.05776 -7.60578 1.04522
9.37308 11.72 1.51376
7.07017 12.5536 1.46233
7.13136 13.1382 1.52413
9.58291 9.13994 1.37055
5.9338 14.1458 1.59021
9.21206 12.5292 1.62146
-6.10223 -4.45309 0.791605
6.03084 13.858 1.59223
6.29211 13.7827 1.5931
-6.96242 -4.42262 0.882021
8.81331 9.06526 1.34797
9.19127 10.2394 1.49653
7.38355 11.0867 1.44776
5.87961 11.581 1.41228
-6.29068 -7.40031 1.06154
10.305 6.47648 1.34672
9.03277 8.17546 1.34305
7.37184 11.7837 1.53497
6.9044 11.7349 1.50549
5.41303 12.0204 1.467
4.92476 12.2419 1.47659
4.77092 13.8752 1.61458
9.90557 7.08255 1.35976
8.80587 9.3606 1.43617
5.43557 11.6307 1.44598
-6.83192 -6.71405 1.06603
6.91863 10.7991 1.44492
4.37971 13.3612 1.58959
9.77313 -3.20257 1.14676
-6.09826 -5.40876 0.94355
7.3008 -6.12969 1.08214
10.4498 5.73358 1.36713
-7.36844 -0.984066 0.851499
-6.25077 -5.35044 0.94691
5.24892 -5.55759 0.880733
5.12116 11.7467 1.48891
-6.87486 -4.55376 0.955369
4.45706 -7.26764 0.985928
10.44 5.16462 1.36689
8.92302 7.91966 1.40065
-5.99702 -4.36452 0.864202
-6.47857 -5.26753 0.986229
4.09715 -7.87585 1.05575
4.96756 -5.85133 0.920881
10.1964 4.76775 1.34941
8.55828 8.3104 1.44502
5.32829 11.6083 1.55949
9.07605 6.28749 1.35194
8.04972 8.37753 1.45552
-6.48219 -5.73999 1.07769
3.70955 -7.57917 1.05683
8.70762 6.71397 1.38277
-6.46074 -5.33853 1.06055
9.12063 6.03285 1.39622
8.2157 7.16878 1.39126
8.14811 7.53899 1.41751
5.77975 -5.34804 1.011
-6.96383 -4.43792 1.05977
8.13854 8.03554 1.48359
-7.34504 -1.04062 0.958162
-6.91503 -2.82308 0.975166
8.9986 4.11158 1.29573
8.43328 6.65324 1.41025
5.00019 -6.03022 1.02971
4.91847 -6.19508 1.04747
6.87624 -4.28646 1.07861
-7.12329 -1.71582 0.981954
-7.00067 -2.21715 0.98149
-6.02064 -4.41883 0.998222
8.16567 6.68354 1.43066
8.63306 4.45156 1.32439
8.65718 5.18251 1.37826
8.06093 7.16712 1.46831
-6.80087 -3.72933 1.05295
8.8846 4.17044 1.34355
8.29251 5.8529 1.39007
-6.3919 -4.32492 1.05585
-5.95289 -4.52157 1.02073
5.39553 9.09241 1.46061
3.67841 10.1768 1.50325
-7.35534 -1.09112 1.02942
-6.89614 -3.92245 1.1008
4.94988 -5.54468 1.02723
5.22996 -5.40005 1.04339
7.4726 -3.54131 1.15648
3.42228 10.2641 1.51658
8.42567 4.61142 1.35883
7.38386 -3.68256 1.17056
7.59661 -3.33913 1.18309
7.7722 -3.3101 1.19873
8.95866 2.82085 1.35197
4.83456 -5.63634 1.06739
7.36227 -2.85638 1.14975
-6.95001 -3.29611 1.12095
7.92914 -2.78348 1.22528
8.67901 -1.82309 1.30184
5.04273 8.634 1.47623
2.98381 9.53823 1.48739
7.74284 -1.89053 1.17471
7.25518 5.77801 1.38205
3.48973 9.65466 1.51803
3.22054 9.90147 1.5437
-7.35754 -1.04156 1.10147
-7.06448 -2.02019 1.09475
6.97484 6.314 1.42061
-6.25659 -2.26929 0.998521
-7.22843 -1.37306 1.11037
7.96388 4.83264 1.41932
5.73975 7.39613 1.42072
5.3235 7.67591 1.42196
5.08901 8.06489 1.44206
6.76594 -3.22875 1.1338
7.2546 -3.1283 1.20992
7.64601 -2.75908 1.23874
-7.30358 -0.731635 1.12061
-7.08697 -1.95162 1.13426
6.79566 -3.09584 1.1549
3.74976 -5.7865 1.06626
-7.04304 -2.07302 1.15074
-7.33346 -1.091 1.16387
7.38401 4.78947 1.39022
-7.18701 -1.44117 1.16593
-7.25948 -1.29892 1.18298
-7.08719 -2.01607 1.19796
7.09163 4.77796 1.39601
-7.09077 -1.94258 1.20744
7.03149 4.88031 1.42186
6.63609 4.8675 1.37356
5.23023 6.27195 1.3607
4.69995 7.21341 1.43819
3.84993 7.99104 1.47483
-7.23738 -1.37126 1.22937
2.79043 -5.77288 1.08093
7.16282 4.44158 1.41999
6.53563 5.25612 1.41509
3.87345 -5.36501 1.11571
3.93611 -5.0203 1.07998
-7.26022 -1.25033 1.24943
-6.5904 -2.62206 1.20315
7.43299 2.85415 1.35057
7.04853 3.90148 1.37304
-6.40711 -2.74989 1.186
6.79292 4.10977 1.36311
5.68623 -3.52198 1.1513
-7.38325 -1.0378 1.28905
-6.34966 -2.27782 1.15949
5.53859 -3.65009 1.14343
5.32158 -3.77589 1.14379
3.61963 7.20792 1.41925
-6.78996 -1.73271 1.23038
4.48064 -4.46807 1.11365
-7.08048 -0.913124 1.27144
4.7266 -4.45909 1.14999
4.35093 6.52655 1.40001
6.60164 3.48213 1.34803
6.64202 3.69167 1.36528
-6.43303 -1.4986 1.18772
3.60808 -5.32524 1.17019
5.0978 5.6352 1.39163
-6.14867 -2.18095 1.1954
3.41167 -5.15639 1.14991
3.40819 6.81257 1.42561
-1.69825 -5.78316 1.14472
6.45757 2.73739 1.33489
-2.14357 -5.72812 1.17557
6.32159 2.80159 1.33135
-2.78758 -5.37645 1.18655
-3.50631 5.32384 1.38023
4.48274 3.90403 1.35697
4.15072 -2.87847 1.17705
4.62992 -2.18688 1.23738
4.209 3.29929 1.32503
3.70609 -2.92922 1.22359
4.02534 2.57919 1.33592
-1.44538 -4.12317 1.22297
-2.32349 -3.58308 1.21323
3.86618 2.36826 1.31386
-2.85336 3.51583 1.35665
-2.48325 -2.91931 1.19006
-2.38072 -2.94056 1.19504
1.83815 -2.80472 1.1794
1.86123 -2.7832 1.20944
1.98737 -2.52075 1.19601
-2.03946 2.80048 1.31656
2.8023 -0.555363 1.25887
2.78191 -0.336652 1.24072
-2.09179 -1.62086 1.21354
-2.07942 -1.4527 1.23854
-1.86482 -1.79804 1.28422
-1.99686 -1.13247 1.20489
-1.98831 -1.07133 1.23169
-1.94799 -0.881106 1.23182
-1.93222 -0.708966 1.22202
-1.93106 -0.702043 1.24922
-1.90725 -0.470034 1.22191
-1.87256 -0.345971 1.21906
-1.85748 -0.40148 1.22583
2.3755 -19.6517 -9.98862
-7.57894 -8.94787 0.463593
8.04079 -8.82412 -10.4962
8.28583 -8.65194 -10.5306
8.23726 -8.31189 -9.91149
6.9773 -11.9888 -11.4397
8.54243 -9.00074 -9.77053
7.87208 -8.96152 -9.15996
5.86494 -12.8283 -10.754
9.45926 -8.86385 -9.77725
6.16337 -14.1276 -11.6026
8.31226 -8.70485 -9.04897
8.04206 -9.19628 -9.13523
7.31281 -9.27167 -8.79741
5.92642 -14.1882 -11.218
7.74172 -9.33372 -8.74985
7.8789 -9.14339 -8.69399
7.14857 -10.609 -9.10759
6.83988 -11.104 -9.2448
10.0924 -9.22842 -9.60424
6.55847 -11.2066 -8.8887
8.05669 -8.6529 -7.87268
7.38261 -9.3082 -7.89472
8.54243 -8.7079 -8.10797
7.74529 -9.50308 -8.0537
6.50768 -12.8129 -9.38336
7.9581 -9.20916 -7.93792
5.01051 -16.0594 -10.8197
-0.476589 13.914 -8.90245
7.7512 -9.2722 -7.74935
7.35975 -10.8992 -8.37309
8.40437 -8.59303 -7.65739
10.921 -9.66082 -9.24798
9.01858 -8.84713 -7.92302
11.8214 -10.0804 -9.73583
8.09873 -8.56317 -7.25092
4.04474 -16.8496 -10.62
4.25683 -15.4002 -9.81008
7.87013 -9.38911 -7.34167
3.9566 -15.6386 -9.61906
11.5327 -9.87296 -9.09205
6.88664 -11.1123 -7.76217
7.79302 -8.84285 -6.98208
5.50314 -14.0344 -8.90612
6.50899 -12.7448 -8.37449
8.38802 -8.62092 -7.00937
9.72474 -9.11554 -7.77172
2.79759 -11.8213 -6.96277
5.50153 -13.9533 -8.49154
9.63231 -9.14081 -7.50631
6.63845 -11.1038 -7.28387
3.34406 -20.6592 -11.7291
8.90948 -8.96975 -7.0869
12.25 -10.2773 -8.95756
6.84496 -11.0395 -7.2359
4.69762 -14.6533 -8.50363
6.24331 -12.6638 -7.76655
0.89314 18.6056 -10.1407
14.7068 7.77155 -9.03863
4.21684 -14.2831 -8.04272
14.8119 -11.7207 -10.1811
15.064 7.48595 -8.96096
14.0938 7.76561 -8.55092
4.7778 -14.8826 -8.30481
12.1376 -10.1956 -8.34141
1.81233 -20.4462 -10.5604
11.4656 -9.89472 -7.7586
2.08011 -20.1813 -10.2952
14.0418 -11.1455 -9.06724
0.000850953 14.2669 -7.16139
-7.22311 15.0102 -8.34703
10.638 -9.64 -7.21321
7.54018 -9.45733 -6.02584
17.7611 5.52756 -9.0743
-8.41492 15.9493 -8.71438
11.6964 -9.82303 -7.3925
10.5374 -9.62393 -6.85235
14.8701 -11.4001 -9.03705
16.8483 15.9613 -11.0271
7.51402 -11.1054 -6.38801
15.1031 7.46265 -7.90496
13.9995 -11.0853 -8.34547
-11.7988 16.8939 -9.44034
15.9344 -12.0735 -9.13273
9.8028 -2.4579 -4.64257
-9.08482 -1.6516 -4.19893
18.9202 18.2583 -11.8652
3.92274 -9.12065 -4.50607
-10.0861 16.4744 -8.67388
-5.32249 4.4258 -3.11242
6.88579 -11.3357 -5.97049
9.46182 -9.11917 -5.7956
16.1183 7.35308 -7.81654
-6.55608 14.8861 -7.10361
1.50252 -18.747 -8.13414
-11.0282 16.778 -8.64402
9.60763 -3.37949 -4.36246
7.04516 -11.0887 -5.5533
15.9162 -12.0313 -8.35134
14.7385 7.79129 -6.9933
18.9625 19.7298 -11.4378
1.01821 -22.5205 -9.38573
-4.4906 13.7293 -5.9512
-9.90204 -1.10753 -4.12932
14.173 7.82621 -6.6112
20.7186 22.5381 -12.4799
-13.0017 2.43657 -5.38855
15.2071 7.22546 -6.80977
-5.16316 14.1441 -6.05514
3.64676 -8.82853 -3.80186
12.4514 -10.3188 -6.33478
14.0194 -11.0695 -6.98042
19.5378 21.868 -11.3765
18.9342 5.8387 -7.68354
1.54273 19.3409 -7.52379
-8.61364 15.5187 -6.84197
11.4507 -10.0959 -5.87167
19.4857 22.5924 -11.4935
0.680486 15.4094 -5.90749
-1.65387 12.6719 -4.91618
2.71667 -12.2543 -4.81573
-8.7465 -1.24921 -3.35826
0.700936 -23.5042 -8.87365
15.2761 -11.7067 -7.25792
9.51599 -3.47231 -3.8213
-14.3666 17.7104 -8.49923
-7.8752 -3.49833 -3.16058
1.09522 -10.4466 -3.86328
7.05651 -11.2813 -4.8658
14.2846 7.97619 -5.90722
-8.27486 -2.84106 -3.14607
0.787918 15.3263 -5.47278
-3.90498 13.2002 -4.86956
5.75813 -11.026 -4.37723
15.9344 -12.0422 -7.07374
19.2126 5.93388 -7.07466
2.13077 20.8377 -7.34703
21.974 26.5657 -11.9826
-14.6464 18.0792 -7.9865
2.98122 -13.3794 -4.71766
-8.75617 15.8162 -6.17785
18.6164 -13.1856 -7.81853
-4.97242 14.2818 -5.14203
1.35489 -22.1224 -7.34514
1.76662 19.7388 -6.54767
1.44851 -10.3175 -3.44336
39.7124 -20.3001 -14.6358
6.18733 -10.0768 -3.78491
17.6883 -12.4896 -6.93496
2.12857 20.8159 -6.66027
-13.1407 17.5429 -6.91099
1.44314 -22.5648 -7.04575
-4.24363 14.52 -4.70071
-10.7759 16.327 -5.92894
-2.70507 -27.5473 -8.41082
3.07101 -9.48989 -3.03126
0.78993 -24.0717 -7.24378
19.2728 -13.6799 -7.01268
17.714 5.60405 -5.45207
-7.76158 15.0243 -4.92305
4.24077 -10.5227 -3.29707
3.63274 -10.6028 -3.18972
4.2567 -10.9843 -3.30668
-13.086 17.491 -6.07671
-9.13012 15.6073 -4.91917
-13.1758 1.97513 -3.65316
-16.6258 19.1016 -6.87657
26.5812 -17.4987 -8.62258
-3.83357 -27.3415 -7.40663
3.79127 -9.16529 -2.65371
-9.63536 16.0167 -4.97546
48.0032 -14.0159 -13.2599
10.5773 -9.43385 -3.7516
-6.33262 14.661 -4.17189
-14.1722 17.7686 -5.96458
-7.8019 -36.9204 -9.83129
4.97212 -9.59824 -2.79789
6.58053 -10.5313 -3.20362
-7.0779 15.0211 -4.22093
-10.376 16.1607 -4.90733
-9.61763 -38.1165 -9.77813
-8.76978 -37.8626 -9.49262
10.9906 -9.68865 -3.60261
-7.82652 15.1893 -4.14351
-11.5236 16.7494 -4.92177
14.7069 7.76871 -3.94842
4.05493 -9.27108 -2.39491
15.3132 7.58394 -4.0278
3.75467 -8.92724 -2.27658
-6.38391 -31.8128 -7.51497
5.64181 -9.91137 -2.64326
45.4059 -10.9881 -10.8577
-12.5866 17.1447 -4.89608
14.9651 7.66421 -3.80457
44.4155 -9.60833 -10.2939
-9.61558 16.0167 -4.18162
3.72499 -9.27905 -2.17529
43.5639 -11.1758 -9.81564
15.2259 7.55359 -3.64031
-10.4483 16.3096 -4.14904
-21.5109 -33.8174 -8.6113
4.83517 -9.7797 -2.35357
45.7117 -10.7033 -10.0444
-14.5263 17.9977 -4.86642
-31.7719 -23.4505 -8.37064
42.2726 -14.1442 -9.42991
14.9513 7.90062 -3.52735
-34.7604 23.5068 -8.58108
-8.14539 -33.3185 -6.94756
3.96823 -11.5528 -2.45534
45.2245 -9.7576 -9.40972
11.8352 -9.79673 -3.0811
43.5879 -11.221 -8.96873
-26.508 20.0036 -6.59198
6.1659 -10.3202 -2.39341
46.631 -10.9046 -9.3529
-12.5658 17.1452 -4.10824
-26.373 20.6682 -6.51139
16.1914 12.2475 -3.88118
-6.74683 14.8513 -3.13138
-32.6527 -23.6179 -7.71399
-31.1797 -24.4158 -7.61109
-34.9851 23.3127 -7.91714
-33.1683 -21.8799 -7.50937
18.1431 5.70408 -3.55024
-33.6983 -20.3325 -7.3505
-14.6029 -42.1022 -8.30317
3.78352 -9.85462 -1.98751
-23.5733 -58.6892 -11.7644
-16.2928 -43.894 -8.56535
3.98709 -9.66364 -1.88557
13.1367 -10.265 -3.0065
46.0925 -10.2569 -8.48149
-14.4827 17.9624 -4.12308
-26.517 20.7977 -5.95013
15.192 8.04196 -2.99451
-29.8581 -26.0192 -6.90346
43.4488 -11.1294 -7.70016
-7.78598 14.9987 -2.8627
-9.55075 17.589 -3.38115
45.3484 -10.6752 -7.87759
-30.173 21.9781 -6.28496
-29.8723 -22.982 -6.29989
-20.4531 19.5566 -4.70832
-31.7431 22.4179 -6.48349
16.0275 -11.9586 -3.27682
-10.1487 16.1122 -3.02953
-42.4505 24.9794 -7.81486
-31.2151 -23.4499 -6.25072
-33.0257 -22.78 -6.31938
3.44416 -9.52534 -1.584
-23.3654 19.9598 -4.74618
17.0363 -12.0437 -3.23162
-10.975 16.4257 -3.00141
46.7785 -10.9632 -7.29207
-22.1194 -51.2604 -8.43708
-28.9574 21.7175 -5.41259
-37.632 23.4646 -6.58304
-31.2284 -24.2406 -5.89829
45.3422 -9.71664 -6.90434
-33.2846 -24.0717 -6.00241
-48.7898 27.2417 -8.03542
-35.0563 -23.383 -6.06608
6.77562 -13.0026 -2.12885
-35.7502 -20.7782 -5.8525
-6.79656 14.9846 -2.28502
-12.8869 17.3965 -3.01241
-31.5698 22.7291 -5.43779
-23.7996 -53.003 -8.01272
-15.6209 -45.666 -6.63865
37.1871 -12.367 -5.37434
-22.7872 20.0245 -4.03671
-31.8508 -23.8526 -5.1955
-30.2318 -24.8012 -5.17033
-33.4586 -23.043 -5.20434
7.47325 -9.46572 -1.55944
43.5059 -11.1366 -5.7621
-32.896 22.3853 -5.05929
-29.48 -15.7307 -4.25972
6.05556 -7.84241 -1.26566
45.5018 -10.6948 -5.92557
-30.5226 22.4326 -4.72716
14.599 -11.3739 -2.27356
-29.4759 22.2006 -4.46437
-32.0071 22.6263 -4.71977
-10.1708 16.1766 -2.2078
-31.128 -22.3876 -4.51143
-22.2405 -53.5391 -6.74522
13.0661 -10.5677 -1.96711
36.2701 -11.9853 -4.41974
6.37134 -10.3901 -1.40086
11.2489 -9.74791 -1.677
16.5661 -12.3342 -2.32723
-10.8756 16.3077 -2.1705
6.80267 -12.6748 -1.57623
11.6605 -9.73777 -1.68236
43.3425 -11.1144 -4.9121
-38.2773 23.8665 -4.84185
45.5669 -10.6478 -5.03801
15.0157 -11.5304 -2.01404
-12.7368 17.2078 -2.19912
14.8757 7.87353 -1.68246
14.0935 -11.118 -1.79307
-13.7719 17.6139 -2.16879
6.44302 -12.3473 -1.34058
9.44254 -8.95666 -1.25792
17.145 -12.5366 -2.07274
-28.614 -13.6732 -2.98786
-14.7328 18.0413 -2.17153
-35.5143 -69.1883 -7.23979
-33.5549 -20.9967 -3.50525
16.2546 -12.1801 -1.82768
39.0471 -12.9924 -3.68275
11.1685 -9.92788 -1.23486
43.7647 -11.1858 -3.76711
-15.7881 -41.0851 -3.53573
-38.1847 -74.665 -6.5331
17.7577 -12.9401 -1.73513
-29.664 22.4508 -2.84606
7.47582 -9.20904 -0.918131
-32.2797 22.85 -2.93845
-16.1839 -40.0361 -3.22769
-35.3663 -66.5507 -5.36003
-34.2151 -68.5274 -5.24733
12.6437 -10.5223 -1.10715
17.1992 -12.527 -1.43823
-38.7098 24.0983 -2.9821
44.03 -11.2729 -2.98301
-28.4187 -13.3632 -1.88099
-38.5664 -74.5088 -5.08114
14.6036 -11.385 -1.11565
31.5938 -20.8126 -2.067
31.5499 -19.8847 -2.03801
15.4533 7.63207 -0.894608
14.8883 7.89468 -0.866827
-12.6576 17.2732 -1.08697
-23.9153 -52.7742 -2.97699
-13.1788 -35.8706 -1.89439
-26.8995 -15.5357 -1.47453
-40.3863 -76.1147 -4.20792
9.69738 -9.13311 -0.666272
13.5318 -10.7612 -0.849105
16.1 10.2421 -0.901905
16.4107 11.5024 -0.933538
6.87797 -12.615 -0.683189
-19.9273 -5.87985 -0.892369
-29.0584 -51.7851 -2.62004
10.3093 -13.9183 -0.707822
18.2004 -13.1252 -0.916888
43.2251 -11.0415 -1.77496
-9.34989 -12.3663 -0.598185
44.795 -10.4896 -1.80868
22.5817 27.1481 -1.20536
-32.202 22.0133 -1.35267
-36.0651 -20.2237 -1.34632
-17.7483 -44.2329 -1.53134
16.6037 -12.3873 -0.675764
14.4661 3.91839 -0.44224
-25.0019 -57.4514 -1.87865
-22.4737 20.0196 -0.860408
-12.0471 -36.5299 -1.03427
43.6442 -9.27146 -1.24728
-41.256 25.6617 -1.31445
-53.486 19.2329 -1.36267
44.3571 -10.3003 -0.979041
-30.5106 23.0585 -0.765163
-30.1444 9.58825 -0.662029
32.5972 57.0727 -1.20953
-29.8098 22.0007 -0.710346
13.0467 -10.6902 -0.292168
-34.2602 -21.3209 -0.625693
-29.5713 -59.471 -0.988242
17.6239 -12.71 -0.315534
-12.3068 -37.2064 -0.505538
-14.0451 17.8296 -0.231876
-19.5714 -44.9791 -0.532835
30.6508 -19.1977 -0.32576
-22.4673 20.0459 -0.204967
-9.88125 -12.6822 -0.0486614
7.059 -11.7753 -0.0236963
14.7125 7.69389 0.00031516
-35.2473 -21.7649 0.220628
-23.4187 -40.0258 0.342063
-52.47 28.7436 0.610607
6.72862 -11.9386 0.142015
8.03599 -9.13693 0.121649
-40.6964 -21.6363 0.506503
-11.2681 -31.9106 0.377778
11.1523 -9.72169 0.194057
-22.856 19.5294 0.395115
-12.3026 -19.088 0.330219
-30.7987 21.9163 0.672724
-34.8978 -23.396 0.751899
-34.3935 -25.4079 0.746147
10.682 -9.59963 0.234435
7.81971 -9.63906 0.266773
7.92436 -9.2492 0.262858
-69.6779 24.1281 1.72264
18.2413 -13.2415 0.549079
-28.5557 -8.57881 0.797801
-27.6384 21.6741 1.01118
11.639 -9.97189 0.418152
17.3618 -7.52589 0.538975
-24.7075 20.9551 0.964084
-7.89396 -9.25685 0.387138
12.8106 13.9281 0.672822
-27.617 -19.6477 1.17036
6.18267 -12.739 0.498255
8.94018 -8.7974 0.428675
24.7058 -4.37802 0.839401
18.7111 17.8688 0.934116
14.0591 24.338 1.05678
-56.0549 18.4252 2.1235
24.5111 -4.76153 0.946198
-25.1808 20.5699 1.22861
9.41261 -8.95449 0.502354
22.5077 -3.10097 0.858557
12.313 14.2612 0.771201
14.9287 19.2895 0.99876
6.55567 -12.4296 0.576872
18.4088 42.5488 1.9354
7.68249 -11.0708 0.568127
-7.54702 -7.42905 0.467827
-8.26355 -11.4328 0.630351
-29.4134 -11.6437 1.50654
16.4841 10.7011 0.979461
-7.7234 -7.18622 0.505165
15.4885 24.0628 1.47865
-6.95132 -8.1831 0.590208
14.7009 20.1308 1.36604
-25.825 19.8861 1.80175
14.6033 23.7827 1.61613
-7.12094 -9.17939 0.663877
6.86351 -13.6015 0.874539
9.96702 12.5372 0.948008
14.8522 19.733 1.54854
15.2348 27.1142 1.91516
10.5467 29.5781 1.99746
-7.29836 -9.96132 0.790016
9.6256 21.936 1.60812
11.4764 10.0951 1.08953
11.5198 12.1819 1.18366
13.8017 15.9482 1.50948
8.22889 -12.6848 1.06745
10.806 9.02029 1.03575
12.9748 14.5526 1.45901
-14.3111 8.43955 1.25595
-11.1103 2.09304 0.854994
12.5241 16.3029 1.59566
11.6822 18.6179 1.70714
10.1149 -6.92221 0.957137
-7.66932 -8.11299 0.893102
12.8112 11.5968 1.40968
11.9089 11.6505 1.38312
-7.00841 -6.16631 0.75847
-7.05945 -6.90297 0.818926
-7.04083 -8.91607 0.978677
11.5204 12.0255 1.43622
9.09386 -7.14638 1.00706
10.6739 9.40275 1.29329
-11.3785 2.91364 1.07909
-7.62073 -7.09799 0.935569
11.6772 9.01027 1.41249
9.26124 13.0965 1.54051
7.22935 13.3025 1.48419
8.46004 13.1538 1.56867
-6.74549 -6.72179 0.946508
7.87307 -6.54435 1.00215
9.72219 12.1774 1.56195
9.96698 10.1814 1.47174
-6.8838 -5.4037 0.9106
9.64046 9.18 1.41937
8.22421 11.1814 1.45521
6.79584 13.1774 1.58001
9.61156 8.38718 1.35047
9.21023 10.2583 1.50205
5.7193 12.5985 1.49813
-6.38857 -7.52385 1.0666
6.7137 11.4267 1.45846
5.27575 13.2193 1.57073
-6.8274 -3.9819 0.872651
-6.69807 -6.07896 0.996498
3.92318 -7.77514 0.964129
5.44152 -6.09642 0.918203
9.37335 7.54583 1.35263
9.08752 9.67112 1.49674
7.94758 11.3199 1.5464
6.79802 10.7286 1.44865
-6.88045 -4.5701 0.936656
4.71108 -7.6866 1.04172
-10.6004 7.10621 1.48076
-7.08867 -2.13273 0.86126
9.02177 6.09454 1.29549
5.91585 12.0742 1.58941
4.99971 11.5625 1.48616
4.77194 -5.8613 0.889687
4.116 -7.89178 1.0823
8.34108 3.86345 1.15236
10.9717 5.47253 1.5071
4.58474 12.7567 1.68786
-6.16037 -5.38975 1.00385
-9.13017 1.30145 1.14921
8.26738 7.56142 1.41819
-6.43874 -5.32132 1.05644
7.80247 8.19507 1.45499
-6.8878 -3.57342 1.00458
4.96754 -5.96582 1.00234
5.02194 -5.42566 0.964055
8.40958 6.91901 1.44278
7.95223 7.86339 1.48818
-7.20235 -1.72369 0.997648
-7.03095 -2.20938 0.987402
-6.48789 -4.37439 1.03938
4.82956 -6.08781 1.03417
8.39218 6.36038 1.43247
-6.85101 -4.2187 1.084
-6.05142 -4.44644 1.00984
4.94855 -5.53627 1.01973
7.41421 -3.52154 1.14253
8.36431 4.24658 1.33257
8.32829 4.57648 1.34859
-6.94044 -2.90733 1.07578
7.48171 -3.73415 1.19412
7.0193 -3.05619 1.08006
4.94001 -5.78768 1.09849
8.19539 -1.73412 1.21328
-6.95983 -3.25804 1.13962
7.39034 5.56883 1.39005
5.75688 7.43275 1.4203
7.98537 3.91293 1.35895
7.90714 4.19338 1.36097
5.43719 7.80762 1.44685
5.08447 8.68534 1.52098
3.5066 9.59223 1.54135
-7.00877 -2.82692 1.15201
7.68324 -2.7951 1.25248
7.84826 -2.2366 1.25953
7.79797 -2.01739 1.24474
7.46243 4.20323 1.38125
7.06735 4.75224 1.39968
6.74106 4.91324 1.38726
5.38429 6.4523 1.39881
-7.20568 -1.36076 1.214
4.99325 7.33305 1.48101
4.7253 7.2324 1.45063
-7.21976 -0.804224 1.2162
2.86467 -5.92722 1.10992
6.69839 4.08753 1.34094
6.50639 5.22652 1.41751
3.83832 7.94382 1.4812
-6.38079 -2.30128 1.15067
-6.28713 -2.68273 1.16562
3.7712 -5.23868 1.09912
-6.97451 -1.79601 1.25837
4.23445 -4.64126 1.10424
6.6649 3.50964 1.36054
5.06031 5.59733 1.37935
3.63128 -5.35924 1.17904
3.36194 6.74181 1.40502
6.49597 3.04827 1.36343
6.42853 2.71449 1.33247
-1.65102 -5.71353 1.14154
-2.17281 -5.7679 1.20155
6.25398 2.3777 1.33758
3.9378 -4.57901 1.20142
-2.9757 5.55421 1.3428
-3.599 5.17676 1.37341
4.20814 -2.92721 1.20513
-4.26021 3.91273 1.40878
4.58819 -2.18779 1.23389
4.48033 -1.26974 1.15812
3.70711 -2.93432 1.23187
3.67704 -2.58355 1.19253
3.42301 -2.97615 1.22443
-2.32289 -3.61913 1.20762
-2.50095 -2.92888 1.19771
1.86788 -2.48605 1.12944
1.92958 -2.64406 1.19411
-2.03595 2.79339 1.30908
-2.07337 -1.46484 1.19738
-1.82651 -1.83205 1.30304
-1.97776 -1.1726 1.20981
6.91091 -6.92183 -8.88772
9.69623 -9.06968 -9.39776
9.25656 -8.942 -7.66959
2.44461 -20.03 -10.7162
3.67665 -9.31101 -4.5139
27.0004 33.5459 -14.464
2.0815 20.6608 -6.15853
-22.0741 -30.7485 -7.0681
9.53827 -8.80008 -1.62223
8.78466 -8.65598 -1.23658
8.93611 -8.81375 -0.930413
19.2967 -13.6631 -1.2927
44.0527 -11.8325 -2.36124
-31.1653 -13.1806 0.341099
10.0995 6.95101 1.30187
-3.47333 5.28427 1.35746
7.99015 -8.24877 -10.3027
7.8512 -8.2753 -10.042
8.38564 -8.47549 -9.87412
6.84478 -11.8168 -11.2195
7.98331 -8.24362 -9.07798
8.02356 -8.72374 -9.10893
6.21888 -14.1571 -11.6338
5.87059 -14.1821 -11.239
9.09958 -8.84573 -9.30366
7.63871 -9.2192 -8.67764
7.8677 -9.12231 -8.61215
7.22435 -10.7039 -9.18901
10.2498 -9.331 -9.71657
6.43248 -11.0864 -8.7575
8.18411 -9.08751 -8.20081
7.34693 -9.33811 -7.93079
7.97006 -9.21554 -8.01049
5.03275 -15.9597 -10.7953
-0.526892 14.3227 -9.19988
7.31405 -10.8037 -8.3692
7.61913 -9.14865 -7.61781
11.0223 -9.83495 -9.37847
7.06387 -10.9394 -8.1164
8.20544 -8.61392 -7.39087
0.107789 14.3329 -8.73487
7.77283 -8.74178 -7.04793
11.5224 -9.7821 -9.12084
8.99882 -8.92711 -7.49127
6.58705 -12.8617 -8.52442
5.52065 -13.9937 -8.84062
7.06231 -11.1122 -7.55778
5.11741 -12.8471 -7.76539
3.16292 -19.3098 -10.9715
6.62432 -11.116 -7.251
7.86779 -9.06883 -6.73271
12.2296 -10.2438 -8.92114
-0.491132 14.3282 -7.86859
9.72606 -9.52768 -7.46606
13.3297 -10.6858 -9.21485
15.1688 10.3899 -9.87975
15.1291 7.43386 -9.00971
13.9413 7.68687 -8.4217
11.4523 -9.88316 -7.77269
-0.0678852 15.2278 -7.70407
2.3628 -19.4485 -9.89718
10.7083 -9.5996 -7.23495
7.36033 -9.29619 -5.94848
14.1828 -11.249 -9.1148
18.1631 -12.9872 -10.8631
18.7389 5.78612 -9.53035
2.65626 -19.4884 -9.55223
12.902 -10.6583 -8.09133
15.4879 -11.7919 -9.44291
7.32203 -10.7935 -6.28155
15.0983 7.40147 -7.82689
7.10743 -10.9332 -6.07785
6.23878 -10.6562 -5.71868
10.0261 -2.5159 -4.75286
17.4864 -12.7766 -9.95049
-11.6272 16.6877 -9.26802
3.54732 -9.04695 -4.40228
-10.0758 16.4694 -8.67409
16.0924 7.27871 -7.9046
-11.0799 16.854 -8.69662
-7.00584 6.79396 -4.20195
-6.43041 6.41367 -3.86501
1.20117 -15.4651 -6.59366
20.2082 20.9382 -12.2156
16.3218 -12.3353 -8.60224
15.2561 7.49761 -7.10515
-10.0301 -1.0945 -4.18972
20.2068 21.9972 -12.2685
14.1882 7.83966 -6.59954
16.5156 7.43912 -7.27851
15.1053 7.773 -6.81594
1.48891 -17.9091 -7.01773
18.8043 5.80213 -7.61748
19.7093 21.9963 -11.4263
0.766717 16.3268 -6.28114
-9.20583 -1.33515 -3.60391
0.707774 -23.9466 -9.11266
17.0213 -12.5897 -7.91891
14.2522 7.95871 -5.90241
0.53491 -22.4081 -7.90124
-4.0048 13.4587 -4.92571
-10.4397 16.0422 -6.6972
-0.847826 -22.5402 -7.93116
-14.7498 18.2007 -8.10013
-8.761 15.8233 -6.20476
-4.95491 14.107 -5.03883
1.27673 17.7334 -5.92639
-5.26753 14.0296 -4.93842
39.2172 -20.1503 -14.5549
12.5418 -10.3741 -5.2452
8.04319 -9.21498 -3.91901
7.42254 -8.81613 -3.56746
-4.16634 14.0159 -4.39784
11.5919 -9.83136 -4.5877
15.2295 9.58571 -5.1549
13.7351 -10.7251 -5.00004
-5.41001 14.4184 -4.3325
-13.202 17.7171 -6.23363
15.8057 10.6838 -5.25615
-9.45159 15.881 -4.90996
-26.5528 20.5652 -8.76931
-23.4257 19.678 -7.91311
-7.00894 14.8757 -4.20291
-7.7897 15.1121 -4.1443
-25.5464 20.1603 -7.92939
-3.24052 13.2469 -3.26406
-11.5224 16.717 -4.85103
