ply
format ascii 1.0 
element vertex 1862
comment /media/mkaihara/Seagate Backup Plus Drive/model_iterations/model_15.ply
property float32 x 
property float32 y 
property float32 z 
end_header 
-30.8961 -21.927 -5.58693
-27.1377 -23.0744 -5.24372
-31.5036 -21.3047 -5.53013
-17.8134 -43.6128 -6.86904
-31.6879 -21.6249 -5.42624
45.6578 -11.8913 -6.72628
-30.082 -22.669 -5.31156
-29.6099 -22.7021 -5.30135
-28.312 -23.5647 -5.16214
-27.2339 -24.2963 -5.13056
-28.5887 -23.3691 -5.14249
42.2043 -13.8616 -6.19752
-32.8397 -20.9895 -5.375
-30.4246 -22.7277 -5.20021
-29.7478 -22.6185 -5.12513
-30.7524 -21.8007 -5.11333
-30.5634 -22.2816 -5.15842
-28.5545 -23.571 -5.03295
13.7695 -10.947 -2.37964
-32.0742 -20.306 -5.08026
-31.0592 -21.6051 -5.08834
-30.0695 -22.6718 -5.01156
7.06625 -10.6036 -1.69155
-32.4868 -20.3867 -5.00041
-31.1808 -19.898 -4.77427
-31.3644 -21.6626 -4.9433
10.6969 -9.45086 -1.84483
-31.4034 -21.4052 -4.85917
-19.0603 -43.4876 -6.00589
-32.3974 -20.4787 -4.80987
-31.1762 -21.6703 -4.74949
-28.9059 -23.1452 -4.64988
11.1481 -9.71452 -1.85941
11.974 -10.0742 -1.94698
-30.7483 -20.8192 -4.56613
-31.2276 -21.4785 -4.66793
-30.2465 -22.8221 -4.66592
10.9372 -9.62245 -1.80259
-34.2008 21.4262 -4.84014
-19.1371 9.75274 -2.55766
-18.3491 9.13865 -2.45469
-25.9953 -14.0527 -3.44531
-25.3264 -15.5831 -3.42442
48.4011 -10.8404 -5.68725
7.42774 -10.6206 -1.46594
10.2107 -9.13619 -1.52433
44.8157 -11.7304 -5.14736
-26.0003 -15.9005 -3.31608
49.6643 -11.3465 -5.52814
-27.6505 -14.2096 -3.34885
10.6987 -9.38876 -1.5252
10.4163 -9.24518 -1.4776
13.4804 -10.9498 -1.84537
15.3507 -11.8147 -2.04265
9.6456 -4.81796 -1.12967
9.62289 -3.559 -1.08166
9.61955 -3.44889 -1.07255
-26.5323 -15.8368 -3.23039
10.4342 -9.33313 -1.4218
15.8577 -11.9419 -2.00415
-26.8164 -12.3293 -2.96027
45.7661 -11.8893 -4.62891
9.98733 -9.08062 -1.30744
14.386 -11.4162 -1.76503
15.2102 -11.7102 -1.83828
9.61329 -3.44966 -0.981485
15.8943 -12.162 -1.89365
-22.7229 19.3359 -2.74243
-19.8212 -45.0878 -4.54495
9.66275 -8.52849 -1.20502
8.62273 -8.76975 -1.0917
-23.4355 19.5786 -2.71831
11.9096 -10.1329 -1.38682
16.4189 -12.4177 -1.80921
17.4631 -12.8483 -1.88753
10.1244 -9.32629 -1.18381
-28.5588 -55.1234 -5.33729
13.9074 -11.1904 -1.52101
-32.7329 -20.4997 -3.26964
11.9015 -10.206 -1.31914
49.538 -10.7722 -4.20656
42.2328 -13.8285 -3.56219
-28.4654 -13.645 -2.5242
19.0081 -13.6518 -1.78014
-25.6531 -13.1925 -2.09796
17.7058 -12.985 -1.54498
-14.5763 -38.9815 -2.83843
-13.1166 -33.8945 -2.44043
44.6046 -11.6711 -3.12682
46.3997 -10.528 -3.13179
12.141 -10.3209 -1.03181
13.6635 -11.0938 -1.13256
14.045 -11.134 -1.13199
-14.6272 -36.4599 -2.42703
-31.6091 21.7562 -2.26102
17.4695 -12.925 -1.27636
16.3644 -12.3591 -1.18191
18.1506 -13.2715 -1.29527
-34.1279 21.4195 -2.19675
-9.21063 -12.074 -0.80887
-13.8119 -35.0568 -2.03786
-12.2451 -34.7023 -1.97294
-26.8503 -15.7276 -1.62586
-14.9647 -36.6817 -2.07858
-12.7845 -35.407 -1.97339
-26.4601 -12.9193 -1.52336
-27.3603 -13.9006 -1.59881
40.774 -8.70355 -2.15006
-32.911 -62.7403 -3.48426
18.8127 -13.5451 -1.12596
-26.2446 -13.1701 -1.39779
-14.3238 -35.5177 -1.76507
-25.016 -15.5315 -1.26784
43.3867 -11.562 -1.98687
-34.2304 21.5018 -1.45773
-41.8998 -75.7479 -3.03431
47.7694 -10.3101 -1.67347
-29.1446 -13.3782 -0.979963
-22.6829 -48.71 -1.65155
-11.2081 -32.5567 -1.0602
-34.1221 -19.6603 -1.20587
-29.9766 -22.6003 -1.12349
-24.4843 19.9817 -0.855001
38.5203 -9.15262 -1.07412
-32.886 -20.4331 -0.945542
-32.5659 -20.5971 -0.934746
-27.9379 -55.5492 -1.4203
-16.382 -37.4288 -0.862028
-32.8226 -20.5884 -0.731403
17.6987 -12.9555 -0.422118
-25.8757 -52.2674 -1.07622
-32.3718 -20.4706 -0.522862
17.835 -13.0589 -0.254707
-46.9691 17.0818 -0.529551
13.7692 15.6648 -0.220424
-31.5838 -21.0656 -0.366458
11.5137 -9.94684 -0.137214
-33.6362 -19.536 -0.322389
-27.423 -8.25209 -0.118463
-27.9946 -8.97967 -0.0795812
11.9064 -10.2983 -0.00371462
-12.2228 -18.8153 0.034455
45.6178 -10.1192 0.141306
9.37202 -9.16264 0.10665
15.7262 -12.0141 0.158221
11.7235 -10.1328 0.143807
13.8051 -11.0956 0.185399
19.0599 -13.6765 0.22726
-26.3188 -12.7512 0.323735
-31.1456 -20.6936 0.432012
-32.6156 -17.5109 0.422908
-33.2812 -20.4956 0.488825
-12.8361 -19.4864 0.270321
-12.0837 -18.9622 0.300098
-12.5622 -18.818 0.32608
15.6573 -12.0088 0.290493
-28.6122 -12.3804 0.550697
-34.1078 -18.3707 0.751096
-13.2192 -20.7424 0.49187
-28.751 -12.6115 0.664956
-33.5142 -18.6597 0.78391
19.1056 -13.7141 0.4909
-7.8606 -9.30456 0.252301
10.8412 -9.53355 0.307746
10.7451 -9.54018 0.356195
-8.00207 -9.49383 0.351248
10.8711 -9.57459 0.429399
14.053 -11.2247 0.555882
10.714 -9.76736 0.47597
13.7441 -11.0771 0.581862
-8.04822 -9.5759 0.450864
-8.92318 -12.5947 0.575314
10.8616 -9.78535 0.544404
13.734 -11.0053 0.693344
-28.5708 -15.9399 1.32497
-30.2097 -17.471 1.42162
9.84336 -9.40244 0.574389
-27.4488 -16.3889 1.40245
26.8492 53.2305 2.64005
9.90751 -9.22593 0.599945
10.8229 -9.68986 0.688488
12.742 -10.6402 0.775431
-5.98518 6.44298 0.433139
-6.72866 -7.9895 0.523817
-6.95809 -9.02856 0.562098
-26.9541 -10.6327 1.51993
-6.68156 -8.27709 0.549932
12.3695 12.2087 0.921975
17.9832 26.8527 1.71399
17.3202 26.2275 1.64962
9.14727 -8.88852 0.683995
8.9211 -8.82691 0.689933
16.1822 27.7633 1.78403
-27.3178 -8.19261 1.59146
-7.37011 -7.85424 0.606104
10.7321 -9.68483 0.830033
-6.61872 -8.03216 0.624193
-6.57466 -8.25964 0.635484
-7.40544 -7.79222 0.667481
-6.75184 -8.05367 0.658572
9.84872 -9.15777 0.841308
10.8136 -9.67418 0.909507
10.9219 12.7686 1.09195
-7.15156 -9.26508 0.77284
13.3706 20.2997 1.6393
14.0484 22.4251 1.77957
10.1894 25.3435 1.90059
-6.94332 -8.12184 0.742169
-6.96027 -7.46706 0.726073
9.80863 -9.12568 0.949924
11.8068 12.4126 1.26767
12.4865 17.7504 1.63148
13.0613 11.9489 1.35952
13.3459 11.8871 1.39119
12.7293 12.003 1.36111
12.5026 12.1406 1.37877
-7.03854 -9.14608 0.915729
12.0606 12.4119 1.39242
-7.24069 -6.03306 0.745322
-6.90883 -7.9266 0.847123
-6.61267 -8.12387 0.844447
-7.14813 -6.14184 0.75116
9.49242 -7.77865 1.01606
-7.20389 -7.93173 0.89292
-7.19457 -9.6309 1.00567
-7.13498 -7.70978 0.884117
9.4114 -7.13018 0.99878
12.1045 12.3862 1.47151
-6.277 -4.27879 0.650366
-6.92073 -8.17495 0.923814
-6.68193 -8.22375 0.942135
9.20164 -7.01794 1.03131
8.406 -7.29923 0.999976
6.04167 -6.01582 0.786252
11.2168 11.5063 1.53847
-6.91621 -5.63865 0.852183
11.1088 9.59871 1.42602
-7.0469 -5.62287 0.879501
7.90253 -6.7105 1.01916
11.4302 10.1526 1.51053
11.256 9.36954 1.47019
9.96193 11.9853 1.56006
-6.39286 -6.38823 0.906382
-6.77584 -4.45199 0.821
-6.83921 -7.17183 1.00468
11.1099 9.36814 1.50262
10.4511 9.75692 1.46498
9.61377 10.459 1.48365
-6.76157 -4.39381 0.849551
-7.02311 -5.5818 0.959547
-6.99448 -5.62061 0.958354
-6.81874 -4.56283 0.895623
-6.94952 -5.41628 0.957985
8.99499 10.6357 1.54702
-6.80855 -3.38618 0.851909
-6.87194 -4.28735 0.90322
-6.75585 -3.44551 0.851528
-6.79732 -3.52821 0.858376
-6.79763 -4.17435 0.897229
-6.81649 -4.34161 0.912106
-6.81565 -4.42561 0.914693
9.00657 9.07653 1.44748
-6.85836 -3.80137 0.899163
-6.82181 -4.01493 0.896826
-6.8205 -4.09701 0.904343
5.95212 -5.87746 0.965636
-6.83925 -3.37194 0.888191
-6.84171 -4.31034 0.938209
-6.81135 -4.38066 0.939776
-6.81801 -2.79475 0.863556
-6.79463 -3.56951 0.898271
-6.87292 -4.07738 0.940161
-6.81999 -4.14513 0.934933
8.74959 8.27574 1.42836
-6.83245 -2.94537 0.897128
-6.8038 -3.91623 0.942557
-6.79001 -3.60791 0.93326
-6.82861 -4.06971 0.973301
-6.81299 -4.24986 0.984243
-6.37192 -5.27821 1.01164
6.11413 -6.06205 1.05092
-6.81693 -3.70223 0.961465
-6.81391 -3.86399 0.972725
-6.90906 -4.67082 1.04036
-6.83808 -4.32618 1.02104
-6.78012 -3.43368 0.962497
-6.99372 -2.14392 0.934196
-6.79963 -3.04394 0.955265
-6.8174 -3.12025 0.964249
-6.05309 -5.40436 1.05756
-6.83756 -3.18945 0.986187
-6.29583 -4.30501 1.00466
-6.70858 -3.73464 1.01724
-6.78988 -4.12707 1.05413
-6.96572 -2.10929 0.971597
-6.91643 -2.30749 0.980425
-6.8202 -3.225 1.0074
-6.81747 -3.4934 1.02518
-6.82609 -3.34997 1.03829
-6.94747 -2.13515 1.00938
-6.84346 -3.13935 1.04205
-6.81351 -3.22183 1.0416
-6.75959 -3.60221 1.05694
-6.81906 -2.90894 1.03578
-6.78226 -3.3669 1.05647
-6.79446 -3.70484 1.08838
-6.84641 -3.19488 1.06804
-5.92571 -4.43248 1.05285
-6.79964 -3.53788 1.10056
7.86143 6.48415 1.47246
5.36322 8.60041 1.4663
-6.80394 -3.44764 1.10401
7.4004 -3.57085 1.19173
-6.79768 -3.23759 1.0982
-6.79346 -3.34753 1.10412
-6.77892 -3.16012 1.09995
-7.07891 -1.73219 1.07342
-6.83072 -2.90542 1.10196
-6.83554 -2.99147 1.10631
7.2694 5.72297 1.43203
-6.30664 -2.25977 1.03866
7.1926 5.26851 1.42241
-6.92867 -2.38138 1.17805
-6.38823 -2.78783 1.13641
3.91519 8.20567 1.49964
-6.24181 -2.23698 1.10009
-6.40687 -2.26418 1.1569
-6.08341 -2.2559 1.12949
2.65056 7.66511 1.54002
7.96162 -8.65925 -10.3349
8.08856 -8.94334 -10.5491
7.81706 -8.8876 -10.2946
8.33123 -8.46192 -10.1678
7.04674 -11.628 -11.1359
8.28266 -8.40864 -9.68026
7.05428 -12.055 -11.3353
8.15993 -8.54958 -9.38877
8.10932 -9.32096 -9.61464
8.38371 -8.8478 -9.47355
7.99213 -9.13425 -9.25278
8.44967 -8.86238 -9.28731
6.40197 -14.1318 -11.5757
7.62544 -9.58728 -9.15091
8.06181 -9.23238 -9.0704
6.30151 -14.5077 -11.6456
6.35765 -13.0442 -10.6591
9.41824 -9.01049 -9.54027
9.39914 -9.16569 -9.55065
6.05257 -12.9044 -10.3379
5.98757 -13.2776 -10.4248
9.55165 -9.16871 -9.46924
9.40172 -9.20813 -9.34362
7.04675 -11.4006 -9.50267
5.69267 -13.123 -10.1183
8.46315 -9.86708 -9.14273
6.62359 -11.1824 -8.93478
8.63427 -9.02498 -8.52638
12.0582 -10.2292 -10.6103
8.40461 -8.79271 -8.04652
7.57985 -9.45138 -7.98614
8.4225 -8.96668 -8.11134
9.35019 -8.96324 -8.52429
7.75763 -9.5075 -8.01099
12.4317 -10.3803 -10.5358
4.71512 -15.9242 -10.735
9.36617 -8.99656 -8.34806
5.08859 -15.5632 -10.5512
7.91504 -9.48693 -7.9044
8.41759 -8.64049 -7.70976
0.334861 15.6008 -9.95363
4.79756 -15.2867 -10.197
11.1579 -9.81013 -9.44405
8.07674 -9.25761 -7.78281
8.32873 -8.66592 -7.58171
4.786 -15.9496 -10.4575
-0.403508 13.4958 -8.44292
9.01724 -8.97907 -7.85527
4.24683 -18.7096 -11.8468
8.0788 -9.23545 -7.57203
8.43889 -8.74524 -7.50102
4.31037 -15.5445 -9.87676
8.38982 -8.81708 -7.43839
4.28785 -18.2655 -11.4402
0.139373 14.9887 -9.13162
3.79946 -17.9881 -11.124
4.22476 -15.9045 -9.94728
7.19798 -11.0441 -7.9074
8.22661 -9.4058 -7.50224
4.23577 -16.6817 -10.2549
8.46905 -8.85004 -7.29431
9.62648 -9.20528 -7.93412
10.9584 -9.44653 -8.64668
7.174 -11.3054 -7.9585
7.9018 -9.46744 -7.31558
9.26714 -9.0124 -7.65661
7.97387 -8.44546 -6.78227
8.1732 -9.3616 -7.26876
8.76971 -8.96513 -7.317
9.93491 -9.37595 -7.95866
6.93459 -13.6378 -8.82673
9.46154 -9.18422 -7.61179
5.93887 -13.6843 -8.60348
7.03696 -11.0994 -7.57027
2.85605 -13.0583 -7.70076
9.78863 -9.3242 -7.69464
12.2921 -10.5405 -9.13763
11.0595 -9.71756 -8.27863
7.0316 -11.336 -7.48375
9.35641 -9.29757 -7.39332
9.47468 -9.2342 -7.39425
12.9769 -10.8298 -9.43678
4.73612 -14.5954 -8.57322
10.4603 -9.62369 -7.9419
8.71611 -8.89606 -6.92931
2.74557 -17.2422 -9.63175
8.2857 -9.55012 -7.02317
15.173 7.76155 -9.32473
2.69177 -19.6318 -10.7798
2.45599 -8.88327 -4.99632
2.9746 -19.7838 -10.8102
15.1424 7.8883 -9.17573
2.35216 -19.9678 -10.6789
11.2547 -9.8685 -7.95925
10.0217 -9.25343 -7.22058
15.3392 7.69867 -9.08955
2.39059 -8.90037 -4.86849
1.6418 -19.4625 -10.0914
2.36846 -20.5536 -10.6141
14.4191 -11.5196 -9.45297
-9.13846 -2.5612 -4.83147
11.6555 -10.0915 -7.82672
2.16069 -20.0221 -10.1507
10.4022 -9.49541 -7.11275
0.836657 17.5157 -8.72432
11.307 -9.91839 -7.49471
-8.72663 -1.91962 -4.3831
2.19349 -19.9146 -9.83938
3.92834 -9.3613 -4.983
11.5701 -9.9262 -7.45999
1.98591 -19.6502 -9.65519
-8.03111 15.3952 -8.41168
2.52636 -11.2706 -5.52503
1.98431 -20.8345 -9.96739
0.626564 17.321 -8.21561
15.3179 7.83118 -8.12884
18.0911 16.9496 -11.7366
18.5013 17.7328 -11.9188
14.8429 -11.7354 -8.77023
9.96724 -2.6533 -4.78199
18.0362 16.9807 -11.458
9.91219 -2.50894 -4.73121
-9.76483 16.0213 -8.54426
-9.40581 -2.03799 -4.3649
10.0183 -2.65088 -4.70474
10.3588 -2.43943 -4.82146
9.9246 -3.02761 -4.69704
-5.30563 4.37264 -3.09759
2.29689 -18.9311 -8.57922
8.26997 -8.50994 -5.34789
18.6815 18.2083 -11.7253
18.5344 18.3767 -11.7451
19.8395 6.03567 -9.30833
7.32752 -11.1784 -5.95067
21.0395 5.52443 -9.67062
9.72232 -3.47923 -4.59158
-9.4854 15.578 -8.09224
-5.25064 4.81033 -3.15226
19.9474 5.76303 -9.18353
-10.737 16.3595 -8.60294
18.8299 18.6834 -11.6428
-6.27196 14.3596 -6.87168
9.75274 -3.66121 -4.54013
20.7615 5.62674 -9.33155
19.0133 19.2967 -11.6918
18.7996 19.4581 -11.6739
15.2852 7.8235 -7.32518
3.94532 -9.54764 -4.37559
-10.7032 16.2715 -8.22207
-13.1289 3.21552 -5.69649
1.26731 -21.2473 -8.9199
3.30855 -10.3522 -4.54416
14.5725 7.85083 -6.92715
19.6648 20.5353 -11.9068
3.94907 -9.36527 -4.2296
15.2282 7.94118 -7.13047
19.3229 20.6055 -11.7432
14.4031 7.957 -6.77331
4.06319 -8.59625 -3.8958
6.96288 -11.1497 -5.38034
-13.0738 2.45906 -5.44375
15.3934 7.71607 -7.02461
-7.65074 14.7894 -6.76224
1.1932 -10.5671 -4.3198
0.75743 -21.2973 -8.63314
-12.6547 2.29204 -5.17344
-9.16597 -1.41519 -3.7031
-4.97292 5.51665 -2.9423
2.86242 -11.84 -4.80334
14.7109 -11.6052 -7.3217
4.22013 -9.72321 -4.15035
1.52812 19.428 -7.57971
4.04862 -13.4858 -5.43916
19.6213 5.99879 -7.91247
0.852515 -24.7968 -9.48142
4.84886 -8.85133 -3.82817
12.0821 -10.459 -6.0694
20.0016 5.7599 -7.89466
21.4649 25.4557 -12.4497
20.6281 5.60278 -7.98019
21.7393 25.3475 -12.4577
3.35959 -11.1492 -4.34017
-12.3531 16.6311 -7.63675
12.2652 -10.4078 -5.91164
21.0445 5.37273 -7.96692
18.5297 18.3106 -9.50919
22.4634 26.864 -12.7361
-8.05762 -2.77837 -3.0883
19.9181 5.90961 -7.48482
2.31176 -13.3564 -4.87531
0.802998 15.9061 -5.71319
-4.10477 13.3523 -4.97457
-8.11023 -2.7616 -3.05735
6.93405 -10.8237 -4.56018
-15.0653 17.4039 -8.13051
16.602 -12.5357 -7.36654
-10.5095 15.8374 -6.63776
19.9699 6.08885 -7.25444
3.80755 -8.87349 -3.32737
-8.34739 15.1712 -5.88515
3.08306 -13.8742 -4.84308
19.8385 -14.1908 -8.34052
36.8182 -22.8092 -14.7137
-14.0812 17.2459 -7.5084
20.755 5.63963 -7.2151
40.0178 -22.5962 -15.3409
44.1547 -21.7294 -16.3953
16.953 7.60489 -6.19488
3.54875 -10.5461 -3.70638
1.35645 -10.9291 -3.64018
-5.957 14.1968 -5.0148
-11.9918 16.443 -6.61753
16.4145 -12.6142 -6.73158
6.20803 -10.1102 -3.81034
3.42373 -10.3735 -3.49994
-1.04332 -22.1169 -7.08042
2.35287 -11.1287 -3.6222
3.32539 -10.3364 -3.43737
2.88597 -9.21669 -3.04332
14.1169 -11.1622 -5.65373
-16.8387 18.1993 -7.75742
-8.57388 -2.6115 -2.80755
30.5042 -16.7326 -10.9108
1.33112 -20.6534 -6.3948
-2.26605 -24.4883 -7.58394
21.1328 27.3697 -10.436
3.31875 -10.1458 -3.21499
3.51413 -9.13264 -2.94329
-13.5206 16.907 -6.47046
0.802111 -23.3306 -6.99231
-20.0048 18.6541 -8.09578
-7.51782 14.6113 -4.8285
4.94118 -12.4005 -3.90626
4.26584 -9.16553 -2.96916
2.10054 20.9433 -6.18745
-4.12632 13.8502 -4.22763
4.16452 -9.18907 -2.94702
-14.3705 17.2864 -6.47691
-28.4027 -40.5915 -14.1799
7.38889 -11.5025 -3.89668
2.59454 -9.64171 -2.82879
-8.28509 -2.17023 -2.41486
4.60387 -11.4191 -3.4671
-2.22395 -22.5197 -6.35117
-8.75098 15.0847 -4.79719
4.51526 -11.6408 -3.43853
8.80201 -8.58503 -3.37671
-12.3151 16.4054 -5.60954
49.5501 -16.4279 -14.227
-8.59363 -2.40374 -2.41658
-24.2748 -33.666 -11.2805
-22.7875 19.1245 -8.04195
3.35323 -10.2953 -2.92269
3.51453 -10.3141 -2.93951
-3.75812 -27.0799 -7.35182
-24.9631 19.1443 -8.38104
46.1069 -15.2116 -12.8289
49.916 -14.4495 -13.7465
-7.44962 -33.5687 -9.07121
-7.14288 -33.7181 -9.0982
-13.5601 16.9908 -5.63621
10.1265 -9.20898 -3.57559
11.6759 -10.3669 -4.05401
-10.0154 15.6236 -4.79573
-12.9234 1.99668 -3.41939
-3.78781 -24.8714 -6.54717
3.36573 -10.1641 -2.7647
3.63932 -10.638 -2.90618
-24.4226 19.3604 -7.98916
4.43208 -11.4444 -3.10146
4.55314 -10.0056 -2.76964
9.7443 -9.42289 -3.41521
7.16027 -11.7616 -3.45259
-25.3094 19.5277 -7.98259
47.5563 -13.8429 -12.3568
-10.8343 15.9596 -4.78224
-23.0899 -33.6606 -10.0762
12.1925 -10.4987 -3.97488
3.48805 -10.5989 -2.74208
-22.8526 19.1957 -7.29666
10.2529 -9.25895 -3.32202
-7.38778 14.4067 -3.88129
4.25944 -12.5748 -3.19391
15.5172 7.79429 -4.1593
3.52619 -11.5762 -2.89711
3.27109 -10.1905 -2.54775
5.05221 -13.1625 -3.38911
-5.80955 -33.2803 -8.05198
-9.56279 -36.7591 -9.01704
4.08773 -9.35989 -2.41324
-26.794 20.0232 -7.89795
15.3242 7.84362 -4.03565
-8.85881 15.299 -4.14677
4.11827 -11.8655 -2.95183
-12.0526 16.4299 -4.75739
-24.5697 19.4954 -7.2798
3.5835 -10.603 -2.56384
11.3793 -9.769 -3.4592
16.2832 -12.275 -4.66897
-34.1101 24.1337 -9.55034
-10.669 -37.1579 -8.82259
11.2412 -9.8285 -3.41422
-10.025 -36.0452 -8.49936
-5.40698 -27.4469 -6.37581
43.8276 -13.5497 -10.3936
-25.1521 19.4301 -7.16742
15.2632 -11.8443 -4.34212
-28.4507 20.6658 -7.88676
4.52097 -5.89799 -1.66737
5.45484 -9.45395 -2.43989
-22.2998 -57.5397 -13.6584
-9.06334 15.1692 -3.88749
-11.2065 -38.5097 -8.8341
4.25533 -10.126 -2.4142
13.9434 -11.2477 -3.94775
4.15329 -9.50718 -2.27862
44.2358 -13.0819 -10.1009
-21.9021 19.0909 -6.33233
-17.5531 -27.2343 -7.02763
3.51153 -10.4387 -2.3604
4.56163 -10.2645 -2.4274
15.4015 7.74229 -3.70684
-26.8028 20.055 -7.19231
-19.2826 -30.5737 -7.7703
-7.3161 -31.0121 -6.82375
-22.7469 19.1845 -6.33701
-28.673 20.8256 -7.53812
3.3869 -10.3465 -2.31973
5.01777 -9.12333 -2.20588
15.2053 7.94025 -3.63423
4.41853 -10.9519 -2.50948
44.968 -11.7191 -9.84664
-9.89369 15.4957 -3.87439
4.48145 -9.44726 -2.19072
3.22932 -9.33809 -2.04555
5.31881 -9.32957 -2.24774
15.2002 7.64919 -3.54888
-34.783 22.9039 -8.66506
-25.3074 -23.4661 -7.13569
3.10936 -9.71767 -2.11873
-26.3628 -27.8005 -7.89625
-18.144 -28.3329 -6.9316
-26.3961 -67.5285 -14.9742
3.9907 -9.65629 -2.15321
3.85737 -9.01291 -2.00976
-14.634 17.3037 -4.63486
-19.9319 -52.8416 -11.6037
4.11647 -9.06089 -2.03275
-32.5289 21.7843 -7.95621
-13.6213 2.9799 -2.84857
-31.0937 -21.9752 -7.76556
-21.2841 -58.8019 -12.7429
-9.93702 -32.0143 -6.82447
47.4248 -10.3577 -9.85988
15.3741 7.85472 -3.463
-16.622 -22.0204 -5.54656
12.7608 -10.4281 -3.31245
-15.6504 -44.7815 -9.47754
4.36397 -11.2215 -2.39792
-11.2839 16.1787 -3.91447
-24.3192 19.1352 -6.13072
-32.9613 -19.5126 -7.61564
-29.8121 -23.2826 -7.49787
-11.6178 -36.0889 -7.517
-7.94113 -30.7949 -6.34144
15.1021 -11.9064 -3.80833
4.18601 -10.2007 -2.17066
3.35763 -10.255 -2.11225
-32.6457 21.5706 -7.60056
-19.3066 -46.4937 -9.73887
-13.5381 -39.0985 -7.8992
3.62126 -9.24214 -1.89828
-18.3744 -29.7605 -6.644
-29.6403 -23.1323 -7.09052
-26.915 -23.9 -6.77701
-18.3486 -45.3484 -9.26296
4.04562 -9.46383 -1.95724
-32.6886 22.0281 -7.33604
-14.2142 -38.7748 -7.73654
-21.5194 -48.9033 -9.83452
3.57485 -9.57248 -1.88394
-30.1096 -22.4735 -6.84056
-28.8768 -24.7597 -6.93373
-30.3017 21.3332 -6.67713
-17.1035 -42.322 -8.15166
-28.959 -23.3281 -6.54136
-19.6836 -50.9729 -9.63411
-31.4633 20.9382 -6.61471
-13.9876 -39.4498 -7.34659
3.5458 -9.96154 -1.84536
14.5009 8.04835 -2.87962
-32.0425 21.9572 -6.73419
-26.7958 -23.4856 -6.19808
3.62478 -9.92317 -1.82922
4.95286 -8.93545 -1.76862
-24.9105 19.5571 -5.47031
-28.3355 20.6088 -6.04046
-28.5605 -26.3067 -6.70116
4.05845 -10.4397 -1.92974
14.338 7.72981 -2.80231
-19.7801 -45.4535 -8.43668
-19.2512 18.3166 -4.48123
-29.1935 -23.2038 -6.32435
-16.7195 -41.4573 -7.58622
5.86505 -12.2855 -2.29563
45.6961 -12.9063 -8.04898
-15.4447 -41.2291 -7.41879
44.6228 -11.6104 -7.7555
5.21851 -11.1956 -2.05351
6.97749 -11.5934 -2.28332
-9.67449 15.38 -2.9447
-28.2168 -21.8425 -5.81553
46.1301 -12.3887 -7.77224
-20.597 18.7101 -4.51106
7.8318 -9.43777 -1.94143
-34.2427 -23.7068 -6.56394
-17.1896 -42.531 -7.29128
-21.3239 18.7489 -4.47634
-22.4164 19.1095 -4.58069
-30.2432 21.3037 -5.72123
3.99689 -10.5838 -1.73573
-29.7404 -22.9954 -5.74668
-11.808 -35.6297 -5.7716
-28.6271 20.8334 -5.38004
-18.9445 -45.5985 -7.52522
-7.10131 14.3774 -2.41416
-30.9433 -21.7456 -5.69833
-30.2585 -22.2454 -5.69087
-25.7469 -24.1575 -5.31394
-30.7911 -22.1612 -5.69033
-29.0652 -23.2661 -5.56584
-32.2575 -21.5454 -5.75841
-23.0438 19.3442 -4.43332
-30.6695 -22.9509 -5.64542
-29.7717 -22.5453 -5.51514
-23.6494 19.4879 -4.48108
-29.2168 -24.2407 -5.55876
-10.6626 -35.3432 -5.41709
-11.7741 16.1054 -2.87162
-7.12436 14.2511 -2.26873
-46.5016 25.7799 -7.59893
3.66346 -9.97837 -1.51013
41.425 -13.6243 -6.20151
-30.98 -22.8207 -5.44328
-28.4274 -22.593 -5.11066
-22.749 -48.0815 -7.55501
-27.8944 -23.527 -5.13894
-20.2364 -46.6562 -7.10553
-17.3561 -41.8233 -6.31463
-6.32156 14.0045 -2.08246
-13.0558 16.6804 -2.87134
-9.93211 -34.7755 -4.93013
-6.88166 13.9456 -2.08514
-19.481 -50.7169 -7.35629
-20.7959 18.9122 -3.7419
-20.5031 -46.475 -6.75377
-29.0904 -22.4562 -4.85097
49.3537 -11.3731 -6.66032
48.5804 -10.6799 -6.55251
-11.4108 -35.4656 -4.90128
6.91175 -11.3907 -1.75041
-13.9849 17.1292 -2.87597
-21.1933 18.6663 -3.65952
-30.7048 -16.4804 -4.49702
-30.254 -22.5858 -4.86053
11.02 9.03931 -1.84341
-30.8609 21.2197 -4.80706
-27.328 20.7956 -4.32738
-28.743 -22.5035 -4.60528
-11.1619 -31.7614 -4.26047
-27.0885 -55.2274 -7.70646
9.95068 -9.31298 -1.69998
13.2416 -10.8219 -2.15203
-30.9265 21.6955 -4.72229
-33.4541 -20.8418 -4.90868
-28.3731 -23.4516 -4.574
7.02878 -10.6895 -1.59514
-30.5928 -21.6238 -4.64225
-11.5081 -35.907 -4.64236
13.6694 -11.3953 -2.18357
45.2113 -11.7509 -5.76775
-15.0793 17.3597 -2.80905
-13.9524 -33.8223 -4.47545
-8.14571 14.5612 -2.02981
47.3626 -10.9107 -5.88516
15.4627 8.07221 -2.09818
9.68164 -9.18645 -1.59263
-31.2997 -21.838 -4.52534
-16.6042 18.0467 -2.86808
-19.8803 8.79773 -2.5759
-29.437 -22.7895 -4.39051
-21.2128 -48.0644 -6.17599
11.6465 -10.0188 -1.79801
45.6329 -12.2164 -5.5621
15.2849 -11.8682 -2.22333
15.3812 7.9065 -1.96929
-27.5193 20.9286 -3.94291
7.55817 -11.4771 -1.55799
-9.55038 15.2479 -2.01319
9.73194 -9.59446 -1.52061
13.2217 -10.8595 -1.90708
14.4957 -11.4414 -2.05335
9.72819 -9.38163 -1.49938
7.31666 -10.8348 -1.43091
48.4878 -10.5902 -5.40239
-10.1718 15.2797 -1.97786
-30.4042 21.4398 -4.03934
12.0979 -10.1646 -1.70557
6.52302 -13.4124 -1.56663
7.87057 -12.0469 -1.49606
10.1272 -9.1582 -1.43606
-12.9582 -37.4472 -4.15767
17.275 -12.7931 -2.25358
-25.1224 -50.4731 -5.8502
15.3187 7.71393 -1.75588
-28.7963 -22.9494 -3.7821
14.3412 -11.3471 -1.87347
-29.4934 -22.8139 -3.7724
15.3112 8.00005 -1.73864
-11.833 15.8248 -1.94072
-27.5525 -16.9381 -3.24502
-16.9516 -42.9814 -4.47954
-26.5191 -53.5724 -5.72442
-21.7195 19 -2.72583
-28.6355 -23.4584 -3.51842
-28.5934 -23.751 -3.54235
-17.6824 -46.272 -4.67319
-13.1176 16.7857 -1.99322
-28.9398 -22.6411 -3.42876
-13.3896 -36.4724 -3.6215
-11.7047 -36.3824 -3.56765
10.1046 -9.36592 -1.27988
-27.1648 -52.9168 -5.48117
8.79437 -8.89429 -1.13536
17.2052 -12.8196 -1.96225
-13.9471 17.1094 -1.97958
-33.1994 -20.6492 -3.53745
-30.3567 21.4335 -3.27264
-28.7111 -23.1631 -3.25952
14.5739 -11.5916 -1.6525
-30.0251 -18.2966 -2.99947
11.3959 -10.001 -1.29068
-24.6282 19.9776 -2.66334
-9.84044 -30.6291 -2.72059
9.66685 -9.26907 -1.12416
-31.0151 21.3244 -3.12708
-42.6585 -79.2643 -7.49584
8.92336 -8.92511 -1.0364
17.4809 -12.7491 -1.76684
-14.2486 -37.026 -3.18965
-18.1384 -41.4938 -3.54546
-13.3459 -32.9481 -2.81867
-11.5364 -32.37 -2.73155
9.46203 -9.1954 -1.0364
11.6436 -10.0937 -1.20778
15.4519 -12.0862 -1.5526
-27.5214 20.9878 -2.69324
-27.6554 -12.9089 -2.37058
12.2491 -10.3774 -1.24403
-19.4749 -43.3738 -3.64214
13.2264 -10.9786 -1.30189
-32.3495 -61.3742 -5.02036
10.2383 -9.39674 -1.00697
11.2497 -10.0418 -1.0508
-30.9592 -19.2192 -2.52004
12.3477 -10.3778 -1.11657
15.2912 -12.0398 -1.35226
-13.4659 -34.027 -2.49084
-13.0453 -34.5119 -2.52974
10.2363 -9.67194 -1.00363
19.4538 -14.0592 -1.5929
-21.6278 18.9369 -1.90806
-20.4879 -47.2639 -3.40625
-14.3764 -42.3971 -2.94846
13.3261 -10.9625 -1.1533
-12.5541 -34.8301 -2.40651
15.8828 -11.9925 -1.29291
-26.3098 -53.2694 -3.73012
-12.4529 -38.6004 -2.52078
-30.1188 21.2774 -2.25718
-26.7733 -52.9459 -3.61002
-14.6657 -35.725 -2.35458
33.3948 -22.141 -2.43782
45.368 -11.8312 -2.8469
38.94 -9.38857 -2.42759
-13.017 -34.9493 -2.25336
-13.292 -18.2293 -1.32609
-24.9049 20.213 -1.8189
-27.3928 -13.4861 -1.76376
-32.6968 -63.1818 -4.04639
-13.618 -35.478 -2.11933
17.6418 -13.164 -1.23275
-25.6449 -15.4321 -1.61051
45.9921 -10.2451 -2.42407
-9.06108 -12.1071 -0.767634
-13.2464 -35.2533 -1.87518
6.06384 -13.2346 -0.722262
-13.2244 16.7651 -1.04162
-12.4984 -39.286 -2.02415
15.3362 8.04591 -0.836936
-31.9207 21.6396 -1.85314
-14.0545 -36.0267 -1.83702
-12.0048 -39.0449 -1.92678
19.6141 -13.9167 -1.15229
-14.258 -41.3519 -2.03937
39.2845 -9.64872 -1.89623
-27.2822 -13.9506 -1.37031
-20.1909 -46.2659 -2.23674
-14.3119 -35.2143 -1.691
9.94131 -9.38128 -0.609411
13.0392 -10.7025 -0.757047
47.9297 -10.9673 -2.18739
-11.8869 -36.1599 -1.61913
-30.0559 21.2476 -1.53354
-47.7093 25.9114 -2.16613
-30.9903 21.3277 -1.38113
-15.774 -41.2513 -1.6557
-32.1553 -20.2486 -1.35684
10.0296 -9.33414 -0.503804
6.8853 -11.2906 -0.458581
-11.2127 -33.4271 -1.16552
7.87468 -13.8225 -0.542721
19.4974 -13.8098 -0.806826
-22.016 -48.2199 -1.74236
-11.5653 -32.812 -1.12565
22.8004 26.2973 -1.1232
-21.4542 19.0471 -0.904464
-19.4021 -48.6102 -1.67195
-38.4675 -73.3693 -2.56496
-17.3199 -44.3526 -1.47382
22.1479 -15.1038 -0.814705
-26.1748 -13.4698 -0.891454
-10.9825 -35.1487 -1.09294
-22.355 18.9956 -0.843568
-19.7085 -45.3576 -1.40361
-14.721 -39.8423 -1.22276
23.581 -10.6121 -0.780791
-32.0773 -19.5447 -1.03739
-9.43515 -12.379 -0.444194
-19.0599 -44.9497 -1.37501
18.8884 -14.0716 -0.599433
36.3085 60.5959 -1.84169
-27.655 21.101 -0.895393
-28.7141 21.0028 -0.880915
-25.8522 -12.4217 -0.702038
9.84079 -9.26073 -0.327245
-18.8495 -30.3612 -0.831048
-37.2825 12.9328 -0.863439
22.3533 -14.9571 -0.570958
-48.1879 17.3802 -0.946201
19.3196 -13.9287 -0.446811
13.2668 -10.8993 -0.286202
-6.63351 14.3596 -0.277583
-31.149 9.85104 -0.540692
-26.8164 -12.7699 -0.469254
-34.4141 -19.5984 -0.59981
-15.5058 -38.0123 -0.63179
-7.20372 15.1508 -0.228772
-30.1748 -22.5414 -0.520199
-13.7121 -39.0215 -0.563485
-31.4675 -21.4517 -0.485454
-27.9254 -56.4251 -0.774389
18.0883 -13.4957 -0.273854
19.0865 -13.7424 -0.298271
31.002 -19.117 -0.485838
-17.6161 -45.1193 -0.583158
-27.8147 21.2068 -0.374572
-34.8613 -19.4873 -0.439134
-22.9699 -49.0155 -0.571349
-16.1033 -36.9358 -0.427792
-47.4407 25.9997 -0.451633
-28.1934 -49.7353 -0.521578
-16.6293 -43.6148 -0.438943
40.1034 -9.68885 -0.380197
-13.3167 16.903 -0.152662
-27.386 -60.9867 -0.450651
-15.4074 -37.3714 -0.271425
-23.2379 -44.7877 -0.249485
-27.8977 -8.67495 -0.168493
9.85008 -9.26879 -0.042472
13.6194 15.5872 -0.0455281
15.2335 8.01943 -0.0314537
-27.8587 -12.4279 -0.0541245
-26.6335 -19.4839 0.00834087
-11.1199 -16.1907 0.0251396
-27.5743 -8.34294 0.0756959
-12.1633 -18.308 0.0433794
-16.1488 -37.0701 0.171368
9.7108 -9.2456 0.0606819
-30.096 21.2995 0.189647
-17.9377 -45.2851 0.241689
-28.5472 -13.2492 0.190224
17.5595 -12.8123 0.121189
-12.3647 -18.9585 0.149414
15.2801 -11.9029 0.152031
-48.132 17.2454 0.451234
7.4363 -12.7776 0.123689
16.6506 -12.3385 0.175549
-33.8374 -20.476 0.417188
40.8447 -8.39527 0.432912
-32.7956 -20.5521 0.443162
-11.0494 -30.5198 0.382745
-11.4913 -30.9037 0.403478
-9.91472 -28.5518 0.371447
-8.55686 -26.4766 0.340166
31.5931 63.9723 0.921106
9.86279 -9.27693 0.174537
-12.0739 -18.7098 0.305014
-9.56029 -29.0223 0.422477
8.79575 -8.73798 0.187405
6.66531 -13.6363 0.220395
7.44049 -11.4656 0.208103
9.61258 -9.31886 0.192838
8.26266 -9.37552 0.199313
10.002 -9.26127 0.223984
40.2581 -8.62552 0.674257
-22.2386 19.0713 0.522568
-30.9221 -20.8043 0.643666
-31.9152 -23.4158 0.695998
13.3622 -10.9772 0.282837
13.6902 -11.0424 0.329067
-9.5687 -12.1324 0.292587
7.12062 -11.6702 0.265933
8.22747 -9.66957 0.249064
32.3077 66.4805 1.47364
7.26044 -11.4124 0.271301
9.42672 -8.91948 0.275112
11.8935 -10.2229 0.343089
17.8013 -7.95111 0.391714
7.49818 -11.3767 0.30772
-9.12616 -11.7815 0.377845
-12.0888 -18.558 0.53111
7.87412 -9.5867 0.281979
8.06527 -9.64533 0.291274
-23.803 20.0065 0.805199
-27.5536 -8.83585 0.726925
9.88916 -9.20142 0.346852
18.2599 -13.3395 0.569535
19.1621 -13.7981 0.586701
-21.4293 18.7622 0.739665
-25.6985 20.3105 0.852635
-27.575 -8.27607 0.754466
-31.1173 -16.5917 0.95966
-12.6071 -19.0378 0.60902
15.3203 -11.904 0.517075
23.5623 -3.42841 0.668824
-26.0713 -18.5436 0.911134
-11.5472 -18.0059 0.620838
25.9951 -4.92464 0.768872
17.7142 27.4911 0.976836
-26.3312 -19.3978 0.970011
7.52782 -11.792 0.419264
7.23468 -11.1102 0.403013
15.9162 25.9282 0.930923
-7.43876 -8.59573 0.348013
13.4791 -11.0295 0.531192
-7.12874 -9.26549 0.358577
-27.249 -7.69107 0.942934
-11.3146 -16.5396 0.672905
8.10469 -9.62691 0.415672
16.7174 11.4215 0.723042
11.1789 -9.73407 0.537773
12.2715 -10.3683 0.584671
26.996 54.3616 2.27471
-58.7286 21.4435 2.32462
-7.28311 -7.95147 0.403385
9.91688 -9.20585 0.50444
23.635 -3.3185 0.915009
32.76 67.723 2.9073
-7.24384 -9.61487 0.471532
10.7377 -9.79341 0.56937
13.1553 -10.8652 0.688618
22.2896 -2.73187 0.914292
-27.5019 -16.6848 1.31732
-11.968 -19.008 0.952192
8.9704 -8.93016 0.522369
-6.76319 -8.26961 0.45966
9.69495 -9.17124 0.557169
13.2242 15.1806 0.887116
-27.554 -8.08652 1.26273
15.5903 20.3065 1.14824
16.3473 28.1468 1.44768
25.1353 49.4281 2.44846
6.59916 -14.7034 0.71698
11.1647 -9.79501 0.670927
19.0009 -1.68637 0.871491
22.0881 42.0571 2.22471
16.3148 28.7459 1.54719
-10.9686 2.72065 0.543191
-7.05294 -9.29665 0.563444
9.41901 -9.23199 0.623844
11.7098 -8.98398 0.690374
20.7295 -2.37562 1.0039
12.0345 12.2648 0.851562
18.6975 44.9666 2.39115
7.93403 -9.39981 0.593038
7.99229 -9.74092 0.619312
10.4755 -9.54088 0.700844
15.7808 26.7602 1.55326
22.996 44.595 2.5436
21.6835 -2.70128 1.10987
-7.235 -8.31216 0.572238
9.64167 -9.18005 0.692386
18.0071 26.4062 1.67661
18.237 33.0619 1.96815
13.4519 -11.088 0.925382
10.939 12.7877 0.898361
15.0598 20.4425 1.36188
11.4059 -9.89024 0.815469
15.9 20.7163 1.4381
-24.5004 18.7815 1.68409
-6.81468 -7.99512 0.581667
10.6267 12.8476 0.932106
-7.07739 -9.13657 0.648019
10.3589 12.9044 0.958155
-25.8815 18.2219 1.79452
6.45976 -13.6419 0.86249
11.5762 12.5141 0.978181
-6.7562 -6.66788 0.550776
11.6681 12.4422 1.00277
-6.65436 -8.22278 0.633666
6.58894 -13.2443 0.862736
15.5126 20.6397 1.55057
15.1881 24.8325 1.73447
15.0436 34.7677 2.27167
-5.9908 6.38072 0.535601
-7.99599 -7.57658 0.666729
-6.96156 -7.98626 0.651188
6.04646 -13.149 0.873372
-7.34073 -6.75855 0.621038
7.2882 -11.612 0.846449
7.24372 -10.9474 0.818111
11.6855 -10.0871 0.952461
12.517 -10.4711 1.01037
16.6842 7.38904 1.16108
15.7583 20.4139 1.62969
-7.11143 -6.19766 0.612018
10.5614 -9.64603 0.922152
-7.25062 -6.15118 0.623901
11.8829 12.5389 1.17557
10.3168 23.2255 1.72927
-7.08342 -9.40271 0.787401
12.0645 13.0851 1.21944
-6.85982 -4.39608 0.560288
-6.6056 -8.02287 0.709313
-6.61001 -4.37437 0.546587
9.52474 -9.10631 0.916393
10.2427 -8.03616 0.916147
13.3193 16.7871 1.54787
-6.5543 -6.54716 0.643956
10.0625 -8.49733 0.962081
12.0777 18.0591 1.6319
12.0556 19.2202 1.69346
10.1959 19.406 1.65196
9.65734 20.8711 1.72865
8.05366 24.0042 1.90298
11.429 19.7273 1.73564
10.254 -7.77983 0.983179
-6.89383 -7.05187 0.756088
-16.7043 -6.05872 1.38979
9.69766 -7.86194 0.977661
9.94414 19.8616 1.75213
-6.29943 -4.20624 0.600365
-6.68189 -8.04211 0.829557
4.91533 -5.82874 0.605267
9.67552 21.2872 1.85378
8.33979 20.3914 1.77077
5.11291 -5.8927 0.627627
13.2169 11.9263 1.44112
12.1898 12.2445 1.41343
6.94024 -9.68186 0.967016
12.6583 12.1073 1.43848
7.25039 21.285 1.84038
-6.27501 -4.33179 0.621294
-6.98055 -9.23891 0.951405
11.9579 12.5278 1.43161
10.7591 9.41225 1.21602
-4.8587 -11.0859 1.02426
5.46757 -5.86926 0.712229
6.23549 -6.1541 0.763759
9.42287 -7.34072 1.02632
-6.67604 -6.57568 0.796467
10.8142 12.8158 1.46269
8.99417 -7.49441 1.01667
11.2183 12.6461 1.47828
-7.16052 -7.6062 0.916423
8.37104 -7.45229 0.994052
10.5878 12.9414 1.50208
-6.92839 -7.58522 0.911484
-6.78597 -8.15771 0.95309
10.9866 12.7712 1.52864
10.9313 14.1008 1.61539
-6.96095 -8.14585 0.976824
11.5798 11.1852 1.47969
-6.2354 -4.17819 0.690049
-6.70591 -8.39907 0.984196
-6.24749 -4.33821 0.701007
11.3758 8.77905 1.34727
10.9391 9.58971 1.35526
6.8753 16.3326 1.6665
11.426 11.3595 1.50266
10.8613 11.6847 1.50849
-11.0127 2.82207 1.07296
6.26566 -6.06998 0.830678
8.16691 -6.7704 1.01789
11.0394 9.45335 1.40982
9.89143 13.0151 1.58197
10.0788 12.9343 1.61462
7.96793 12.7431 1.49228
8.25397 13.7983 1.59987
11.5119 8.26667 1.44331
7.44315 13.245 1.53284
9.37172 11.7447 1.52803
7.32758 14.1863 1.63376
6.18443 14.6957 1.63683
9.48607 10.8146 1.48594
9.37479 12.7717 1.64538
11.6726 7.84922 1.46631
9.52781 10.304 1.46028
5.05889 -5.91967 0.834864
-6.75232 -4.59244 0.861394
5.88486 14.662 1.67713
-6.96237 -4.44493 0.880889
9.21539 11.042 1.54345
-6.64686 -6.65647 1.00672
6.0103 -5.93224 0.911145
9.94137 8.75281 1.42678
9.21116 9.62081 1.43172
9.54341 10.6387 1.54874
5.07013 14.695 1.6783
4.36348 -8.29774 1.01385
6.69624 11.2029 1.43586
-6.71593 -3.87556 0.853361
6.60774 12.3899 1.55778
-6.80837 -3.8144 0.864418
9.93209 7.3695 1.3821
6.92178 11.8133 1.52457
10.0263 7.18871 1.38504
5.66592 12.0789 1.5086
5.68668 12.6452 1.56615
4.937 12.8489 1.55786
10.0498 6.83058 1.38393
-6.79856 -4.50185 0.933863
7.54452 -6.34572 1.12264
-7.24796 -0.776575 0.835137
-6.18511 -5.31347 0.939313
5.33415 -5.65802 0.896204
9.09014 8.08131 1.41623
4.52513 -7.35659 0.999072
10.6205 5.2578 1.38685
9.17412 7.98098 1.42859
5.28582 -5.70353 0.917619
8.81074 8.11018 1.42018
9.14585 9.30441 1.52569
-6.93886 -5.56375 1.05265
10.3333 4.83854 1.35849
-6.83177 -3.80339 0.942023
9.3271 6.27003 1.36223
5.43542 11.9147 1.5878
-6.81275 -3.02976 0.90569
-6.79622 -3.21308 0.908863
4.96789 -6.05835 0.955097
6.08276 -6.24054 1.0599
9.5576 5.73277 1.37687
8.65248 7.38696 1.40589
-6.85881 -4.25372 0.994211
-6.78938 -4.47408 1.00219
8.47513 8.81033 1.51606
5.24956 11.8064 1.60477
-6.45267 -5.53412 1.05824
3.81481 -7.78964 1.07907
8.70605 7.92752 1.47264
6.17848 -5.71019 1.05371
9.35312 6.18426 1.42013
-6.04803 -5.33678 1.01807
8.72941 6.75312 1.40673
8.27516 7.68317 1.43577
-7.02161 -1.76296 0.925494
-6.93442 -2.27999 0.931875
-6.3539 -5.2432 1.05131
8.99877 5.7692 1.36955
8.35618 8.24398 1.5123
-7.18146 -1.23905 0.933912
-6.80929 -4.06603 1.02533
7.576 6.34196 1.27896
8.2552 7.19509 1.41931
8.16717 8.32748 1.5109
-6.83087 -2.79368 0.960534
-6.83133 -2.93162 0.960826
4.72685 10.4682 1.50988
9.1477 4.17944 1.32295
-7.16514 -1.58783 0.963969
6.934 -4.31787 1.08465
5.01433 -6.04707 1.0403
-7.24928 -1.10435 0.980964
-6.93523 -2.17455 0.971864
-6.97125 -2.2428 0.977987
-5.92159 -4.34442 0.98158
5.29067 -6.6937 1.13579
7.00525 -4.23331 1.10095
8.25227 7.32903 1.4946
-7.07062 -1.6988 0.977148
-7.00281 -1.93364 0.976681
8.94894 4.94056 1.38758
8.49172 5.98577 1.41186
-6.83612 -3.57462 1.05109
9.01423 4.23064 1.365
3.50705 11.024 1.58492
-7.22917 -1.18619 1.00226
-5.93617 -4.38682 1.01525
-5.916 -4.48373 1.01635
7.24516 -3.98757 1.13571
8.23662 6.61823 1.46067
5.52004 9.33013 1.50123
-6.30245 -4.26744 1.04351
5.01188 -5.61397 1.04428
7.2825 -3.88146 1.14756
7.66385 -3.73708 1.17882
3.77421 10.4718 1.55089
3.59314 10.813 1.58972
-7.28434 -1.06963 1.02727
-6.99372 -1.98111 1.01255
5.04764 -5.36746 1.02889
7.34449 -3.78795 1.16001
7.46284 -3.72195 1.18185
7.98137 -3.40288 1.23252
-7.07328 -1.85334 1.03947
-6.92539 -2.91106 1.08845
-5.93467 -4.32009 1.05583
8.01136 -2.81959 1.24171
8.37141 4.69861 1.4058
5.13937 8.80448 1.49435
8.51063 4.58304 1.4279
7.93142 -2.37088 1.21939
7.27669 5.79266 1.39227
3.09021 9.86592 1.54714
-7.01315 -1.99649 1.09246
7.58303 -3.15084 1.237
8.36673 4.62394 1.44836
5.92356 7.61824 1.46524
5.42375 7.82484 1.45079
5.26337 8.15488 1.47438
5.21847 8.27104 1.48027
7.42996 -3.21128 1.23534
7.7807 -2.79243 1.25794
-6.6836 -1.6647 1.03702
7.9332 -2.28602 1.26515
7.3643 5.52317 1.41299
-7.02269 -1.93016 1.12981
-6.83971 -2.75357 1.14577
6.93668 5.62651 1.40053
-7.27055 -1.08308 1.14759
-7.06294 -1.80335 1.14123
-6.96662 -2.04403 1.13721
-7.03999 -1.85116 1.14192
-6.81458 -2.89998 1.16245
4.93216 7.64783 1.44744
3.51083 -6.14381 1.12836
-7.19263 -1.28454 1.16994
3.58821 -5.80414 1.09782
3.62381 -5.70495 1.0865
7.19547 4.85026 1.41352
4.78152 7.56807 1.45718
-6.99094 -2.00053 1.1847
-7.01274 -1.92485 1.19292
7.08953 4.91269 1.42601
3.93628 8.17805 1.50335
6.12319 -3.35752 1.16235
6.75058 4.95919 1.3962
4.7795 7.34628 1.46219
3.89334 -5.37861 1.11465
7.227 4.50035 1.43302
7.58523 2.90047 1.37178
6.43762 5.38165 1.42179
-7.19623 -1.2414 1.24304
6.86179 4.14865 1.37658
-6.3805 -2.74171 1.18474
5.57175 -3.67054 1.14517
5.75539 -3.55836 1.1608
2.85322 8.13319 1.49148
-7.28789 -1.02757 1.27542
5.3942 -3.82607 1.15182
-6.24591 -2.23636 1.15007
-6.20644 -2.39168 1.16434
4.33444 -4.72235 1.11975
4.54811 -4.53073 1.125
4.64697 -4.50225 1.13401
-6.72793 -1.71391 1.2226
4.43301 6.6511 1.42615
-7.08002 -0.91795 1.27555
-6.08244 -2.23505 1.15393
6.7408 3.74835 1.38214
6.19864 4.43243 1.38186
3.66224 -5.4057 1.18602
5.24912 5.79738 1.43046
2.59799 7.43667 1.48121
6.57523 3.09466 1.37354
-1.67669 -5.68344 1.12276
6.49284 -1.40016 1.25943
6.35587 2.81457 1.33782
6.29588 2.41124 1.34457
-4.3943 3.88781 1.37702
4.38004 3.57941 1.35297
4.26091 3.33132 1.33897
4.69766 -1.68926 1.2528
4.85276 -1.39054 1.26214
-2.1057 4.71357 1.28593
3.75286 -2.97314 1.22993
3.69502 -2.56443 1.1999
3.42813 -2.98002 1.23259
4.04114 2.59321 1.34181
-2.57487 -3.50747 1.24151
-2.30865 -3.54392 1.20731
3.78344 2.0736 1.31166
3.75917 1.99496 1.31083
-2.81399 3.44892 1.37027
-2.28534 -2.40748 1.18121
1.9613 -2.78858 1.21555
-2.10965 2.74699 1.31283
-2.01588 2.73577 1.31925
2.25526 -1.87302 1.22722
2.38474 -1.5008 1.22426
-2.00754 1.86782 1.28791
-2.05809 -1.4383 1.22371
1.44979 -2.06976 1.24526
-1.98721 -1.08468 1.21017
-1.92059 -0.705905 1.21592
-1.92231 -0.701691 1.24142
-1.95153 -0.343559 1.22472
-1.88886 -0.563348 1.22585
-1.8885 -0.529649 1.23093
8.38204 -8.86787 -7.60725
12.4535 -10.5632 -9.03262
-8.35046 14.8962 -6.61889
21.7909 26.5452 -12.3513
-8.67496 -2.4844 -2.54299
-22.8666 -57.9997 -13.6379
-32.0536 -21.4119 -7.12139
-31.7368 -20.7549 -5.59521
-31.4569 -21.3775 -5.64818
-29.2586 -18.7646 -2.61303
9.5543 -9.10038 -0.403291
-7.04645 15.1892 -0.413484
-28.0045 -10.8367 0.692934
-6.76852 -8.08963 0.451013
18.0117 25.8644 1.70983
11.9813 16.8503 1.70884
-6.58033 -6.55408 0.868846
4.45781 12.9365 1.57747
8.97878 9.35271 1.51576
8.10653 -8.907 -10.5465
8.27302 -8.17972 -10.0734
8.98806 -8.68677 -10.676
7.07013 -12.119 -11.6867
6.98431 -11.5239 -11.0598
8.29268 -8.40335 -9.69035
7.1305 -12.2021 -11.487
7.18492 -11.1479 -10.6202
8.14303 -8.5216 -9.35951
6.84104 -11.4643 -10.4498
6.55249 -11.8794 -10.3694
7.89551 -9.00386 -9.125
6.30565 -14.5255 -11.9776
8.45414 -8.86036 -9.26549
6.4044 -12.0934 -10.33
6.24449 -12.2643 -10.2576
7.63325 -9.61929 -9.16388
8.05122 -9.21367 -9.07984
10.7107 -9.66659 -10.7254
6.20643 -14.2907 -11.5113
6.1767 -13.8158 -11.1227
6.22958 -12.7624 -10.4404
9.38588 -9.00451 -9.53699
9.47611 -9.25649 -9.65701
5.95977 -12.691 -10.1802
9.55348 -9.17149 -9.44694
6.99576 -11.3343 -9.44732
5.70405 -13.1553 -10.1437
9.90667 -9.27953 -9.61502
7.75238 -9.51526 -8.62487
10.2219 -9.39033 -9.74677
11.1671 -9.70737 -10.3779
11.7256 -9.93723 -10.3173
8.54828 -8.77263 -8.10558
7.57862 -9.47917 -8.01442
8.33384 -8.89289 -8.05157
12.4737 -10.6885 -10.7445
7.78147 -9.53555 -8.04774
7.99484 -9.58698 -7.99633
8.48815 -8.70431 -7.76822
0.341944 15.7936 -10.0806
7.68171 -9.51054 -7.77552
11.1788 -9.84044 -9.46453
7.38564 -10.9317 -8.34454
8.31966 -8.66586 -7.57224
4.66708 -15.5499 -10.207
8.88139 -8.8646 -7.76031
9.06736 -8.85465 -7.8278
8.08168 -9.21139 -7.55472
4.08622 -18.1273 -11.4433
8.36307 -8.79839 -7.41732
4.10953 -17.3515 -10.8786
0.129728 14.7952 -9.00357
6.79881 -11.4977 -8.12719
7.89799 -9.44965 -7.46857
10.3824 -9.54667 -8.55367
6.96681 -11.4835 -8.05835
8.23019 -9.39442 -7.49303
11.5638 -9.94829 -9.11561
5.49748 -14.0824 -8.96111
7.89601 -9.45499 -7.30126
9.5597 -9.23228 -7.87108
7.05452 -11.3522 -7.90543
8.1508 -9.3157 -7.2592
9.98456 -9.40341 -7.98909
15.2445 7.61896 -9.90421
8.86208 -9.02702 -7.30569
7.08381 -11.1953 -7.60914
2.67953 -11.3504 -6.70374
8.02693 -9.26091 -7.01515
7.57146 -9.01167 -6.6787
9.83628 -9.35786 -7.70805
11.0609 -9.7285 -8.30574
0.11487 15.2441 -8.59964
3.27057 -20.4416 -11.6422
6.94364 -11.2039 -7.38496
10.3547 -9.51748 -7.87216
12.7081 -10.6613 -9.29738
9.45244 -9.21165 -7.37142
4.70137 -14.5292 -8.50882
8.18538 -9.4222 -6.92774
15.1686 7.7564 -9.35951
9.93116 -9.32431 -7.4776
0.818138 17.4387 -9.53614
2.7263 -19.6347 -10.8103
11.4202 -9.89406 -8.2
4.32729 -14.7107 -8.29489
15.0776 7.88644 -9.17156
15.5316 10.7262 -10.1424
14.388 7.93907 -8.78687
11.2392 -9.86922 -7.94984
13.6814 -11.1394 -9.38017
3.02783 -19.1354 -10.1857
11.6649 -10.0903 -7.84387
2.15905 -20.1464 -10.2278
10.5356 -9.59048 -7.16016
14.7279 -11.6466 -9.42269
14.2686 -11.5393 -9.18172
11.3145 -9.92247 -7.49348
7.68342 -9.55197 -6.06686
3.62022 -8.59475 -4.59315
-8.5739 -1.88251 -4.31582
2.20056 -19.8161 -9.78131
4.59979 -9.42858 -5.12792
0.389145 13.6359 -6.67998
7.78333 -9.48074 -5.98193
-8.14622 15.5285 -8.48434
-9.05776 -2.39452 -4.5144
15.5259 -11.988 -9.42148
19.9959 5.72172 -9.95104
-10.135 -2.5093 -4.93859
1.90148 -20.3029 -9.69752
17.9113 16.8374 -11.6536
1.99101 -16.7538 -7.95832
7.7818 -11.4985 -6.54657
20.69 5.58499 -10.0968
14.4787 -11.4608 -8.58276
2.97579 -17.5334 -8.26574
19.9812 5.91235 -9.63116
18.5663 -13.5284 -10.6059
10.0166 -2.53019 -4.77407
20.9591 5.31266 -9.9803
18.0518 16.9808 -11.4308
1.79406 -19.8775 -9.13619
9.90628 -9.26121 -6.20657
-9.07007 -1.64631 -4.20401
9.59921 -3.52235 -4.65708
6.89829 -11.6222 -6.14236
10.0663 -2.65899 -4.72306
19.872 6.05995 -9.35786
18.5143 18.3703 -11.7361
9.51001 -3.13283 -4.50723
16.0108 -12.319 -9.06077
7.23494 -11.8802 -6.2166
7.33465 -11.1906 -5.95958
9.70841 -3.45795 -4.59273
-9.58875 15.7023 -8.18343
18.3757 -13.4092 -10.1033
20.1716 5.81127 -9.30886
16.573 7.51805 -8.06415
18.6396 18.8334 -11.7302
12.6179 -10.6463 -7.25608
17.0508 -12.6793 -9.36027
-10.6986 16.2587 -8.5458
-6.29694 14.3705 -6.87111
-5.14843 4.82751 -3.07253
20.8067 5.64971 -9.37769
9.70747 -3.45827 -4.4475
19.0821 19.347 -11.691
16.4172 -12.6322 -8.90888
15.2699 7.6359 -7.2917
3.91821 -9.4854 -4.35685
-10.6443 16.1784 -8.19027
7.12932 -11.1911 -5.59077
-13.2528 3.24775 -5.74718
0.738366 -21.7642 -9.18066
16.3686 -12.3912 -8.58142
-5.06721 5.57778 -3.14991
0.985793 -21.612 -9.07285
1.2298 -20.4907 -8.60084
14.5482 7.80383 -6.91054
19.4721 20.299 -11.7645
3.85715 -9.12202 -4.12696
15.1811 7.94536 -7.13781
18.7845 20.0692 -11.4193
-9.36425 -1.07474 -3.89074
4.07251 -8.63284 -3.90836
14.4135 7.95992 -6.76472
7.03054 -11.2806 -5.4299
-13.3014 2.48463 -5.53412
-7.61197 14.7327 -6.73074
20.3008 22.0661 -12.16
15.4966 7.44696 -6.93248
-5.07743 13.8408 -5.90389
14.4396 -11.4148 -7.20552
4.04324 -9.32565 -3.98617
1.53944 19.5592 -7.62685
-8.34247 15.0552 -6.68074
19.6036 5.97884 -7.94536
-1.72015 12.9355 -5.05066
5.42128 -9.61151 -4.25216
-2.32895 13.1151 -5.11192
20.7356 23.9953 -12.1736
4.75475 -8.68245 -3.75664
20.0574 5.75438 -7.94445
0.845042 -25.0343 -9.52707
15.4563 -11.9097 -7.33935
20.6478 5.59424 -8.01058
9.5911 -3.49446 -3.81666
0.518342 -21.4279 -7.99553
3.34084 -11.084 -4.32041
21.4129 24.9207 -12.2152
0.90636 -8.6377 -3.22233
14.5141 -11.4931 -6.82303
21.0819 5.36224 -8.00216
6.5625 -10.426 -4.50545
18.749 18.5308 -9.64372
-12.7437 2.23257 -4.70268
22.1819 26.4982 -12.5475
2.33443 -13.4819 -4.92605
13.4628 -10.8861 -6.2268
0.786286 15.538 -5.57087
-8.08573 -2.75932 -3.05623
0.404309 -20.8001 -7.44313
-4.04864 13.2574 -4.92375
0.627633 -21.0585 -7.4918
16.4789 -12.445 -7.31525
-14.867 17.1832 -8.00044
6.07801 -11.615 -4.60572
-10.4646 15.7849 -6.60731
0.101112 -17.7281 -6.23748
14.7648 -11.6999 -6.58367
21.0353 5.54023 -7.59659
0.643364 -22.0109 -7.61025
-4.78934 13.8792 -5.02326
3.71975 -8.62834 -3.23148
4.98859 -9.23536 -3.59402
-13.7108 17.0175 -7.47303
2.31145 -11.0279 -3.85916
-8.43949 15.2997 -5.94861
3.1347 -14.1455 -4.93426
-14.1587 17.373 -7.59066
20.8485 5.66871 -7.26589
23.7005 29.3275 -12.6175
38.9475 -21.9844 -14.9387
-5.06153 13.4064 -4.75208
1.93906 21.2111 -7.07504
1.2731 -10.2395 -3.41162
20.0473 -14.5716 -8.2265
34.9343 -21.96 -13.5628
-5.01538 13.7885 -4.75858
-11.9175 16.31 -6.54603
19.4245 -13.8414 -7.74139
3.62516 -8.82258 -3.05601
6.38972 -10.3846 -3.9043
12.7328 -10.3773 -5.274
2.34215 -11.1103 -3.61181
-4.10303 -30.9297 -9.92831
-1.04777 -22.2188 -7.08878
15.5269 10.6946 -5.95608
-12.4981 16.626 -6.56775
-16.9147 18.2411 -7.81334
3.10598 -10.0071 -3.3012
13.7103 -10.8106 -5.49109
7.18722 -11.4499 -4.17563
1.34821 -21.0681 -6.53463
-2.35044 -25.1682 -7.76869
7.60294 35.2215 -11.0109
0.760942 15.1143 -4.60042
-10.5313 15.8845 -5.73763
-2.45371 -24.2 -7.33545
-13.5419 16.9278 -6.46193
-4.78829 -31.4936 -9.495
0.8004 -23.4415 -7.02026
-5.11738 14.0555 -4.44233
2.11097 21.181 -6.27873
-19.9638 18.6124 -8.04676
18.79 5.9797 -5.80794
-4.09703 13.7318 -4.20693
-7.5171 14.5745 -4.80457
4.37237 -9.38825 -3.04085
4.78871 -11.9871 -3.77029
20.5509 -14.6881 -7.44239
-12.3424 2.17432 -3.60125
-29.0908 -41.2119 -14.5235
5.29297 -14.1109 -4.33471
-14.3343 17.2407 -6.43947
7.20481 -11.4721 -3.89613
2.62062 -9.7393 -2.8632
13.3628 -10.8152 -4.88973
-8.33106 -2.4246 -2.4606
22.6052 29.1635 -10.4678
-8.45574 -2.22862 -2.47125
-2.29398 -23.5058 -6.63858
-12.7351 1.95153 -3.58731
51.4962 -16.5637 -15.0476
4.54803 -11.7326 -3.48826
-8.80306 15.1328 -4.80016
-12.3269 16.4366 -5.63734
-5.10897 13.619 -3.96902
-7.4399 -36.1894 -10.1207
10.012 -9.12496 -3.68457
-20.1084 18.7632 -7.38828
-9.19858 15.2477 -4.76623
-24.9191 19.1413 -8.35437
11.8188 11.8974 -4.43121
4.49198 -11.7164 -3.3199
51.3143 -14.9171 -14.1537
-7.10275 -33.5573 -9.02842
4.21559 -8.92135 -2.59508
11.523 -10.2485 -4.03189
-13.6041 17.0308 -5.66232
6.73437 -10.7355 -3.27723
-26.4354 -36.1202 -11.5773
3.27402 -9.92596 -2.69892
-26.6446 -39.0264 -12.2091
-3.85616 -25.3373 -6.64237
3.66446 -10.7225 -2.9181
4.1969 -9.67869 -2.70834
16.2418 -12.2125 -5.18214
-6.73912 14.349 -4.00608
-28.0936 -37.468 -11.8813
4.47523 -11.5572 -3.13268
4.37236 -7.91594 -2.29914
6.76455 -11.0314 -3.2239
48.6453 -14.7078 -12.668
-26.2717 19.8202 -8.1315
-10.8705 15.967 -4.75648
-24.7441 -36.1 -10.7667
-8.61333 -33.9292 -8.64575
-22.8445 19.1866 -7.32654
4.49668 -10.673 -2.84218
-8.07076 -34.8815 -8.78869
-11.3709 16.2838 -4.81035
-7.40879 14.4283 -3.90366
10.5732 -9.53643 -3.40748
43.3841 -14.411 -10.9369
15.5639 7.78425 -4.14692
-5.49403 -31.5157 -7.63173
4.08248 -9.34979 -2.4148
51.133 -13.6855 -12.5608
-25.6274 -38.2813 -10.9234
-10.3913 -38.2866 -9.40953
4.3574 -9.3219 -2.4514
-23.7208 -34.417 -9.80504
4.05421 -11.6209 -2.89564
5.05493 -8.9511 -2.41585
-12.0331 16.3954 -4.72806
3.36401 -9.92715 -2.40699
-6.66451 -31.4624 -7.45224
11.3469 -9.94321 -3.4464
-5.50304 -27.9434 -6.50727
-25.2788 19.5232 -7.23609
-9.99338 -35.9875 -8.45262
44.6467 -9.76435 -10.3704
-28.2399 20.5028 -7.82001
-32.8971 -21.5584 -8.81404
-4.91153 -23.4156 -5.3417
43.8578 -13.5579 -10.305
5.62734 -9.77204 -2.51511
-12.1344 2.76886 -2.73058
43.7097 -12.8095 -10.0618
45.9655 -13.1154 -10.5146
30.8037 43.3903 -11.673
-5.05336 13.2473 -3.09414
13.8843 -11.1725 -3.92057
40.794 -13.1098 -9.41797
-21.8253 19.0212 -6.27578
-23.5076 -57.9666 -13.5856
4.46823 -10.0531 -2.38257
13.1915 -10.8765 -3.74452
4.69503 -9.49336 -2.28483
-13.6905 17.0551 -4.66619
-28.5905 20.7672 -7.54146
-29.3612 20.8364 -7.6922
-22.0809 -58.5946 -13.4355
-10.0481 15.698 -3.94736
-7.36955 -31.3082 -6.8487
3.32072 -10.0733 -2.25824
4.12881 -10.2281 -2.3483
49.6375 -11.5089 -10.8758
15.3901 7.70922 -3.65309
-14.216 17.498 -4.7689
5.32673 -9.33858 -2.25637
29.7115 42.9994 -10.9393
-36.6263 24.0606 -9.18264
-25.6602 -25.112 -7.4569
15.4436 8.08283 -3.6229
-28.1201 -21.7173 -7.37183
-25.162 -64.5258 -14.3525
43.5375 -11.7168 -9.32309
-10.7568 15.8467 -3.88765
-14.6559 17.3266 -4.616
-32.2855 21.6725 -7.89765
48.0152 -10.4736 -10.021
-11.3156 -36.4195 -7.7604
4.29702 -10.1098 -2.23188
4.43757 -10.1036 -2.24611
11.9809 -9.95939 -3.16824
-11.2678 16.1678 -3.92967
-16.3824 -47.0283 -9.96321
-7.50673 -29.0614 -6.01303
-6.90389 -28.2199 -5.83112
