ply
format ascii 1.0 
element vertex 1876
comment /media/mkaihara/Seagate Backup Plus Drive/model_iterations/model_54.ply
property float32 x 
property float32 y 
property float32 z 
end_header 
-17.887 -43.3843 -0.319579
9.56205 -8.99759 -0.0408386
14.7833 7.78239 -0.0283781
-29.3793 -13.1061 -0.0583031
-11.6714 -16.9932 0.0250496
-12.866 -19.3654 0.0442067
-18.6515 -42.8143 0.192787
9.42806 -8.97626 0.0593805
-32.7395 23.1699 0.208365
-21.7262 -54.8491 0.285703
-30.1758 -14.0051 0.199667
16.8076 -12.2634 0.116395
-13.1148 -20.1084 0.156588
14.685 -11.4392 0.14655
-53.0583 19.0099 0.498725
7.07274 -12.1525 0.118055
15.9686 -11.833 0.168792
-36.4192 -22.0383 0.446467
38.1771 -7.84673 0.405965
-35.2629 -22.0984 0.473952
-12.5549 -34.6762 0.430358
-13.0316 -35.0435 0.452991
-11.1944 -32.235 0.415174
-9.62722 -29.7871 0.378823
25.7978 52.236 0.759063
9.57407 -9.00522 0.169968
-12.7949 -19.8266 0.321223
-10.8787 -33.0232 0.476228
8.55498 -8.49867 0.182853
6.27581 -12.8392 0.208128
7.13619 -10.9965 0.200127
9.33009 -9.04485 0.18772
8.01592 -9.09541 0.193921
9.70939 -8.99024 0.218009
37.655 -8.06756 0.631998
-23.9223 20.5148 0.564512
-33.1948 -22.3335 0.688342
-34.4844 -25.3009 0.748965
12.8883 -10.5878 0.273349
13.1984 -10.6455 0.317822
-9.90963 -12.5644 0.302049
6.81349 -11.1666 0.255093
7.97186 -9.36901 0.241922
26.346 54.2072 1.2082
6.96191 -10.9429 0.260768
9.16303 -8.6699 0.268041
11.5036 -9.88764 0.33246
17.2103 -7.68717 0.379526
7.19568 -10.9175 0.295963
-9.44682 -12.1955 0.390125
-12.8028 -19.6539 0.560279
7.63106 -9.29068 0.2739
7.81456 -9.34536 0.282855
-25.7006 21.601 0.872071
-28.9409 -9.2808 0.762598
9.60198 -8.93409 0.337444
17.4445 -12.7436 0.544734
18.2761 -13.1599 0.560195
-23.0266 20.1602 0.797386
-27.7984 21.9695 0.92497
-28.9539 -8.69003 0.791334
-33.1656 -17.684 1.02069
-13.3655 -20.1826 0.643316
14.7212 -11.4383 0.497507
22.6791 -3.29979 0.645059
-12.2054 -19.0318 0.654019
24.9057 -4.71815 0.737927
16.279 25.2632 0.900984
-28.051 -20.6648 1.03086
7.20812 -11.291 0.402248
6.94878 -10.6709 0.387875
14.6684 23.8952 0.861051
-7.61956 -8.80454 0.356007
12.9971 -10.635 0.512895
-7.31653 -9.50934 0.367439
-28.5827 -8.06762 0.988293
-11.8989 -17.3936 0.705649
7.85347 -9.32837 0.403535
16.0983 10.9986 0.698407
10.8321 -9.432 0.521849
11.8621 -10.0223 0.565931
22.6214 45.5523 1.91052
-7.44662 -8.12995 0.412045
9.62918 -8.9387 0.490574
22.7474 -3.19377 0.881984
26.4377 54.651 2.35119
-7.44505 -9.88187 0.483899
10.4049 -9.48973 0.552503
12.6928 -10.4831 0.665213
21.506 -2.6358 0.88349
-29.1742 -17.6993 1.3952
8.71927 -8.68008 0.508552
-6.92142 -8.46306 0.469916
9.41529 -8.90661 0.541905
12.6301 14.4986 0.849388
-28.9219 -8.48805 1.32452
14.657 19.0909 1.08193
14.9353 25.7154 1.32537
21.4444 42.1689 2.09267
6.15366 -13.7105 0.670154
10.816 -9.48896 0.65082
18.4339 -1.63598 0.846795
19.2801 36.71 1.94516
14.8747 26.2082 1.41328
-11.1938 2.77644 0.555414
-7.24186 -9.54564 0.577788
9.14609 -8.96444 0.606631
11.3681 -8.72184 0.671092
20.0505 -2.29772 0.972339
11.5949 11.8167 0.822325
15.9161 38.2768 2.03827
7.74121 -9.43485 0.600787
10.1588 -9.25234 0.680542
14.4893 24.5698 1.4286
19.9206 38.6297 2.20656
20.938 -2.60831 1.07306
-7.40438 -8.50667 0.585077
9.36297 -8.91462 0.673281
16.608 24.3545 1.54887
16.3879 29.7093 1.77122
12.9688 -10.6898 0.893101
10.5207 12.2987 0.865793
14.1493 19.2065 1.28174
11.046 -9.57806 0.790669
14.933 19.4564 1.35285
-26.3429 20.1934 1.81401
-6.96745 -8.17429 0.594187
10.2169 12.3522 0.897895
-7.26158 -9.37422 0.664112
9.95467 12.4008 0.922445
-27.8003 19.5724 1.93073
6.08589 -12.853 0.814284
11.145 12.0479 0.943492
-6.88214 -6.79214 0.560786
11.2346 11.9799 0.967236
-6.80831 -8.41295 0.647723
6.23065 -12.5245 0.817457
14.5682 19.3832 1.45824
14.0354 22.9478 1.60492
13.2856 30.7038 2.00809
-6.14431 6.54419 0.551253
-8.16897 -7.74042 0.680702
-7.11732 -8.16487 0.665205
5.70348 -12.4039 0.825637
-7.48195 -6.88853 0.632691
6.98532 -11.1296 0.812601
6.9686 -10.5317 0.788294
11.3091 -9.76213 0.922795
12.0948 -10.1178 0.977321
16.1723 7.16235 1.12713
14.8147 19.1915 1.53412
-7.238 -6.30797 0.622718
10.2391 -9.35166 0.895047
-7.37945 -6.26045 0.634802
11.4367 12.068 1.13303
9.47568 21.3317 1.58955
-7.27343 -9.65474 0.807599
11.5951 12.576 1.17361
-6.95619 -4.45785 0.568304
-6.75359 -8.2025 0.724593
-6.70044 -4.43421 0.554219
9.25273 -8.84623 0.891289
9.97852 -7.82885 0.893543
12.6561 15.9512 1.47244
-6.67078 -6.66325 0.655128
9.79139 -8.2684 0.937229
11.4093 17.0596 1.54306
11.3376 18.0753 1.59404
9.53991 18.1574 1.54688
8.95669 19.3566 1.60427
7.27674 21.6878 1.71986
10.7119 18.4893 1.62805
9.99636 -7.58436 0.95954
-7.02965 -7.19076 0.770557
-17.2105 -6.24241 1.43153
9.45593 -7.66597 0.954367
9.27811 18.5311 1.63581
-6.38149 -4.26104 0.608358
-6.83162 -8.2222 0.847461
4.83146 -5.72938 0.595956
8.95849 19.7091 1.71728
7.71136 18.8544 1.63799
5.0247 -5.79114 0.617821
12.7402 11.4962 1.39066
11.7423 11.795 1.36298
6.71752 -9.37133 0.937358
12.1982 11.6672 1.38766
6.6269 19.4539 1.68235
-6.35766 -4.38883 0.629623
-7.16419 -9.4818 0.975418
11.511 12.0596 1.37952
10.4469 9.13921 1.18206
-5.04167 -11.5026 1.06093
6.12147 -6.04162 0.750848
9.20279 -7.16929 1.00345
-6.79682 -6.69448 0.810526
10.398 12.3225 1.40766
8.78369 -7.31909 0.993987
10.7952 12.1691 1.42382
-7.31165 -7.76658 0.935154
8.17872 -7.28115 0.972342
10.1744 12.4362 1.44463
-7.07349 -7.74391 0.929957
-6.94026 -8.34305 0.973977
10.5656 12.2817 1.47128
10.4653 13.4996 1.5477
-7.11919 -8.33091 0.998247
11.1892 10.808 1.43106
-6.31576 -4.23205 0.6991
-6.86357 -8.59639 1.00647
-6.32966 -4.39526 0.710353
11.0605 8.53567 1.3112
10.617 9.30736 1.31661
6.45749 15.3397 1.56553
10.4804 11.2749 1.45678
-11.2394 2.8801 1.09636
6.15313 -5.96105 0.816848
7.99547 -6.62832 0.997649
10.7171 9.17738 1.36989
9.49858 12.4982 1.52016
9.68354 12.4271 1.55232
7.64246 12.2224 1.43209
7.8849 13.1812 1.52905
11.2028 8.04472 1.40577
7.1155 12.6618 1.46597
9.03656 11.3247 1.47435
6.9715 13.4967 1.55482
5.84345 13.885 1.54668
9.17552 10.4605 1.43829
9.00587 12.2691 1.58149
11.3671 7.64377 1.42913
9.23114 9.98313 1.41583
4.97074 -5.81662 0.821505
-6.84803 -4.65753 0.873644
5.55333 13.8355 1.58257
-7.06126 -4.50808 0.89347
8.90595 10.6712 1.49253
-6.76872 -6.77839 1.02471
5.9061 -5.82954 0.896495
9.67301 8.51652 1.38933
8.94305 9.34071 1.39104
9.23645 10.2964 1.49988
4.7606 13.7971 1.5754
4.23273 -8.04999 0.985309
6.4488 10.7888 1.38333
-6.80354 -3.92614 0.864683
6.32833 11.8657 1.49225
-6.89743 -3.86432 0.875928
9.69587 7.19423 1.3503
6.6515 11.3519 1.46551
9.79093 7.01996 1.3536
5.41831 11.5507 1.44279
5.42261 12.0576 1.49345
4.68719 12.1979 1.47874
9.82103 6.67512 1.3535
-6.89437 -4.56531 0.947066
7.40132 -6.22555 1.10253
-7.3336 -0.785777 0.8458
-6.27733 -5.39266 0.953165
5.24762 -5.56642 0.882836
8.86265 7.87908 1.38174
4.41671 -7.18098 0.976739
10.4019 5.14959 1.35941
8.94651 7.78298 1.3941
5.19904 -5.61008 0.903752
8.59046 7.90742 1.38558
8.88788 9.0419 1.48356
-7.05085 -5.65352 1.06942
10.1306 4.74364 1.33293
-6.92121 -3.85321 0.954549
9.13094 6.13817 1.33458
5.19802 11.3939 1.51836
-6.89564 -3.06665 0.917071
-6.88004 -3.25274 0.920396
4.87996 -5.95139 0.939489
5.97178 -6.1269 1.04183
9.3642 5.61678 1.35002
8.45278 7.21646 1.37434
-6.95316 -4.31224 1.00797
-6.88462 -4.53685 1.01628
8.2474 8.57356 1.47611
5.01962 11.2888 1.53429
-6.55338 -5.62045 1.07452
3.70781 -7.57252 1.05084
8.49293 7.73345 1.43744
6.07608 -5.61576 1.03745
9.15782 6.05512 1.39144
-6.13752 -5.41569 1.03294
8.54054 6.60702 1.37719
8.07899 7.50102 1.40255
-7.10311 -1.78346 0.936857
-7.01582 -2.30678 0.94333
-6.44854 -5.32126 1.06679
8.8209 5.65517 1.34343
8.1449 8.03553 1.47484
-7.26565 -1.25361 0.945584
-6.90065 -4.1206 1.03921
7.42477 6.21534 1.25426
8.06979 7.03349 1.38826
7.95904 8.11525 1.47313
-6.91263 -2.82715 0.97244
-6.91393 -2.96709 0.972823
4.54345 10.0616 1.45105
8.99007 4.10741 1.30114
-7.24956 -1.60657 0.975984
6.83708 -4.25762 1.07057
4.9278 -5.94316 1.02369
-7.33491 -1.11742 0.993308
-7.01614 -2.19995 0.983743
-7.05328 -2.26923 0.990022
-5.99703 -4.39977 0.994138
5.18698 -6.56305 1.11499
6.90781 -4.17453 1.08672
8.06402 7.16184 1.46127
-7.15304 -1.71864 0.989176
-7.08437 -1.95619 0.988645
8.78592 4.85056 1.36324
8.32374 5.86735 1.38479
-6.92353 -3.62034 1.06476
8.85953 4.15803 1.34253
3.33769 10.4901 1.50724
-7.31437 -1.2002 1.01482
-6.01226 -4.44305 1.0283
-5.99277 -4.54191 1.02955
7.14542 -3.93278 1.12115
8.06341 6.47904 1.43075
5.34787 9.03894 1.45452
-6.3845 -4.32299 1.05716
4.93278 -5.5257 1.0291
7.18304 -3.82854 1.13296
7.55699 -3.68506 1.16346
3.61193 10.0203 1.48335
3.42616 10.3092 1.51477
-7.37075 -1.08235 1.04023
-7.0752 -2.00423 1.02493
4.97216 -5.28751 1.01475
7.24473 -3.7366 1.14533
7.36104 -3.67127 1.16681
7.86997 -3.35546 1.21639
-7.15617 -1.87509 1.05226
-7.00992 -2.94662 1.10211
-6.01009 -4.375 1.06929
7.90464 -2.78211 1.22622
8.22749 4.61783 1.3825
4.98713 8.54344 1.45009
8.36476 4.50448 1.40429
7.83028 -2.34073 1.20487
7.14174 5.68523 1.36715
2.9565 9.43706 1.47884
-7.09506 -2.01985 1.1058
7.48403 -3.10979 1.2219
8.22414 4.54512 1.42452
5.78211 7.43623 1.43057
5.28752 7.62817 1.41453
5.12315 7.93746 1.4352
5.07647 8.04581 1.44006
7.33433 -3.17005 1.22051
7.67995 -2.75635 1.24269
-6.75684 -1.68296 1.04905
7.83228 -2.25701 1.25008
7.23208 5.424 1.38833
-7.10456 -1.9527 1.14358
-6.92123 -2.78642 1.15984
6.81217 5.52551 1.37603
-7.35651 -1.09592 1.16194
-7.14534 -1.82443 1.15518
-7.0476 -2.06783 1.15101
-7.12199 -1.87276 1.15584
-6.89642 -2.93484 1.17679
4.80844 7.45581 1.41117
3.44553 -6.03066 1.10917
-7.2769 -1.29963 1.1844
3.52723 -5.70635 1.08082
3.56415 -5.61183 1.07023
7.07771 4.77087 1.39108
4.66218 7.37896 1.42077
-7.07227 -2.02384 1.19907
-7.0943 -1.94727 1.20741
6.97311 4.83202 1.40326
3.8191 7.93409 1.45808
6.05475 -3.32013 1.15041
6.64093 4.87862 1.37415
4.66451 7.16936 1.42699
3.83564 -5.29953 1.09963
7.11364 4.42974 1.41124
7.48268 2.86125 1.35405
6.32772 5.28975 1.39806
-7.28046 -1.25597 1.25836
6.76121 4.08783 1.35709
-6.45182 -2.77238 1.1984
5.51062 -3.63044 1.1337
5.69217 -3.51945 1.14913
2.75667 7.85636 1.43971
-7.37411 -1.03976 1.29133
5.33466 -3.78404 1.14022
-6.31182 -2.25999 1.16276
-6.2723 -2.41709 1.1772
4.28069 -4.6642 1.10717
4.49381 -4.477 1.11282
4.59159 -4.44894 1.12174
-6.8023 -1.73289 1.23678
4.33697 6.50677 1.39517
-7.16109 -0.92849 1.29101
-6.14502 -2.25808 1.16636
6.64784 3.69663 1.36375
6.1078 4.36744 1.36217
3.60798 -5.32643 1.17006
5.15443 5.69272 1.40489
2.51824 7.20653 1.43427
6.49302 3.05594 1.35705
-1.70731 -5.78546 1.14183
6.43018 -1.38679 1.24821
6.2809 2.78135 1.32271
6.22572 2.38433 1.33027
-4.45576 3.94288 1.39907
4.33017 3.53858 1.33778
4.21539 3.29565 1.32487
4.66558 -1.67788 1.24512
4.81946 -1.38116 1.25433
-2.14636 4.80921 1.31583
3.72639 -2.9525 1.22234
3.67256 -2.54917 1.1936
3.40582 -2.96104 1.22567
4.00575 2.57041 1.33028
-2.5951 -3.53503 1.25127
-2.32658 -3.57135 1.21664
3.75546 2.05817 1.30219
3.73206 1.98048 1.3016
-2.8453 3.48906 1.38903
-2.29668 -2.41958 1.18759
1.95471 -2.7802 1.21263
-2.12535 2.76979 1.32631
-2.03025 2.75788 1.33249
2.25023 -1.86927 1.22526
2.37974 -1.49798 1.22236
-2.0169 1.87805 1.2971
-2.0645 -1.44302 1.22858
1.44912 -2.06959 1.24549
-1.99241 -1.08775 1.21461
-1.92488 -0.70764 1.22016
-1.92663 -0.703429 1.24575
-1.95577 -0.344345 1.22912
-1.89285 -0.564664 1.23007
-1.89246 -0.530873 1.23516
8.22177 -8.7013 -7.46696
12.1185 -10.2811 -8.79485
-8.78407 15.6803 -6.97397
20.5073 24.9727 -11.6086
-8.80709 -2.52221 -2.58139
-34.5375 -23.0712 -7.67268
-34.1356 -22.3238 -6.01816
-33.8652 -23.0142 -6.08058
-31.2387 -20.0345 -2.79086
9.28187 -8.84076 -0.391646
-7.6991 16.5955 -0.451343
-29.4956 -11.4138 0.728627
-6.92184 -8.27277 0.460772
16.6556 23.9166 1.58356
11.3711 15.992 1.62314
-6.69715 -6.67017 0.883891
4.21784 12.2389 1.49197
8.72334 9.08663 1.47351
7.97968 -8.77194 -10.3889
8.84053 -8.54783 -10.5073
6.96299 -11.9472 -11.5237
6.87838 -11.3596 -10.9047
8.15991 -8.27226 -9.54135
7.02793 -12.0389 -11.3355
7.07242 -10.9826 -10.4653
8.00958 -8.38544 -9.21232
6.73366 -11.2947 -10.2979
6.45098 -11.7073 -10.2219
7.7647 -8.85893 -8.98054
6.21131 -14.3291 -11.8184
8.30672 -8.70941 -9.11015
6.30556 -11.9196 -10.1842
6.15274 -12.098 -10.121
7.49859 -9.45453 -9.00989
7.91697 -9.06459 -8.93519
10.4778 -9.45918 -10.4985
6.12554 -14.1256 -11.3803
6.10628 -13.6787 -11.0136
6.1367 -12.5875 -10.2999
9.20471 -8.83365 -9.35882
9.29269 -9.08062 -9.47625
5.87019 -12.5161 -10.0426
9.36859 -8.99719 -9.27
6.86813 -11.1363 -9.28564
5.62068 -12.9813 -10.012
9.70013 -9.08876 -9.42047
7.61624 -9.35296 -8.48039
10.0057 -9.19444 -9.54649
10.9271 -9.50192 -10.1609
11.4511 -9.70734 -10.0817
8.39287 -8.61636 -7.96352
7.43822 -9.30798 -7.87257
8.17577 -8.72727 -7.90439
7.63561 -9.36118 -7.90343
7.84472 -9.41136 -7.85253
8.32888 -8.54387 -7.62753
0.35867 15.8792 -10.134
7.53518 -9.33336 -7.63359
10.9203 -9.61554 -9.25123
7.23342 -10.713 -8.18115
8.16342 -8.50594 -7.43504
4.61665 -15.4171 -10.1213
8.72201 -8.70905 -7.62596
7.92931 -9.04144 -7.41789
4.05157 -18.0307 -11.3835
8.20594 -8.63614 -7.28294
4.0883 -17.3148 -10.8557
0.144561 14.8837 -9.05634
6.66137 -11.274 -7.97257
7.75016 -9.27704 -7.33466
10.1347 -9.32083 -8.35488
6.8276 -11.2627 -7.90668
8.06865 -9.2137 -7.35159
11.2783 -9.70484 -8.8958
5.40611 -13.8701 -8.82884
7.74272 -9.27541 -7.16529
9.35989 -9.04207 -7.7115
6.90942 -11.1267 -7.75177
7.99136 -9.13707 -7.12263
9.76197 -9.19616 -7.81592
14.862 7.42648 -9.64928
8.67599 -8.83988 -7.15709
6.93974 -10.9753 -7.46279
2.64188 -11.2198 -6.62916
7.86764 -9.08056 -6.88124
9.61395 -9.14854 -7.53863
10.8023 -9.50362 -8.11645
3.27992 -20.5959 -11.7284
6.80749 -10.9925 -7.24848
10.115 -9.29938 -7.69469
12.3503 -10.3629 -9.04102
9.24889 -9.01577 -7.21735
4.62005 -14.3054 -8.38083
8.01192 -9.22561 -6.7862
14.7845 7.55868 -9.11622
9.7061 -9.11516 -7.31272
0.835956 17.4773 -9.55495
2.74126 -19.8483 -10.9256
11.1396 -9.65318 -8.00324
4.23761 -14.4356 -8.14376
14.6978 7.68632 -8.93421
15.0889 10.418 -9.84511
14.0323 7.74145 -8.56335
10.9595 -9.6256 -7.75661
13.2743 -10.8098 -9.10641
3.0434 -19.3249 -10.2844
11.3646 -9.83254 -7.64645
2.16869 -20.3754 -10.3422
10.2691 -9.34936 -6.98337
14.2789 -11.2939 -9.14064
13.8156 -11.1745 -8.89543
11.0161 -9.66229 -7.30026
7.51425 -9.34484 -5.9383
3.56439 -8.47122 -4.52932
-8.70413 -1.91112 -4.38129
2.22275 -20.1494 -9.94276
4.53342 -9.30207 -5.06082
0.402788 13.6634 -6.69138
7.61323 -9.27665 -5.85602
-8.50151 16.2228 -8.86992
-9.20478 -2.43339 -4.58747
15.0038 -11.5864 -9.10979
19.3854 5.54658 -9.64279
-10.3186 -2.55473 -5.02787
1.90969 -20.5503 -9.81391
17.2184 16.181 -11.1912
7.58767 -11.2175 -6.39013
20.0381 5.40863 -9.77434
14.0363 -11.1127 -8.32524
2.93137 -17.3427 -8.17836
19.3637 5.72927 -9.32907
17.8529 -13.0105 -10.204
9.86312 -2.49131 -4.70045
20.293 5.1435 -9.65898
17.3444 16.3103 -10.9714
1.80978 -20.2143 -9.28834
9.67697 -9.04882 -6.06663
-9.21455 -1.67254 -4.27096
9.45045 -3.46771 -4.58493
6.71686 -11.323 -5.98823
9.91041 -2.6177 -4.64949
19.2566 5.87193 -9.06357
17.7324 17.589 -11.2283
9.36654 -3.08547 -4.43904
15.4378 -11.8792 -8.74149
7.04092 -11.5681 -6.05725
7.15436 -10.9213 -5.8195
9.55673 -3.40386 -4.52094
-10.0198 16.4217 -8.56387
17.6619 -12.8899 -9.71624
19.5433 5.6299 -9.0146
16.1124 7.30837 -7.83481
17.8404 18.0201 -11.2149
16.4338 -12.2221 -9.02653
-11.27 17.1369 -9.01461
-6.57211 15.0175 -7.18678
-5.23811 4.91288 -3.12875
20.142 5.4689 -9.07391
9.55565 -3.40413 -4.37788
18.2356 18.483 -11.16
15.8294 -12.1815 -8.59483
14.8705 7.4352 -7.09575
3.8394 -9.304 -4.27633
-11.1943 17.0246 -8.6252
6.94683 -10.9102 -5.45387
-13.5932 3.33131 -5.89638
0.743381 -22.3737 -9.43382
15.8135 -11.9733 -8.29503
-5.16715 5.68963 -3.2153
0.998536 -22.2355 -9.33044
1.23232 -20.7808 -8.72106
14.1786 7.60443 -6.72967
18.5682 19.3508 -11.2057
3.7833 -8.95605 -4.05441
14.7826 7.73563 -6.9451
17.936 19.1562 -10.8907
-9.51709 -1.0923 -3.95433
4.0075 -8.50279 -3.85125
14.0455 7.75558 -6.5867
6.84627 -10.9906 -5.29376
-13.6327 2.54664 -5.67324
-7.98585 15.4696 -7.074
19.2748 20.9446 -11.5319
15.0849 7.24834 -6.74336
-5.28871 14.4409 -6.16549
13.9592 -11.036 -6.96976
1.53273 19.2696 -7.50807
-8.77276 15.8431 -7.03693
19.003 5.79527 -7.69786
-1.75659 13.2999 -5.19593
5.29704 -9.39632 -4.15978
-2.38883 13.5176 -5.27211
19.6077 22.6827 -11.4971
4.6612 -8.51666 -3.68712
19.4301 5.57411 -7.69203
0.87594 -26.4908 -10.073
14.9123 -11.4914 -7.08498
19.9898 5.41563 -7.75146
9.44114 -3.43977 -3.75683
0.532933 -22.6495 -8.44316
3.24989 -10.7989 -4.2131
20.2098 23.5128 -11.5144
0.909525 -8.72026 -3.25146
14.0337 -11.114 -6.60096
20.3984 5.18812 -7.73901
17.9003 17.6879 -9.19666
-13.0473 2.28575 -4.81564
20.8642 24.9158 -11.787
2.28815 -13.2639 -4.84902
13.0398 -10.5451 -6.03456
0.795764 15.4527 -5.53668
-8.20331 -2.79942 -3.10028
0.409905 -21.8291 -7.80473
-4.2304 13.8812 -5.16126
0.638207 -21.9146 -7.79117
15.8643 -11.9817 -7.04636
-15.794 18.2587 -8.50773
5.93012 -11.3413 -4.49993
-11.0668 16.6999 -6.99683
0.0938765 -18.5006 -6.50352
14.2708 -11.3098 -6.36699
20.3534 5.36029 -7.34664
0.657468 -23.0299 -7.95679
-5.03294 14.6083 -5.29356
3.63986 -8.44957 -3.16694
4.87754 -9.03489 -3.5184
-14.5635 18.0804 -7.9463
2.27572 -10.889 -3.81223
-8.9225 16.1848 -6.29943
3.03044 -13.71 -4.78699
-15.0408 18.4603 -8.07202
20.1714 5.48435 -7.02625
22.0707 27.3032 -11.7342
36.1024 -20.3799 -13.8541
-5.3269 14.1272 -5.01404
1.91628 20.7788 -6.9244
1.26747 -10.248 -3.41428
-5.2744 14.5212 -5.01754
-12.6395 17.3031 -6.95082
18.5751 -13.2365 -7.40692
3.56 -8.67297 -3.00587
6.22195 -10.1163 -3.80614
2.3139 -11.0092 -3.57999
-4.56326 -34.2842 -10.9932
-1.13791 -23.8537 -7.60176
15.0314 10.3524 -5.76027
-13.2653 17.6514 -6.97883
-18.0648 19.4843 -8.35207
6.9651 -11.1 -4.05133
1.38533 -21.8927 -6.78606
-2.57599 -27.4438 -8.46114
7.1964 33.2405 -10.3793
0.770946 15.0445 -4.57595
-11.1799 16.868 -6.09904
-2.70251 -26.5409 -8.03438
-14.4037 18.0087 -6.88038
-5.30502 -34.7921 -10.4792
0.838119 -25.0415 -7.49177
-5.41518 14.8923 -4.7133
2.08312 20.7354 -6.14051
-21.3606 19.9169 -8.61626
18.2242 5.79934 -5.62947
-4.31412 14.4878 -4.44435
-7.95949 15.441 -5.0963
4.25712 -9.14606 -2.96508
4.63929 -11.6242 -3.65955
-12.6262 2.22427 -3.68461
-33.056 -46.8245 -16.4932
-15.2578 18.3548 -6.86112
6.96274 -11.0895 -3.76967
2.56416 -9.54715 -2.80878
12.9417 -10.4754 -4.73825
-8.45313 -2.46012 -2.49631
21.0995 27.212 -9.75638
-8.58054 -2.26151 -2.50741
-2.55463 -26.0726 -7.3521
-13.033 1.99715 -3.67173
4.39088 -11.337 -3.37433
-9.34684 16.0737 -5.10439
-13.1096 17.4837 -6.00191
-5.41513 14.451 -4.21767
-8.52516 -41.4046 -11.5664
-21.5492 20.1093 -7.92348
-9.7686 16.1979 -5.06889
-26.8077 20.5931 -8.99293
11.4463 11.5205 -4.28545
4.33001 -11.3033 -3.20657
47.149 -13.7062 -13.0073
-8.21557 -38.7726 -10.4176
4.09075 -8.66003 -2.52186
11.178 -9.94229 -3.91345
-14.5053 18.1616 -6.04355
6.53952 -10.4286 -3.186
3.17915 -9.64925 -2.6264
-30.1821 -44.2051 -13.8219
-4.36601 -28.6394 -7.49574
3.54289 -10.3773 -2.82742
4.06977 -9.39071 -2.63057
15.6193 -11.7446 -4.98618
-7.18204 15.3001 -4.27777
-31.6184 -42.1672 -13.3652
4.31463 -11.1514 -3.02618
4.25621 -7.70647 -2.24058
6.54031 -10.6683 -3.12072
44.8314 -13.5544 -11.6771
-28.36 21.3965 -8.78295
-11.5716 17.0004 -5.06946
-27.6639 -40.3559 -12.0303
-9.91511 -39.0277 -9.93295
-24.5585 20.627 -7.88125
4.35147 -10.3352 -2.75517
-12.1066 17.341 -5.12761
-7.87361 15.3404 -4.15576
10.2802 -9.27285 -3.31491
40.3006 -13.3869 -10.1618
15.1287 7.56604 -4.0271
-6.32574 -36.2298 -8.76118
3.96626 -9.0888 -2.34973
47.0185 -12.5841 -11.552
-12.1846 -44.8654 -11.0136
4.20318 -8.99342 -2.3682
3.86209 -11.077 -2.76468
4.90985 -8.69582 -2.34924
-12.8227 17.474 -5.04384
11.0137 -9.65182 -3.34704
-6.2025 -31.4554 -7.31566
-27.2321 21.0327 -7.79965
41.5356 -9.0836 -9.64853
-30.5805 22.2029 -8.47267
-35.4945 -23.2604 -9.50877
40.7323 -12.5916 -9.57243
5.45611 -9.47687 -2.44147
-12.4146 2.83273 -2.79393
40.606 -11.8996 -9.3489
42.5853 -12.1508 -9.74292
-5.39717 14.1598 -3.31299
13.4 -10.7828 -3.78586
38.0663 -12.2332 -8.78991
-23.453 20.4405 -6.74808
-29.6276 -73.0452 -17.1045
4.31063 -9.70212 -2.30224
4.54011 -9.18223 -2.21251
-14.623 18.2186 -4.98878
-31.0143 22.5281 -8.18508
-31.8934 22.6336 -8.35992
-28.2479 -74.9465 -17.1683
-10.7223 16.7541 -4.21755
-8.45899 -35.9094 -7.84526
3.19113 -9.6877 -2.17499
3.96751 -9.83247 -2.26067
45.7881 -10.616 -10.0334
14.9609 7.4937 -3.54754
-15.1992 18.7101 -5.10349
5.16509 -9.05674 -2.19045
26.6472 38.555 -9.79455
15.0014 7.85099 -3.51545
-30.1973 -23.3215 -7.91508
-33.0959 -84.8601 -18.8579
-11.4803 16.9147 -4.154
-15.6625 18.5181 -4.93736
-35.2537 23.6648 -8.62786
44.4224 -9.68949 -9.27181
-13.2846 -42.7466 -9.09797
4.13667 -9.73617 -2.15225
11.6099 -9.65104 -3.07171
-12.0284 17.2613 -4.1996
-19.9745 -57.3277 -12.133
-13.0008 -40.3868 -8.40015
4.07062 -9.92329 -2.1236
-34.1678 -23.3636 -8.15978
-26.7866 21.0232 -6.70172
-33.1989 -23.7477 -7.95679
-6.90698 15.262 -3.2514
-26.65 -62.6195 -13.2191
-33.6094 -22.3748 -7.78072
3.43634 -9.36365 -1.92602
45.8668 -10.6271 -9.04076
-12.7753 17.4423 -4.13292
3.98988 -9.34662 -1.93939
-36.497 -22.1693 -8.08353
-21.3128 -34.6222 -7.73217
-15.622 -45.0759 -9.02686
37.9011 -12.5027 -7.5446
-36.0112 24.1862 -8.1183
-33.7429 -23.3036 -7.70369
-32.6942 -23.9204 -7.60449
-21.3708 -52.9444 -10.7432
-16.9263 -45.9769 -9.08817
3.82073 -9.20804 -1.84139
42.5737 -11.4744 -8.18788
5.75953 -9.71599 -2.07
-24.591 -55.761 -11.1577
-20.5015 -50.8866 -9.92287
-14.5863 18.1821 -4.13306
-31.1447 -25.119 -7.1123
-20.3299 -27.0903 -6.05692
-39.4278 24.8795 -8.22572
-26.7949 21.0391 -5.92949
-34.1317 23.3561 -7.18083
3.91045 -10.0522 -1.87029
4.77276 -8.6142 -1.71144
14.0159 7.52693 -2.74403
14.0905 8.08576 -2.78251
-30.8661 22.4453 -6.54255
42.2527 -11.9542 -7.47574
42.0471 -10.8898 -7.39389
-31.3019 -24.8597 -6.78095
-21.0918 20.0872 -4.89098
-20.4413 -50.8092 -9.25391
14.8732 7.45445 -2.7903
-31.7379 22.4685 -6.49549
-23.622 -56.3193 -10.0918
43.5794 -11.74 -7.33584
-10.3653 16.4555 -3.13819
-20.7268 -51.4202 -8.84232
-34.9371 -24.1173 -6.6897
-22.8009 20.0326 -4.75254
-24.2015 20.6599 -4.93169
-40.1347 24.3002 -7.27038
-11.2349 16.8151 -3.12181
3.47295 -9.53127 -1.56887
3.87068 -10.2356 -1.69437
-7.62632 15.468 -2.63399
-31.0945 22.6314 -5.87885
-31.8024 -24.5633 -6.11054
-27.982 -26.174 -5.80461
42.2372 -10.9804 -6.63347
44.8892 -9.77979 -6.99923
-6.54697 14.5822 -2.39152
9.83489 -5.15521 -1.64808
-33.5333 -24.186 -6.1572
-26.5282 -67.0768 -10.6983
10.1995 -9.1705 -2.04404
45.0316 -10.4175 -6.8641
-36.6955 -24.4277 -6.48785
-31.5523 -26.0256 -5.98317
-12.7018 -42.0863 -6.46847
16.9324 -12.2506 -3.06135
-25.4111 20.9217 -4.78343
-24.7658 -55.4909 -8.75664
-7.62404 15.2701 -2.44037
-12.7228 17.3469 -3.06703
6.03895 -11.5374 -1.8608
-13.423 17.9411 -3.14736
-34.7278 23.4594 -5.89199
6.76368 -11.0481 -1.81056
37.62 -12.4153 -5.57182
-31.1907 -24.9932 -5.57827
-33.0273 23.7351 -5.63423
-20.6368 -49.7384 -7.4378
45.1831 -10.108 -6.38435
-6.87406 15.2022 -2.27984
-22.6999 -59.244 -8.61882
7.75506 -9.38502 -1.63384
-14.0156 17.8957 -3.06417
13.2266 -10.5493 -2.28919
-22.2406 20.2305 -4.0428
42.16 -10.9005 -5.78119
44.9062 -9.83632 -6.08469
-22.6229 19.9084 -3.94057
-32.727 -24.4891 -5.33905
-14.9072 18.2545 -3.04725
-34.0502 22.7267 -5.31484
-38.3767 -16.2041 -5.37871
7.0204 -10.4408 -1.61428
10.7846 8.82972 -1.78983
-33.8446 -23.3235 -5.26007
-31.4583 22.9653 -4.92693
-35.6214 -22.2281 -5.2629
42.022 -10.8676 -5.43179
6.79954 -10.373 -1.54982
-7.65907 15.3195 -2.12059
-25.0331 21.0198 -4.00258
-33.4155 23.5503 -5.04275
6.29969 -12.082 -1.65993
44.8579 -9.57037 -5.61803
15.017 7.86754 -2.03837
-17.9956 -43.5848 -5.68606
7.09051 -10.538 -1.52932
-20.5392 9.10273 -2.65908
-14.3495 -43.4071 -5.37573
-31.8873 -24.5846 -4.70815
-31.3724 -25.09 -4.70093
42.1062 -11.279 -5.12327
11.2384 -9.6783 -1.7183
-29.8985 22.6704 -4.3169
6.64621 -10.8291 -1.45461
7.49227 -9.22436 -1.35936
11.5912 -9.73057 -1.71894
9.4524 -4.61131 -1.19099
14.9951 7.70557 -1.90012
-10.3544 16.4841 -2.19684
-32.2022 23.5304 -4.46804
38.9262 -12.8141 -4.59571
9.36162 -9.02776 -1.43884
-11.0712 16.6044 -2.16942
6.79906 -12.8004 -1.57003
45.0003 -9.78018 -4.99229
10.7831 8.86109 -1.5043
16.7881 -12.4707 -2.24455
42.3028 -10.9716 -4.68281
9.62407 -8.98338 -1.39481
8.38264 -8.4678 -1.24824
-30.9359 -24.7559 -4.12582
-30.2203 -60.616 -7.066
14.9917 7.51855 -1.71361
-31.8284 -24.5418 -4.1238
-12.8623 17.534 -2.20801
-12.7811 17.1237 -2.12387
10.2132 -9.09304 -1.33962
-20.8933 -53.0613 -5.59095
6.32171 -12.1063 -1.32188
16.657 -12.1865 -1.9839
42.192 -11.3376 -4.18779
-30.7527 -62.1629 -6.59309
-20.8624 -54.7494 -5.56441
-23.3224 20.3998 -2.89669
45.7049 -10.1676 -4.37331
9.72158 -8.99174 -1.22588
39.76 -13.1158 -3.90139
-15.0255 18.4188 -2.15264
-29.7177 -13.5492 -2.97721
-32.3616 -63.0864 -6.53562
15.8707 -11.8791 -1.80338
8.64002 -8.73104 -1.11232
12.9003 -10.6485 -1.45664
45.2905 -10.4975 -3.98264
9.40665 -9.03256 -1.09627
10.9582 -9.65005 -1.22735
-34.1647 23.4625 -3.44901
16.8574 -12.293 -1.72809
-16.9544 -44.1184 -3.78581
14.6941 -11.4898 -1.48746
-11.745 -32.8808 -2.75599
-29.8291 22.6807 -2.89802
-33.1012 23.3972 -3.1294
-22.7489 -51.9647 -4.37949
-51.1441 27.8349 -4.40949
-21.3956 20.1365 -2.13735
-33.3276 23.5737 -2.95863
16.3934 -12.2492 -1.49706
42.2197 -11.2981 -3.18415
-39.3379 -74.4309 -6.07569
13.9852 -11.0651 -1.27629
-15.5753 -41.3172 -3.04771
10.7725 -9.62057 -0.98957
-23.3455 20.4412 -2.09578
12.8787 -10.6269 -1.11775
17.9697 -13.0333 -1.47995
16.0553 -12.144 -1.32952
-14.6847 -40.7148 -2.79989
43.988 -11.4403 -2.84105
-31.8799 -64.5939 -4.39582
35.8946 -8.70807 -2.26682
43.1528 -9.87699 -2.71776
6.05552 -13.0897 -0.862066
30.9568 -20.484 -2.22128
-9.83874 16.4244 -1.12557
-15.5795 -40.6404 -2.47842
16.6249 -12.4245 -1.16536
-9.68757 -12.5584 -0.8692
14.9833 7.68696 -0.910557
13.9119 -11.0127 -0.950154
-12.785 17.3256 -1.12475
-16.4851 -40.8597 -2.34005
14.8776 7.82309 -0.823882
-16.31 -41.6904 -2.19665
-14.1508 17.9361 -1.09263
9.57036 -9.0274 -0.603446
-23.9998 -55.0526 -2.71765
12.4592 -10.2425 -0.747776
-16.02 -44.6573 -2.10648
-17.2243 -42.4372 -1.96087
6.86146 -12.6698 -0.639276
-13.9256 -42.4498 -1.90312
-52.5487 28.5779 -2.42338
18.3547 -13.1866 -0.917249
16.8167 -12.4998 -0.816075
-41.4596 -80.4693 -3.41515
-18.2414 -47.8351 -1.88559
-33.6304 23.1073 -1.49247
42.7001 -11.0022 -1.58781
-34.4705 -68.5678 -2.56773
-25.8741 -56.7031 -2.09861
20.1959 23.3577 -1.02528
-21.4383 20.0897 -0.957321
8.12525 -14.3405 -0.553619
9.42636 -8.99892 -0.422466
11.3063 -9.95355 -0.489669
18.61 -13.1587 -0.749105
34.8885 -13.1588 -1.23745
22.0037 26.6354 -1.1078
-27.3979 -13.7426 -0.960776
-22.8978 20.3906 -0.934459
-31.6904 22.4448 -1.21201
-24.9812 -57.4326 -1.93987
-13.8163 -39.0861 -1.27702
-21.5131 -54.8771 -1.7848
-16.6267 -45.062 -1.37618
-34.0435 -20.6414 -1.06041
11.4555 -9.71814 -0.402458
16.3522 -12.1626 -0.53727
-41.0343 25.3852 -1.27257
-30.2796 23.04 -0.941356
-30.8002 22.5728 -0.902795
9.57274 -9.01163 -0.304582
-41.333 14.2857 -0.966608
-31.4254 -52.6224 -1.38056
21.291 -14.2395 -0.563064
30.5447 -18.5214 -0.806289
14.2386 3.93496 -0.301322
27.5218 48.0936 -1.01857
23.5669 -10.9717 -0.45785
47.255 -10.8814 -0.902005
-30.6538 -22.0289 -0.68835
-29.5991 -29.0722 -0.65791
-18.9901 -46.597 -0.838046
12.7289 -10.4674 -0.271172
18.5394 -13.3965 -0.349596
-29.2878 -13.0177 -0.420763
-32.8486 -24.5831 -0.570875
-33.3533 -67.2377 -1.01348
-27.7192 -58.9953 -0.893338
-33.9501 -23.1861 -0.536771
-30.2983 23.0506 -0.448198
17.0133 -12.7052 -0.25216
29.3603 -18.2048 -0.406576
-30.7589 22.5814 -0.424847
-19.0952 -43.7938 -0.511284
-12.0277 -36.2024 -0.384284
-33.3813 -58.8172 -0.623234
-14.3205 18.1653 -0.1775
-26.7253 -13.4741 -0.241642
-15.0109 18.2982 -0.161818
-22.5566 20.1451 -0.155616
-20.9974 19.6948 -0.130942
-10.5626 -13.5792 -0.0604031
14.7452 7.74599 -0.0200815
11.1145 -9.77332 -0.00779805
-34.5152 -18.9047 0.0600629
-11.3508 -33.7346 0.115789
16.9725 -12.3311 0.0910484
-18.8169 -43.2 0.209332
18.7997 -13.2459 0.122144
7.18233 -12.3463 0.104229
26.0384 -10.683 0.173144
-55.3346 19.7583 0.560341
16.2633 -12.0528 0.193274
37.5218 -7.66058 0.361441
-29.0973 -8.20478 0.353671
-36.3052 -21.9131 0.467713
-11.3404 -32.4916 0.369055
-12.7215 -35.2519 0.44611
-10.295 -31.6446 0.39921
6.33691 -12.9528 0.184074
7.21831 -11.1203 0.17432
-28.1852 22.1246 0.548745
11.3199 -9.88618 0.225959
-24.1221 20.6288 0.523987
10.9066 -9.73828 0.229491
12.9813 -10.6867 0.26492
36.4672 -7.80453 0.620538
-34.5785 -23.167 0.757109
-31.2375 22.3351 0.754135
6.14903 -12.8474 0.276376
7.02646 -11.0577 0.252407
8.02976 -9.4224 0.241759
27.6084 56.7693 1.37316
7.73227 -9.44775 0.276022
10.1346 -9.17932 0.329893
-28.8337 -9.24581 0.729422
-23.3164 20.3517 0.837487
-27.5872 21.7525 0.943019
-28.9627 -8.6965 0.796918
9.1939 -8.89951 0.345666
9.62898 -8.94943 0.358342
-25.5938 21.5708 0.909579
25.3968 -5.13783 0.721494
12.9911 -10.6573 0.500564
14.8369 24.1704 0.875101
6.19591 -12.7819 0.446983
7.46252 -11.6329 0.433715
-28.4891 -8.03482 0.97126
-12.6202 -19.3229 0.760365
-28.1724 -8.80525 1.02057
16.1236 11.0358 0.706237
-29.8561 -18.5007 1.22772
15.7904 27.4292 1.12963
-30.4749 -16.6232 1.28643
23.5515 -4.25283 0.864726
-27.8603 -19.8147 1.26685
-7.29974 -7.95921 0.407603
9.05504 -8.83002 0.470144
12.4373 13.6052 0.710836
26.0906 53.8228 2.26547
24.945 53.1104 2.20975
-11.5645 -9.15376 0.581598
8.72634 -8.67201 0.486678
-25.6818 21.1557 1.35092
21.8481 -2.96103 0.893303
-28.8302 -17.5115 1.3819
9.41794 -8.93005 0.532142
12.4625 14.3533 0.817916
6.58185 -12.4646 0.598564
14.8653 19.3152 1.07164
20.7972 28.7265 1.55337
-9.5015 -13.8153 0.737003
-9.98783 -15.6205 0.823035
7.60135 -10.9556 0.587489
8.62712 -8.7166 0.55422
24.2003 -3.70728 1.10548
-29.8933 -8.71133 1.42129
6.74541 -11.0893 0.597202
-8.27918 -8.14768 0.546715
21.3504 43.0768 2.30037
-28.5919 -17.6709 1.58885
-9.77522 -13.7116 0.801501
9.66393 -8.96644 0.620911
15.4851 43.0321 2.21401
-30.2896 -13.4162 1.58123
-6.76705 -8.25003 0.525092
14.5497 33.8358 1.87955
-29.7782 -11.6612 1.60495
-7.5976 -6.98624 0.521773
-6.70417 -7.59989 0.512716
16.1251 29.2107 1.73267
10.5411 12.3259 0.876591
14.2179 19.3481 1.28929
9.34772 -8.92809 0.692588
14.8062 19.2648 1.34172
15.2702 23.5846 1.54724
-27.5433 19.3934 1.84654
-6.97791 -8.20054 0.597165
-26.471 20.3112 1.8552
6.09795 -12.8754 0.797076
-7.11152 -9.16486 0.661581
9.94833 12.4261 0.936254
14.8944 25.0952 1.70504
6.46624 -12.987 0.83491
13.8234 22.5525 1.56257
-8.26604 -8.12519 0.698416
11.525 11.6045 0.975411
14.6554 19.4919 1.46533
-7.40383 -10.0227 0.774999
7.01069 -11.1721 0.803798
11.2625 -9.71453 0.90168
5.86753 -10.7562 0.760303
-7.20029 -6.6553 0.612751
14.4584 20.5102 1.58792
16.133 7.16121 1.14614
-7.04201 -6.15266 0.613663
6.46739 -13.4552 0.994888
9.37987 21.1875 1.56325
10.4036 12.5396 1.11399
13.5288 18.1915 1.58137
12.3743 20.5166 1.65803
11.3312 11.9698 1.15702
6.59705 -9.83848 0.838859
11.4794 11.7446 1.18862
9.80155 -6.91894 0.853697
12.3415 11.9476 1.26168
9.92163 -8.3787 0.951355
-6.16633 6.68313 0.678951
10.4174 9.17277 1.04277
11.8966 17.7874 1.61023
11.4491 18.2406 1.62286
-6.9515 -7.70533 0.804771
10.8276 18.6883 1.65732
9.50975 -8.95344 1.00941
-6.42015 -4.30196 0.609576
9.16141 18.3547 1.63946
10.0752 -6.8944 0.97754
12.4352 11.5375 1.37138
9.71873 18.8699 1.70928
-7.27216 -9.64591 0.984013
6.71459 -9.37577 0.938414
12.2225 11.6925 1.38607
12.1266 11.9261 1.41251
11.403 11.9187 1.3657
-5.05713 -11.5423 1.06008
10.2937 12.8788 1.40298
-6.96618 -6.08734 0.796895
-6.8227 -6.70149 0.807871
-5.21824 -11.4449 1.06973
-7.30753 -7.75424 0.917622
9.27898 -7.25162 1.01749
-7.12776 -8.06584 0.942051
-7.02364 -7.69778 0.916504
9.37138 12.5089 1.38585
-6.95925 -8.38074 0.973284
10.7968 9.05922 1.28459
10.4425 13.4494 1.53855
10.5059 9.22691 1.28009
7.70238 13.9816 1.46841
-6.50483 -8.14418 0.95507
-6.91054 -9.02835 1.04945
11.1783 10.7811 1.43308
11.2302 9.16267 1.35641
10.8487 10.7834 1.434
6.4725 14.9572 1.53163
-11.4419 2.93125 1.10775
-6.36532 -4.17354 0.713157
-6.81128 -6.29906 0.860405
9.4135 13.2758 1.5701
-6.03739 6.56027 0.878019
7.95674 -6.60616 1.00792
7.91569 13.1987 1.52892
-7.07524 -7.62468 1.04796
9.29001 11.6161 1.50041
6.9941 12.4184 1.44661
7.05007 12.9883 1.50675
9.51736 9.07739 1.36125
5.85133 13.949 1.56802
9.12344 12.4086 1.6059
-6.11058 -4.45923 0.792976
5.95004 13.6722 1.57081
6.21042 13.6036 1.57235
-6.9744 -4.43028 0.883836
8.75291 9.0031 1.3388
9.12042 10.1604 1.48505
7.31666 10.9862 1.43466
5.81697 11.4575 1.39718
-6.30434 -7.41645 1.06401
10.2512 6.44259 1.33974
8.97673 8.12471 1.33478
7.29989 11.6686 1.51998
6.83526 11.6173 1.4904
5.34959 11.8794 1.44971
4.86253 12.0869 1.45778
4.6973 13.6608 1.58944
9.85081 7.04338 1.35231
8.74338 9.29414 1.42603
5.37464 11.5002 1.42968
-6.84639 -6.72833 1.06849
6.85623 10.7016 1.43188
4.31312 13.1576 1.56515
9.74844 -3.19447 1.14386
-6.10749 -5.417 0.945232
7.28629 -6.11749 1.07999
10.3988 5.7056 1.36052
-7.38352 -0.986097 0.853685
-6.26062 -5.35892 0.948657
5.24386 -5.55222 0.879901
5.06098 11.6085 1.47128
-6.88654 -4.56154 0.95729
4.45031 -7.25663 0.98448
10.3918 5.14079 1.36063
8.86913 7.87181 1.39224
-6.00492 -4.37032 0.865638
-6.48926 -5.27628 0.98812
4.0893 -7.86073 1.05379
4.96291 -5.84584 0.920036
10.1517 4.74681 1.34353
8.50404 8.25769 1.43589
5.26801 11.4768 1.54169
9.03061 6.25599 1.34521
7.99775 8.32339 1.44613
-6.49349 -5.75005 1.07981
3.70398 -7.5678 1.0553
8.66193 6.67871 1.37554
-6.47143 -5.34742 1.06256
9.07625 6.00347 1.38946
8.17011 7.12896 1.38356
8.10072 7.49509 1.40928
5.7731 -5.34187 1.00984
-6.97583 -4.44562 1.06191
8.08821 7.98581 1.47442
-7.3599 -1.04274 0.960556
-6.92639 -2.82775 0.977148
8.96387 4.0957 1.29076
8.38938 6.61857 1.40292
4.99503 -6.02398 1.02867
4.91315 -6.18836 1.04635
6.86645 -4.28035 1.07707
-7.1363 -1.71898 0.984179
-7.0127 -2.22098 0.983584
-6.02869 -4.42479 0.999862
8.12301 6.64858 1.42319
8.59889 4.43392 1.31917
8.61955 5.15996 1.37228
8.0161 7.12722 1.46014
-6.81178 -3.73536 1.05498
8.85025 4.15429 1.33837
8.25355 5.82537 1.38355
-6.40136 -4.33137 1.05773
-5.96074 -4.52759 1.02238
5.35146 9.018 1.44856
3.63573 10.0583 1.48546
-7.37013 -1.09333 1.03196
-6.9075 -3.92896 1.10295
4.94581 -5.54011 1.0264
5.22521 -5.39514 1.04245
7.46054 -3.53558 1.15461
3.3803 10.1377 1.49757
8.3919 4.59291 1.3534
7.37215 -3.67671 1.1687
7.58401 -3.33359 1.18113
7.75873 -3.30436 1.19665
8.92901 2.8115 1.3475
4.83069 -5.63181 1.06655
7.35095 -2.852 1.14798
-6.96149 -3.30159 1.12317
7.91497 -2.77851 1.22309
8.66053 -1.81921 1.29906
5.00292 8.56569 1.46442
2.94841 9.42434 1.46925
7.72931 -1.88724 1.17266
7.22169 5.7513 1.37566
3.45064 9.54609 1.50064
3.18176 9.78167 1.52465
-7.37242 -1.04369 1.10418
-7.07692 -2.02377 1.09711
6.93994 6.28235 1.41347
-6.26536 -2.2725 1.00033
-7.2423 -1.37572 1.11297
7.93143 4.81292 1.41353
5.70419 7.35021 1.41183
5.28806 7.62469 1.41237
5.05225 8.0065 1.4315
6.75723 -3.2246 1.13234
7.2437 -3.1236 1.20809
7.63324 -2.75447 1.23667
-7.31867 -0.733161 1.12342
-7.09956 -1.95512 1.13672
6.78683 -3.09182 1.1534
3.74877 -5.78497 1.06598
-7.05534 -2.07667 1.15319
-7.34814 -1.09321 1.16668
7.35456 4.77034 1.38465
-7.20056 -1.44391 1.1686
-7.27353 -1.30145 1.18575
-7.09973 -2.01967 1.20053
7.06357 4.75901 1.39045
-7.10338 -1.94606 1.21004
7.00323 4.86065 1.41611
6.60958 4.848 1.36803
5.20268 6.2388 1.35343
4.66932 7.16626 1.42864
3.81836 7.92526 1.46244
-7.25123 -1.3739 1.2322
2.79133 -5.77471 1.08126
7.13586 4.42483 1.41461
6.50779 5.23368 1.40901
3.87281 -5.36411 1.11551
3.93589 -5.02002 1.0799
-7.27432 -1.25278 1.25235
-6.60036 -2.62606 1.20539
7.41099 2.84568 1.34656
7.02436 3.88807 1.3683
-6.41633 -2.75388 1.18812
6.76901 4.09527 1.35828
5.68173 -3.51919 1.15037
-7.39814 -1.0399 1.29216
-6.35881 -2.28113 1.1616
5.53456 -3.64744 1.14258
5.31824 -3.77353 1.14305
3.59298 7.15456 1.40849
-6.80141 -1.73567 1.23293
4.47946 -4.46689 1.11333
-7.09408 -0.91489 1.2744
4.72469 -4.45729 1.14951
4.32508 6.48761 1.39149
6.58102 3.47121 1.34378
6.62041 3.67961 1.36079
-6.44311 -1.50097 1.19007
3.60809 -5.32522 1.17017
5.07362 5.60838 1.3849
-6.15702 -2.18395 1.19748
3.41239 -5.15747 1.15013
3.38423 6.76436 1.41524
-1.69805 -5.78294 1.14488
6.44017 2.72998 1.33125
-2.14357 -5.72845 1.17586
6.30453 2.79399 1.3277
-2.78797 -5.37741 1.18701
-3.52692 5.35581 1.38961
4.46793 3.89104 1.35232
4.15103 -2.87869 1.17707
4.62866 -2.18629 1.23697
4.1972 3.28994 1.32114
3.70745 -2.93029 1.22394
4.01643 2.57339 1.33277
-1.44391 -4.11971 1.22231
-2.32205 -3.58114 1.21298
3.85833 2.36336 1.31099
-2.86297 3.52838 1.36247
-2.48176 -2.91778 1.1899
-2.3792 -2.93895 1.19484
1.84194 -2.81025 1.18148
1.86495 -2.78852 1.21151
1.99101 -2.52519 1.19787
-2.04417 2.808 1.32104
2.80323 -0.555566 1.25901
2.78255 -0.33676 1.24073
-2.09026 -1.61989 1.21342
-2.07799 -1.4519 1.23849
-1.86315 -1.79674 1.28391
-1.99553 -1.13188 1.20493
-1.98702 -1.07079 1.23176
-1.9468 -0.880702 1.23198
-1.93115 -0.70867 1.22227
-1.93001 -0.701763 1.24949
-1.90635 -0.469859 1.2223
-1.87173 -0.345834 1.21951
-1.85659 -0.401319 1.22624
2.37775 -19.6883 -10.007
-7.60295 -8.97628 0.465169
8.02244 -8.80436 -10.473
8.26838 -8.63415 -10.5091
8.21987 -8.29469 -9.89111
6.96209 -11.9641 -11.4165
8.52149 -8.97906 -9.74725
7.8547 -8.94216 -9.14038
5.85369 -12.8059 -10.7355
9.43342 -8.83995 -9.75115
6.15161 -14.1035 -11.5832
8.29224 -8.68419 -9.02773
8.0227 -9.17456 -9.11393
7.29614 -9.25098 -8.77808
5.91402 -14.1614 -11.1972
7.72295 -9.31151 -8.72934
7.86021 -9.12211 -8.67401
7.13259 -10.5862 -9.08829
6.82392 -11.0791 -9.22447
10.0603 -9.19926 -9.57429
6.54312 -11.1814 -8.86915
8.03759 -8.63269 -7.8545
7.36458 -9.28587 -7.87608
8.52097 -8.68634 -8.0881
7.72493 -9.47849 -8.03321
6.49128 -12.7824 -9.36146
7.93787 -9.1861 -7.91833
5.00452 -16.0454 -10.8105
-0.474065 13.936 -8.91619
7.732 -9.24963 -7.73076
7.33971 -10.8703 -8.35132
8.38259 -8.57099 -7.638
10.8829 -9.6274 -9.21638
8.99469 -8.82403 -7.90253
11.7741 -10.0403 -9.69764
8.07737 -8.54076 -7.23224
4.04265 -16.8482 -10.6192
4.25146 -15.3861 -9.80131
7.84919 -9.36448 -7.32273
3.95407 -15.6347 -9.61675
11.4877 -9.83468 -9.05728
6.86806 -11.0832 -7.74227
7.77549 -8.82335 -6.96685
5.49091 -14.0061 -8.88857
6.49235 -12.7139 -8.35463
8.36664 -8.5992 -6.99192
9.69406 -9.087 -7.74772
2.79213 -11.8015 -6.9515
5.48343 -13.9098 -8.46579
9.60117 -9.11144 -7.48254
6.62133 -11.0761 -7.26608
3.34907 -20.7052 -11.7548
8.88423 -8.94459 -7.06728
12.1988 -10.2346 -8.92085
6.82731 -11.0119 -7.2182
4.68634 -14.6219 -8.4859
6.226 -12.6304 -7.74648
0.896115 18.587 -10.1294
14.63 7.7306 -8.9899
4.20675 -14.2528 -8.02615
14.7346 -11.6598 -10.1288
14.9841 7.44597 -8.91201
14.021 7.72516 -8.50524
4.76839 -14.8573 -8.29108
12.0888 -10.1549 -8.30851
1.81422 -20.4933 -10.5845
11.421 -9.85644 -7.729
2.08192 -20.2206 -10.3151
13.9703 -11.089 -9.02188
0.00419734 14.2807 -7.1678
-7.29455 15.1629 -8.43341
10.599 -9.60492 -7.18734
7.51815 -9.42994 -6.00874
-8.50343 16.1208 -8.80954
11.6473 -9.7819 -7.36203
10.4993 -9.58933 -6.82808
14.7915 -11.3401 -8.99011
16.713 15.832 -10.936
7.48806 -11.0676 -6.36676
15.0203 7.42151 -7.86032
13.9331 -11.033 -8.30658
-11.9418 17.1008 -9.55746
15.8452 -12.0063 -9.08247
9.77933 -2.45196 -4.63111
-9.11092 -1.65637 -4.21111
18.7381 18.0816 -11.7484
3.91484 -9.1028 -4.49752
-10.2037 16.6691 -8.77791
-5.34455 4.44448 -3.12609
6.86185 -11.297 -5.95059
9.43188 -9.09052 -5.77765
16.0259 7.31072 -7.7705
-6.62641 15.0503 -7.18342
1.50133 -18.7566 -8.13845
-11.1638 16.9864 -8.7529
9.5851 -3.37152 -4.35197
7.02117 -11.0515 -5.53513
15.8291 -11.9658 -8.30642
14.6568 7.74785 -6.9533
18.7716 19.53 -11.3199
1.02029 -22.6222 -9.42763
-4.52854 13.8527 -6.00574
-9.93408 -1.11113 -4.14278
14.0952 7.78296 -6.57363
20.4739 22.2708 -12.3295
-13.068 2.44898 -5.41625
15.1218 7.18475 -6.77042
-5.21568 14.2939 -6.12059
3.63906 -8.81025 -3.79424
13.9466 -11.0122 -6.94483
19.3252 21.6285 -11.2498
18.8173 5.80258 -7.63523
1.54059 19.2668 -7.49343
-8.71924 15.7115 -6.92843
11.405 -10.056 -5.84875
19.2626 22.3323 -11.3589
0.682891 15.3869 -5.8979
-1.66096 12.7493 -4.9467
2.71435 -12.2479 -4.81329
-8.77042 -1.25264 -3.3675
0.702993 -23.66 -8.93174
15.1877 -11.639 -7.21662
9.49389 -3.46421 -3.8122
-14.5537 17.9424 -8.61172
-7.89284 -3.50618 -3.16765
1.09617 -10.4613 -3.86854
7.03208 -11.2429 -4.84965
14.2034 7.93062 -5.87248
-8.29471 -2.84789 -3.15362
0.78976 15.2969 -5.46125
-3.94796 13.3527 -4.92723
5.73976 -10.9915 -4.36394
15.839 -11.9702 -7.03207
19.091 5.89625 -7.02905
2.11458 20.6457 -7.27684
21.6624 26.1877 -11.8095
-14.8536 18.336 -8.10119
2.97182 -13.3414 -4.70471
-8.87415 16.0315 -6.26339
18.4827 -13.091 -7.76322
-5.03044 14.4543 -5.20547
1.36071 -22.2573 -7.38935
1.76115 19.6363 -6.51201
1.44833 -10.3202 -3.44423
39.1449 -20.0102 -14.4284
6.17027 -10.0495 -3.77491
17.5689 -12.4053 -6.88885
2.12045 20.6992 -6.62124
-13.3274 17.7931 -7.01076
1.452 -22.7427 -7.10053
-4.29482 14.703 -4.76124
-10.9283 16.5591 -6.0145
-2.75327 -28.0174 -8.55261
3.06426 -9.46987 -3.02509
0.794736 -24.2978 -7.31094
19.124 -13.5743 -6.95934
17.6084 5.57058 -5.41884
-7.8698 15.2359 -4.99369
4.22845 -10.493 -3.28806
3.62092 -10.5693 -3.17998
4.24162 -10.9462 -3.29562
-13.2808 17.7521 -6.16854
-9.26416 15.8377 -4.99302
-13.2414 1.98493 -3.67135
-16.8836 19.3984 -6.98437
26.3053 -17.3173 -8.53426
-3.91968 -27.9473 -7.56864
3.78281 -9.1453 -2.6481
-9.77638 16.2524 -5.04984
47.2707 -13.8021 -13.0588
10.5351 -9.39626 -3.73693
-6.43007 14.8892 -4.23824
-14.3835 18.034 -6.05463
-8.00259 -37.8619 -10.0799
4.95745 -9.57018 -2.78996
6.55819 -10.4959 -3.19315
-7.18987 15.2606 -4.28963
-10.5288 16.3997 -4.98096
-9.88854 -39.1856 -10.0502
-9.03365 -38.9973 -9.77473
10.9434 -9.64703 -3.58744
-7.94597 15.4227 -4.20838
-11.698 17.0036 -4.99746
14.618 7.72169 -3.92372
4.04526 -9.24939 -2.38947
15.2218 7.53853 -4.00294
3.74563 -8.90603 -2.27134
-6.52523 -32.5101 -7.67813
5.62448 -9.88123 -2.63545
44.7553 -10.8306 -10.7029
-12.7784 17.4064 -4.97171
14.8748 7.61787 -3.78081
43.7934 -9.47365 -10.1505
-9.76498 16.2665 -4.24784
3.71291 -9.2491 -2.16852
42.9563 -11.0198 -9.67953
15.1335 7.5077 -3.61746
-10.6115 16.565 -4.21492
-21.9245 -34.4674 -8.77582
4.8191 -9.74739 -2.34605
45.0488 -10.548 -9.89956
-14.7542 18.2802 -4.94355
-32.2289 -23.7878 -8.49043
41.6913 -13.9497 -9.3012
14.8592 7.85186 -3.50483
-35.4431 23.9684 -8.74985
-8.36578 -34.2178 -7.1334
3.95031 -11.5016 -2.44485
44.5758 -9.61749 -9.27545
11.78 -9.75094 -3.06699
42.9783 -11.064 -8.84408
-26.9457 20.3339 -6.70109
6.14163 -10.2797 -2.3843
45.9386 -10.7426 -9.21481
-12.7643 17.4163 -4.17391
-26.8204 21.0188 -6.62211
16.0593 12.1474 -3.84848
-6.86513 15.1131 -3.1877
-33.1293 -23.9627 -7.82606
-31.6351 -24.7724 -7.72171
-35.6697 23.7688 -8.07217
-33.6375 -22.1894 -7.61508
18.0294 5.66833 -3.52747
-34.1637 -20.6133 -7.45151
-15.0557 -43.4068 -8.55887
3.76929 -9.8178 -1.98036
-24.5682 -61.1651 -12.2587
-16.7989 -45.2563 -8.82969
3.97432 -9.63299 -1.8798
13.0711 -10.2138 -2.99181
45.4194 -10.1071 -8.35836
-14.7149 18.2504 -4.18975
-26.971 21.1536 -6.05215
15.0965 7.99134 -2.97498
-30.3036 -26.4074 -7.00594
42.8379 -10.9727 -7.59262
-7.91772 15.2533 -2.91213
-9.73043 17.9206 -3.4458
44.69 -10.5201 -7.76393
-30.7207 22.3769 -6.39909
-30.2825 -23.2977 -6.38595
-20.7867 19.8755 -4.78537
-32.3346 22.8355 -6.60431
15.9266 -11.8833 -3.25661
-10.3149 16.3764 -3.07982
-43.3699 25.5202 -7.98391
-31.6583 -23.7829 -6.33902
-33.4993 -23.1067 -6.40957
3.4323 -9.49279 -1.57878
-23.7505 20.2887 -4.82448
16.9197 -11.9612 -3.20992
-11.1533 16.6927 -3.05072
46.0763 -10.7986 -7.18334
-22.9106 -53.0937 -8.73763
-29.4772 22.1073 -5.5097
-38.3888 23.9363 -6.71521
-31.6803 -24.5915 -5.98323
44.6909 -9.577 -6.80582
-33.7782 -24.4288 -6.091
-49.9693 27.8999 -8.2293
-35.5818 -23.7335 -6.15657
6.73252 -12.92 -2.11578
-36.2606 -21.0749 -5.93565
-6.9306 15.2807 -2.33103
-13.0984 17.682 -3.06222
-32.1654 23.1577 -5.54023
-24.6679 -54.9364 -8.304
-16.1642 -47.2534 -6.86834
36.7291 -12.2147 -5.30881
-23.1654 20.3568 -4.10369
-32.3102 -24.1967 -5.27007
-30.6695 -25.1603 -5.24482
-33.9431 -23.3767 -5.27933
7.44701 -9.4325 -1.55412
42.8917 -10.9793 -5.68143
-33.5148 22.8061 -5.15417
-29.8105 -15.9072 -4.30713
6.04123 -7.8238 -1.26271
44.8348 -10.538 -5.83938
-31.09 22.8494 -4.81481
14.5123 -11.3063 -2.26038
-30.0145 22.6061 -4.5457
-32.6106 23.0527 -4.80847
-10.3452 16.4539 -2.24599
-31.5521 -22.6927 -4.57258
12.9977 -10.5125 -1.95708
35.8325 -11.8407 -4.36702
6.34453 -10.3464 -1.39517
11.1985 -9.70422 -1.66969
16.4536 -12.2504 -2.31179
-11.0569 16.5795 -2.20692
6.76147 -12.5982 -1.56704
11.6063 -9.69241 -1.67473
42.7306 -10.9574 -4.8434
-39.0587 24.3535 -4.9402
44.8961 -10.4909 -4.96449
14.9242 -11.4601 -2.00208
-12.9475 17.4924 -2.23559
14.7817 7.82377 -1.6713
14.0121 -11.0538 -1.783
-13.9986 17.9036 -2.20449
6.4035 -12.2716 -1.33266
9.40758 -8.92347 -1.25338
17.025 -12.4488 -2.0586
-28.9123 -13.8158 -3.0187
-14.9756 18.3384 -2.20725
-37.1636 -72.4013 -7.57566
-34.0157 -21.2851 -3.5531
16.146 -12.0987 -1.8158
38.5326 -12.8211 -3.63486
11.1176 -9.88264 -1.22941
43.1375 -11.0254 -3.71373
-16.2481 -42.2821 -3.63856
-40.1301 -78.4691 -6.86589
17.6259 -12.8439 -1.72261
-30.2143 22.8671 -2.89832
7.44878 -9.17563 -0.914913
-32.8929 23.2839 -2.99366
-16.6348 -41.1518 -3.31754
-36.921 -69.4762 -5.59572
-35.8146 -71.731 -5.49275
12.5778 -10.4674 -1.10158
17.0787 -12.4392 -1.42848
-39.5088 24.5954 -3.04287
43.3927 -11.1096 -2.94043
-28.71 -13.5002 -1.89998
-40.4989 -78.2423 -5.33606
14.5161 -11.3167 -1.10921
31.1671 -20.5314 -2.03983
31.1381 -19.6251 -2.01213
15.3542 7.58309 -0.888468
14.7927 7.844 -0.860847
-12.8708 17.564 -1.10497
-24.7821 -54.687 -3.08519
-42.4524 -80.0088 -4.42375
9.65922 -9.09711 -0.663753
13.4572 -10.7018 -0.844622
15.9774 10.1641 -0.894554
16.2744 11.4069 -0.92526
6.83203 -12.5306 -0.678826
-20.0564 -5.91799 -0.897829
-29.9919 -53.4486 -2.70457
10.2353 -13.8183 -0.703
18.062 -13.0253 -0.910235
42.6115 -10.8846 -1.7503
-9.39856 -12.4308 -0.601217
44.1388 -10.3358 -1.78272
22.1878 26.6744 -1.18333
-32.7951 22.4185 -1.37672
-36.5706 -20.5073 -1.36498
-18.2938 -45.5923 -1.57887
16.4897 -12.3021 -0.671386
14.3936 3.89875 -0.439784
-26.0215 -59.7945 -1.95597
-22.8484 20.3531 -0.874022
-12.3805 -37.541 -1.06332
43.0271 -9.14024 -1.23013
-42.1623 26.2251 -1.34223
-54.6541 19.6527 -1.39124
43.7131 -10.1506 -0.96534
-31.092 23.4975 -0.778788
-30.511 9.7047 -0.669331
31.3676 54.9195 -1.16209
-30.3539 22.4021 -0.722376
12.9764 -10.6326 -0.290754
-34.7349 -21.6164 -0.634228
-30.7479 -61.8375 -1.02851
17.4967 -12.6182 -0.313515
-12.652 -38.2499 -0.520319
-14.2774 18.1244 -0.235046
-20.1709 -46.3571 -0.549895
30.2594 -18.9525 -0.322151
-22.8385 20.377 -0.207475
-9.93473 -12.7509 -0.048883
7.01935 -11.709 -0.0236462
14.6189 7.64489 0.000606738
-35.7473 -22.0738 0.22385
-23.9742 -40.9754 0.34949
-53.7743 29.4581 0.627385
6.68977 -11.8696 0.141139
8.00721 -9.10415 0.121171
-41.327 -21.9716 0.514503
-11.5192 -32.6214 0.385503
11.1017 -9.67754 0.193088
-23.2251 19.8446 0.402501
-12.4162 -19.2643 0.333108
-31.3559 22.3126 0.686093
-35.4069 -23.7374 0.762877
-34.9122 -25.7912 0.757341
10.6349 -9.55725 0.233323
7.78941 -9.60163 0.265701
7.89557 -9.21554 0.261868
-71.6309 24.804 1.77272
18.1018 -13.1402 0.544664
-28.8264 -8.66024 0.805744
-28.1257 22.0561 1.03024
11.5831 -9.92391 0.416056
17.263 -7.483 0.535792
-25.1318 21.3147 0.981819
-7.92063 -9.28818 0.388548
12.6844 13.7909 0.666549
6.13927 -12.6495 0.494773
8.90785 -8.76554 0.427091
24.5152 -4.34417 0.832784
18.4859 17.6537 0.923234
13.8029 23.8944 1.03803
-57.2789 18.8274 2.1714
24.3234 -4.72502 0.938809
-25.6036 20.9152 1.25047
9.37681 -8.92038 0.500403
22.3516 -3.07941 0.85251
12.1877 14.116 0.763687
14.7269 19.0288 0.985658
6.51349 -12.3496 0.573174
17.7963 41.1326 1.87168
7.6445 -11.0159 0.565299
-7.56648 -7.44825 0.469197
-8.30057 -11.484 0.633191
-29.7106 -11.7615 1.52205
16.3511 10.6147 0.971765
-7.74322 -7.20471 0.506637
15.2207 23.6468 1.45347
-6.96996 -8.2051 0.591918
14.4918 19.8445 1.34694
-26.2443 20.2088 1.83232
14.3484 23.3675 1.58825
-7.14288 -9.20768 0.66601
