ply
format ascii 1.0 
element vertex 1868
comment /media/mkaihara/Seagate Backup Plus Drive/model_iterations/model_7.ply
property float32 x 
property float32 y 
property float32 z 
end_header 
4.42 -10.763 -2.28574
-24.1177 -25.3932 -6.83451
3.55814 -10.8528 -2.23055
-31.4289 20.7663 -7.31514
-40.9227 25.7759 -9.44587
-17.2053 -41.4371 -8.68391
-32.0555 -19.5172 -7.14494
-22.0553 -26.1466 -6.5506
-12.1139 -34.9901 -7.07412
3.83469 -9.7797 -2.00405
-17.1376 -27.7581 -6.19871
-28.1647 -21.9805 -6.73679
-25.5469 -22.6849 -6.43219
-16.3607 -40.4389 -8.26431
4.29168 -10.0353 -2.07058
-31.4261 21.1775 -7.0506
-12.761 -34.8147 -6.95088
-19.1452 -43.5109 -8.75358
3.78805 -10.1345 -1.99003
-28.6346 -21.3722 -6.50451
-27.3707 -23.4681 -6.57145
-29.2266 20.5761 -6.43839
-16.8556 -22.3251 -4.97317
-15.3247 -37.9236 -7.30814
-27.5095 -22.1602 -6.21309
-17.301 -44.8069 -8.47276
-30.3314 20.1848 -6.37489
-12.5018 -35.2632 -6.57119
3.77011 -10.5819 -1.95573
14.643 8.12785 -2.90974
-30.8308 21.1269 -6.47759
-25.4508 -22.3065 -5.88636
3.86036 -10.5598 -1.94192
5.19188 -9.36468 -1.85022
-24.1682 18.9742 -5.30605
-27.3931 19.9232 -5.83799
-26.9986 -24.8679 -6.334
4.31452 -11.091 -2.04561
14.4762 7.80493 -2.83116
-17.6776 -40.6244 -7.54329
-18.7715 17.8602 -4.36885
-27.7397 -22.048 -6.00842
-23.6816 -19.5135 -5.21082
-14.9962 -37.1869 -6.80806
6.20656 -12.9956 -2.42423
48.0561 -13.5727 -8.46599
-13.8195 -36.895 -6.64242
-10.3411 -29.8232 -5.35446
46.8381 -12.1866 -8.14198
5.525 -11.8487 -2.16926
7.34359 -12.2005 -2.39922
-9.52395 15.1409 -2.89903
-26.8767 -20.805 -5.5383
48.4978 -13.0242 -8.1727
-20.0609 18.2231 -4.39283
8.11515 -9.77812 -2.00943
-32.4676 -22.4775 -6.22192
-15.3737 -38.0404 -6.52428
-20.7573 18.2507 -4.35656
9.85808 -9.31836 -2.12155
-21.7942 18.5791 -4.45261
-29.1876 20.5599 -5.51993
4.27474 -11.3131 -1.85091
-28.2649 -21.8542 -5.46022
-10.5892 -31.956 -5.17998
-27.6662 20.134 -5.198
-15.1716 -35.2265 -5.86095
-16.8642 -40.5936 -6.70168
-7.00912 14.1912 -2.38326
-29.4552 -20.6995 -5.42275
-28.7891 -21.1649 -5.41306
-24.4201 -22.9123 -5.03924
-29.2945 -21.0838 -5.41221
-27.6129 -22.1033 -5.28642
-24.2363 -21.5315 -4.83022
-30.6988 -20.504 -5.47843
-22.3899 18.7953 -4.30658
-29.1412 -21.8068 -5.36255
-28.3139 -21.441 -5.24362
-22.9687 18.9269 -4.35112
-35.5547 -21.7759 -6.09153
-27.6991 -22.9809 -5.26862
-9.51361 -31.5395 -4.83767
-11.5688 15.8247 -2.8216
-7.03587 14.0745 -2.24104
-44.1759 24.4901 -7.21595
3.91778 -10.6644 -1.60995
43.4663 -14.2955 -6.50827
-29.4432 -21.6884 -5.17157
-27.0328 -21.4842 -4.85853
-24.5643 -22.6555 -4.73294
-20.3188 -42.9469 -6.74939
-26.5044 -22.3546 -4.88155
-18.0216 -41.5517 -6.32975
-15.5515 -37.4763 -5.66017
-6.24689 13.8396 -2.05843
-12.8085 16.3645 -2.81691
-8.83355 -30.9339 -4.38885
-6.80056 13.7818 -2.06113
-17.0688 -44.4394 -6.44784
-20.2485 18.4144 -3.64274
-18.2649 -41.4028 -6.01791
-27.6731 -21.3618 -4.613
51.9929 -11.9809 -7.01889
51.127 -11.2395 -6.89844
-10.1916 -31.6789 -4.38066
7.27664 -11.9912 -1.83996
-13.7035 16.7848 -2.81802
-20.637 18.1764 -3.56281
-29.4182 -15.7892 -4.30671
-28.7686 -21.4766 -4.62008
11.0826 9.09161 -1.8557
-29.7726 20.4712 -4.63606
-26.429 20.1117 -4.18385
-27.3354 -21.401 -4.37805
-10.1071 -28.7623 -3.86022
-23.9177 -48.7643 -6.80464
10.2779 -9.619 -1.75471
13.6941 -11.1916 -2.22455
-29.8218 20.9203 -4.55214
-31.865 -19.8516 -4.6733
-26.9446 -22.2706 -4.34205
7.3673 -11.2037 -1.66962
-29.1288 -20.5887 -4.41817
-10.2597 -32.0143 -4.14142
14.1525 -11.7978 -2.2597
47.5003 -12.3456 -6.06184
-14.7636 16.9964 -2.7501
-12.6879 -30.7583 -4.07126
-8.04078 14.3738 -2.00414
-23.6582 -12.9778 -3.28762
49.8024 -11.4724 -6.19075
15.6322 8.16133 -2.12332
9.99928 -9.48761 -1.6438
-29.7863 -20.7818 -4.30444
-16.2236 17.6331 -2.80208
-19.524 8.64022 -2.52929
-27.9836 -21.664 -4.17183
-18.8288 -42.6639 -5.48253
12.0329 -10.351 -1.85673
47.9833 -12.8454 -5.85071
15.8346 -12.2948 -2.30249
15.5474 7.99262 -1.99271
-26.6142 20.2403 -3.81212
7.9369 -12.0517 -1.63387
-9.40892 15.0222 -1.98375
10.0688 -9.9265 -1.57219
13.6772 -11.2335 -1.97197
15.0069 -11.8448 -2.12501
10.0569 -9.69848 -1.54904
7.66482 -11.3498 -1.49706
51.0479 -11.1492 -5.69037
-10.0172 15.0478 -1.94816
-29.3343 20.6853 -3.89589
12.504 -10.5057 -1.76204
6.97483 -14.3395 -1.67198
8.27368 -12.6631 -1.57066
10.4552 -9.45479 -1.48179
-11.5621 -33.4144 -3.71108
17.9267 -13.2755 -2.33803
-22.3561 -44.916 -5.20526
15.4848 7.79816 -1.77704
-27.3752 -21.8166 -3.59336
14.8464 -11.7467 -1.93885
-34.5602 20.0713 -4.01316
-28.0397 -21.6891 -3.58426
15.4761 8.08687 -1.75953
-11.6334 15.5582 -1.90825
-26.4563 -16.2644 -3.114
-15.0716 -38.2154 -3.98297
9.83023 -9.2577 -1.27759
-48.4783 26.8863 -5.32762
-23.4524 -47.3777 -5.06117
-21.1386 18.4918 -2.65241
-27.1996 -22.2818 -3.33977
-27.144 -22.5467 -3.36058
-15.582 -40.7766 -4.11823
-12.8712 16.4704 -1.95593
-27.5371 -21.5437 -3.26031
-12.01 -32.7154 -3.24888
-10.4069 -32.3497 -3.17311
10.4419 -9.67847 -1.32194
-29.6932 -18.719 -3.20888
-24.1181 -46.9826 -4.86483
9.09238 -9.19563 -1.17312
17.8579 -13.3058 -2.03633
-13.6713 16.7711 -1.94054
-31.6299 -19.6727 -3.36752
-29.2925 20.6821 -3.15676
-27.2827 -22.0104 -3.09501
15.0981 -12.0084 -1.71152
-28.7244 -17.5037 -2.86712
11.7816 -10.3394 -1.3339
-23.8968 19.3844 -2.58357
-8.86507 -27.5947 -2.45167
9.99404 -9.5828 -1.16166
-29.926 20.5755 -3.0161
-36.2182 -67.2969 -6.36038
9.22614 -9.22795 -1.071
18.1413 -13.2306 -1.83344
-12.7949 -33.2491 -2.86395
-16.2631 -37.2039 -3.17785
-12.1212 -29.925 -2.5597
-10.4171 -29.2304 -2.46664
9.78382 -9.50814 -1.07116
12.039 -10.4364 -1.24845
16.0222 -12.5323 -1.60967
-26.6229 20.3026 -2.60445
-26.6656 -12.4466 -2.28362
12.6692 -10.7333 -1.28639
-17.4468 -38.8577 -3.26157
13.693 -11.3659 -1.34756
-28.34 -53.768 -4.39489
10.5812 -9.71144 -1.04038
11.6362 -10.3868 -1.08665
-29.5835 -18.365 -2.40531
12.7709 -10.7335 -1.15468
15.8566 -12.4849 -1.40218
-12.1813 -30.7811 -2.25242
-11.7597 -31.1111 -2.27976
10.5894 -10.0056 -1.03789
20.2456 -14.6313 -1.65787
-21.0552 18.4356 -1.85719
-18.1944 -41.9744 -3.02307
-12.6754 -37.3827 -2.59879
13.7955 -11.3486 -1.19382
-11.2763 -31.2856 -2.16086
16.4636 -12.431 -1.34024
-23.268 -47.1112 -3.29594
-10.9971 -34.0884 -2.22536
-29.08 20.5436 -2.17838
-23.7168 -46.9018 -3.1948
-13.2491 -32.2744 -2.12584
35.3677 -23.4489 -2.58244
47.7156 -12.4433 -2.99715
40.6403 -9.79825 -2.5362
-11.7164 -31.4578 -2.02719
-12.6642 -17.3681 -1.26232
-24.1594 19.6081 -1.76392
-26.4057 -13 -1.69787
-28.4462 -54.9676 -3.51621
-12.2621 -31.9459 -1.90696
18.3312 -13.6784 -1.28117
-24.6774 -14.8497 -1.54742
48.3048 -10.7598 -2.54925
-8.72485 -11.6574 -0.738508
-11.9078 -31.691 -1.68412
6.54928 -14.2944 -0.778762
-12.9795 16.4547 -1.02269
-11.0197 -34.6391 -1.78323
15.5052 8.13518 -0.848484
-30.7746 20.8626 -1.7856
-12.6657 -32.4677 -1.65371
-10.5464 -34.3018 -1.69122
20.4076 -14.4796 -1.19939
-12.6053 -36.5603 -1.8011
41.0147 -10.0733 -1.98252
-26.2785 -13.437 -1.31738
-17.9361 -41.0993 -1.98398
-12.9291 -31.8119 -1.52564
10.2799 -9.70079 -0.630248
13.4926 -11.0746 -0.783619
50.4433 -11.5419 -2.30558
-10.587 -32.2069 -1.4404
-29.0254 20.5192 -1.48014
-45.2905 24.5977 -2.05427
-29.9024 20.5791 -1.33179
-14.0241 -36.6756 -1.4694
-30.673 -19.315 -1.29089
10.3691 -9.65016 -0.521091
7.27099 -11.9234 -0.483946
-10.036 -29.9187 -1.04116
8.39731 -14.7403 -0.578226
20.2849 -14.3676 -0.840147
-19.5587 -42.8386 -1.54407
-10.4158 -29.5514 -1.0117
23.5212 27.1299 -1.16378
-20.8909 18.5471 -0.880566
-17.036 -42.6822 -1.46446
-32.9409 -62.8282 -2.18993
-15.375 -39.3743 -1.30511
23.1045 -15.7561 -0.850806
-88.0791 33.5109 -2.85819
-25.2529 -12.9953 -0.857505
-9.73641 -31.1604 -0.966706
-21.7589 18.4892 -0.820865
-17.5165 -40.3125 -1.24379
-13.0735 -35.3829 -1.083
24.3874 -10.9746 -0.808939
-30.6369 -18.667 -0.987339
-9.08736 -11.9225 -0.426772
-16.9509 -39.9765 -1.21926
19.6674 -14.652 -0.624962
39.6361 66.1571 -2.0213
-26.7585 20.4171 -0.865841
-27.7661 20.3094 -0.851218
-24.9683 -11.9967 -0.67551
10.1755 -9.57577 -0.33881
-17.527 -28.2311 -0.769652
-27.1439 -45.5827 -1.22382
-35.9869 12.4835 -0.831643
23.3132 -15.5993 -0.596587
-45.9813 16.5845 -0.90046
20.1094 -14.498 -0.466047
13.7368 -11.2854 -0.29706
-6.564 14.2091 -0.275595
-30.2671 9.5723 -0.523919
-85.8515 38.5357 -1.38797
-25.8882 -12.3278 -0.450289
-32.8419 -18.7031 -0.568562
-13.9376 -34.1682 -0.564353
-7.10973 14.9532 -0.226698
-28.7048 -21.4431 -0.491117
-12.14 -34.5465 -0.495305
-29.9823 -20.4391 -0.45876
-24.5039 -49.5111 -0.673637
18.8145 -14.0375 -0.285866
19.858 -14.2978 -0.311395
32.6482 -20.1321 -0.513342
-15.5534 -39.8362 -0.510537
-26.9108 20.5177 -0.361961
-33.2267 -18.573 -0.414595
-20.4298 -43.5965 -0.503092
-14.5608 -33.3979 -0.383077
-45.0563 24.693 -0.427197
-25.2752 -44.5878 -0.461978
-14.7312 -38.6381 -0.38456
41.9108 -10.1251 -0.400661
-13.0705 16.5907 -0.150371
-23.6818 -52.7374 -0.383272
-13.8806 -33.6686 -0.240641
-20.8539 -40.1915 -0.21878
20.317 -14.4097 -0.1247
-27.0412 -8.40875 -0.160725
10.1856 -9.58459 -0.0446878
13.8124 15.8084 -0.04914
15.4028 8.10904 -0.0342495
-26.9008 -12.0007 -0.0493292
-25.5104 -18.6629 0.0114261
-10.6278 -15.4745 0.0260417
-26.7368 -8.08957 0.0760176
-11.5705 -17.4159 0.0435745
-14.5947 -33.5026 0.159282
10.0437 -9.56261 0.0618717
-29.0699 20.5735 0.183704
-15.8332 -39.9717 0.218627
-82.1432 37.33 0.521775
-84.9278 33.9607 0.57117
-27.5095 -12.7673 0.186466
18.236 -13.3058 0.124543
-11.7396 -17.9999 0.144356
15.8487 -12.3459 0.156457
-45.9504 16.4638 0.433091
7.90181 -13.5778 0.13063
17.2684 -12.796 0.180764
-32.2545 -19.518 0.401932
42.6728 -8.77061 0.448547
-31.268 -19.5947 0.426721
-10.0177 -27.671 0.350888
-45.6881 25.0594 0.691598
-10.4398 -28.0777 0.370499
-9.00333 -25.9279 0.340964
-7.76876 -24.0386 0.312246
35.1634 71.2068 1.01587
10.1985 -9.59271 0.179452
-11.468 -17.7709 0.292319
-8.6382 -26.2235 0.38552
9.09564 -9.03598 0.192769
-26.4198 -12.0048 0.381481
7.1761 -14.6816 0.236235
7.83762 -12.0777 0.21824
9.94538 -9.64148 0.198482
8.57849 -9.73397 0.205933
10.3398 -9.57408 0.230456
42.0351 -9.00565 0.700278
-21.6513 18.5678 0.508726
-29.483 -19.8358 0.617887
-30.3034 -22.2329 0.665352
13.836 -11.3663 0.291613
14.1782 -11.4359 0.339474
-9.22557 -11.6972 0.283908
7.52734 -12.337 0.280019
8.55477 -10.0543 0.257904
35.7153 73.505 1.62
7.65388 -12.031 0.284908
9.74149 -9.21729 0.283155
12.3061 -10.5775 0.353714
18.2875 -8.16784 0.400648
7.8928 -11.9756 0.322754
-8.79367 -11.3516 0.365956
-11.4866 -17.6335 0.507481
8.19141 -9.97296 0.29224
8.38924 -10.0328 0.301845
-23.1272 19.4386 0.782309
-26.6982 -8.56142 0.707227
10.223 -9.51204 0.357322
18.9849 -13.869 0.590463
19.9394 -14.3576 0.608768
-20.8839 18.2849 0.720717
-24.9304 19.7036 0.827257
-26.7282 -8.02171 0.734127
-29.8303 -15.9051 0.923901
-11.9784 -18.0885 0.581612
15.8851 -12.3427 0.534607
24.1618 -3.51532 0.683231
-24.9711 -17.7609 0.876457
-10.9815 -17.1238 0.593266
26.7429 -5.0659 0.788231
18.2793 28.3696 1.00383
-25.1851 -18.5532 0.931685
7.9416 -12.4403 0.440943
7.61448 -11.6936 0.422816
16.3861 26.6948 0.954523
-7.22145 -8.34437 0.339273
13.9582 -11.4214 0.548581
-6.90217 -8.97089 0.348689
-26.4333 -7.46063 0.917513
-10.7962 -15.7816 0.64482
8.429 -10.0122 0.430982
16.947 11.5789 0.730046
11.5552 -10.0616 0.554412
12.6972 -10.728 0.603427
29.5664 59.5388 2.48432
-55.5337 20.2765 2.20083
-7.08162 -7.73115 0.393646
10.2499 -9.51486 0.519958
24.2351 -3.40242 0.93553
36.7182 75.9118 3.25014
-47.6278 19.0341 1.9941
-7.00464 -9.29708 0.457665
11.107 -10.13 0.587459
13.6217 -11.2503 0.711385
22.8133 -2.79563 0.933141
14.8579 20.1802 1.06132
-26.411 -16.0229 1.26892
-11.3354 -18.0024 0.905198
9.27809 -9.23641 0.538835
-6.56173 -8.0229 0.447504
10.0223 -9.48077 0.5745
13.3988 15.3815 0.895979
-26.7173 -7.84082 1.22735
15.9205 20.737 1.16917
16.9113 29.1188 1.4937
27.1173 53.3289 2.63542
7.17669 -15.9903 0.777345
11.5447 -10.1283 0.692147
19.3791 -1.71962 0.886414
23.4933 44.7347 2.36095
16.8836 29.7496 1.59721
-10.8701 2.69655 0.538803
-6.82362 -8.99403 0.546913
9.74381 -9.55019 0.64379
12.0673 -9.25807 0.709814
21.1861 -2.42761 1.02344
12.1477 12.3806 0.857004
20.1487 48.4585 2.57176
8.23734 -9.75868 0.614151
8.3173 -10.1369 0.642865
10.8318 -9.86526 0.72303
16.273 27.5959 1.59797
24.55 47.6117 2.7101
22.1876 -2.76377 1.133
-7.0273 -8.07328 0.557473
9.96984 -9.49243 0.714296
18.5654 27.2259 1.72467
19.0493 34.5356 2.05152
13.9333 -11.4847 0.956632
11.035 12.9005 0.903757
15.3694 20.8636 1.38658
11.7927 -10.2254 0.841357
16.2417 21.1621 1.4656
-23.8313 18.2688 1.63811
-6.61982 -7.76622 0.566684
10.7174 12.9578 0.937593
-6.85326 -8.84703 0.629365
10.4481 13.0158 0.963952
-25.1621 17.7155 1.74482
6.95147 -14.6792 0.925521
11.6816 12.6286 0.984545
-6.59066 -6.50421 0.538722
11.7773 12.5591 1.0096
-6.45676 -7.97834 0.616604
7.05987 -14.19 0.921866
15.8426 21.0794 1.58022
15.6147 25.5307 1.7797
15.8087 36.5379 2.38341
-5.99058 6.38072 0.535358
-7.79388 -7.38486 0.65154
-6.76519 -7.76074 0.634548
6.51054 -14.157 0.93763
-7.16517 -6.59661 0.607707
7.68425 -12.2427 0.890263
7.60853 -11.4984 0.857214
12.0847 -10.4314 0.983092
12.951 -10.834 1.04345
16.9004 7.48521 1.17337
16.0864 20.8397 1.6603
-6.95007 -6.05669 0.599579
10.9216 -9.9748 0.951706
-7.08889 -6.01367 0.611433
12.0007 12.6635 1.18463
10.5904 23.8417 1.77231
-6.85413 -9.09824 0.763993
12.1863 13.2177 1.22912
-6.73607 -4.31637 0.551345
-6.41404 -7.79001 0.690569
-6.49064 -4.29502 0.537862
9.84628 -9.41351 0.945397
10.5399 -8.26917 0.940836
13.5166 17.0364 1.56789
-6.39826 -6.39133 0.63015
10.3721 -8.75862 0.989732
12.27 18.3471 1.65506
12.265 19.5548 1.72002
10.3776 19.7525 1.67875
9.85794 21.3052 1.76193
8.29942 24.7374 1.95863
11.6375 20.0878 1.76451
10.5428 -7.99874 1.0089
-6.71842 -6.87215 0.738586
-16.3373 -5.92533 1.36142
9.97895 -8.08978 1.00404
10.1283 20.23 1.78196
-6.18676 -4.13063 0.590821
-6.48939 -7.81027 0.807636
5.07299 -6.01559 0.622782
9.87657 21.7306 1.88971
8.50652 20.7996 1.80376
5.27383 -6.07805 0.645479
13.3556 12.0519 1.45356
12.3098 12.3654 1.42473
7.24738 -10.1099 1.00745
12.7852 12.2292 1.45026
7.41836 21.7789 1.88078
-6.16094 -4.25272 0.611232
-6.75678 -8.94265 0.923185
12.0726 12.6485 1.44274
10.8339 9.47798 1.2221
-4.62842 -10.5612 0.978784
5.63257 -6.0464 0.731709
6.41492 -6.33109 0.783774
9.68173 -7.54215 1.05248
-6.51645 -6.41842 0.779147
10.9096 12.9293 1.47308
9.2492 -7.7066 1.04344
11.3173 12.7583 1.48878
-6.97214 -7.40603 0.894296
8.61548 -7.66962 1.02101
10.6817 13.0566 1.5129
-6.74395 -7.38324 0.889208
-6.58996 -7.92197 0.927704
11.0857 12.8868 1.5399
11.0436 14.246 1.62942
-6.7625 -7.9135 0.951131
11.6772 11.2798 1.48961
-6.12416 -4.10328 0.679037
-6.50563 -8.14813 0.95703
-6.13352 -4.25873 0.689551
11.4571 8.84221 1.35448
11.015 9.65665 1.36225
6.95393 16.5196 1.68338
11.5143 11.4481 1.51177
10.9481 11.7785 1.51806
-10.9149 2.79734 1.06413
6.44173 -6.24036 0.851969
8.38793 -6.95339 1.04332
11.1176 9.52069 1.41739
9.97348 13.1234 1.59265
10.161 13.0403 1.62534
8.0165 12.8212 1.49912
8.31704 13.9041 1.60979
11.5968 8.328 1.45152
7.49007 13.3288 1.54029
9.43343 11.8224 1.53573
7.38349 14.2948 1.64401
6.23359 14.8127 1.64775
9.54366 10.8805 1.49261
9.44824 12.872 1.65587
11.7615 7.90926 1.47502
9.58158 10.3626 1.46618
5.22062 -6.10879 0.859202
-6.62789 -4.50751 0.847043
5.92889 14.772 1.68762
-6.83765 -4.36499 0.866621
9.27063 11.1085 1.55036
-6.48565 -6.49494 0.984304
6.17845 -6.09792 0.934417
9.99652 8.80172 1.43236
9.25539 9.66746 1.4363
9.60024 10.7024 1.5556
5.10891 14.8075 1.68916
4.59131 -8.72941 1.0634
6.71922 11.2414 1.43864
-6.60429 -3.81079 0.840589
6.63887 12.4483 1.56297
-6.69679 -3.75156 0.851663
9.98557 7.4095 1.38724
6.95124 11.8638 1.52889
10.0816 7.22869 1.39038
5.68592 12.1215 1.51185
5.71135 12.7 1.57087
4.959 12.9058 1.56278
10.1056 6.86886 1.38932
-6.6749 -4.41964 0.918464
7.73964 -6.50934 1.14939
-7.17651 -0.768508 0.827847
-6.05517 -5.20163 0.921348
5.48771 -5.82057 0.919665
9.13098 8.11788 1.42032
4.72117 -7.67416 1.03928
10.6904 5.29272 1.39367
9.21632 8.01794 1.43288
5.4407 -5.87035 0.942104
8.84707 8.14388 1.42378
9.18786 9.3476 1.5304
-6.79444 -5.44773 1.03261
10.3992 4.86971 1.36488
-6.72016 -3.74093 0.928125
9.37122 6.29998 1.36643
5.45074 11.9483 1.5902
-6.71414 -2.98554 0.893923
-6.69486 -3.1648 0.89668
5.12922 -6.25462 0.983504
6.25907 -6.42098 1.08816
9.60707 5.76272 1.38174
8.68527 7.41523 1.40898
-6.73923 -4.17925 0.978489
-6.66649 -4.39277 0.985708
8.50748 8.84425 1.51958
5.2626 11.8357 1.6067
-6.31546 -5.41624 1.03766
4.0158 -8.19753 1.132
8.74014 7.95885 1.47614
6.34008 -5.8591 1.07888
9.39764 6.214 1.42462
-5.91988 -5.22353 0.998386
8.76375 6.77995 1.41002
8.3027 7.709 1.43832
-6.93984 -1.74205 0.915883
-6.84607 -2.25056 0.921255
-6.2236 -5.13549 1.03162
9.03868 5.79506 1.37339
8.38633 8.27395 1.5155
-7.10512 -1.2255 0.925076
-6.69353 -3.99658 1.00952
7.59403 6.3573 1.27986
8.28275 7.21932 1.42182
8.19446 8.35555 1.5137
-6.73581 -2.75443 0.948531
-6.73431 -2.88963 0.948561
4.72914 10.473 1.50854
9.19617 4.20186 1.32775
-7.08429 -1.56955 0.954261
7.0697 -4.40208 1.10364
5.17204 -6.23647 1.07028
-7.17375 -1.09245 0.971858
-6.84853 -2.14698 0.960989
-6.88308 -2.21407 0.966909
-5.8122 -4.26389 0.965151
5.46852 -6.91776 1.17109
7.13983 -4.31435 1.11987
8.28 7.35386 1.49737
-6.98925 -1.67887 0.967106
-6.91888 -1.91009 0.966216
8.99087 4.96397 1.39185
8.52336 6.00832 1.41489
-6.72875 -3.51816 1.03616
9.06057 4.25264 1.3698
3.50622 11.0206 1.5825
-7.15282 -1.17327 0.992821
-5.82607 -4.30519 0.998171
-5.80447 -4.39895 0.998957
7.37692 -4.05978 1.15412
8.26373 6.64025 1.46325
5.52148 9.33255 1.4995
-6.19059 -4.19148 1.02671
5.15839 -5.77743 1.0721
7.41253 -3.95047 1.1658
7.79562 -3.80102 1.19685
3.77101 10.4623 1.5475
3.5914 10.807 1.58688
-7.20889 -1.05816 1.01778
-6.90921 -1.95679 1.0016
5.18793 -5.51606 1.05485
7.47305 -3.85396 1.17807
7.59145 -3.78578 1.19996
8.1106 -3.45768 1.25022
-6.98958 -1.83103 1.02846
-6.82681 -2.86921 1.07447
-5.82569 -4.2405 1.03824
8.12886 -2.86064 1.25768
8.40548 4.71798 1.4093
5.13638 8.79922 1.49135
8.54713 4.60295 1.43178
8.03853 -2.40258 1.23365
7.29299 5.80578 1.3932
3.08285 9.84117 1.54129
-6.92835 -1.97199 1.08061
7.70119 -3.19964 1.25398
8.40059 4.64293 1.45198
5.9241 7.61897 1.46321
5.42028 7.8198 1.4477
5.25937 8.14862 1.47111
5.21412 8.2641 1.47688
7.54721 -3.26166 1.25253
7.8943 -2.8329 1.27402
-6.60882 -1.64578 1.02669
8.03922 -2.31628 1.2798
7.38166 5.5364 1.41412
-6.93875 -1.90672 1.11769
-6.7459 -2.71547 1.13159
6.94918 5.63678 1.40086
-7.19531 -1.07148 1.13696
-6.98023 -1.78185 1.12924
-6.8817 -2.01875 1.12476
-6.95702 -1.82897 1.12984
-6.71876 -2.85887 1.14768
4.92477 7.63624 1.44311
3.65477 -6.39339 1.17065
-7.11571 -1.27042 1.15874
3.72533 -6.02415 1.13603
3.75861 -5.91549 1.12327
7.21303 4.86228 1.41476
4.77327 7.55482 1.45248
-6.90647 -1.97599 1.17184
-6.92914 -1.90154 1.18015
7.10586 4.92417 1.42707
3.92451 8.15313 1.49664
6.22641 -3.41378 1.17954
6.7621 4.96784 1.39638
4.7707 7.33262 1.45731
4.02164 -5.55457 1.14795
7.24635 4.51259 1.43463
7.61899 2.9136 1.37566
6.44471 5.38771 1.42115
-7.11999 -1.22787 1.23123
6.87839 4.15886 1.37771
-6.29269 -2.70365 1.17006
5.67551 -3.7385 1.16398
5.8584 -3.62166 1.17909
2.83903 8.0914 1.4817
-7.21336 -1.01668 1.26373
5.49918 -3.90008 1.17165
-6.16762 -2.208 1.13718
-6.12601 -2.36034 1.15082
4.44988 -4.84727 1.14652
4.66088 -4.64236 1.14997
4.75992 -4.61098 1.15868
-6.65125 -1.69402 1.21012
4.42218 6.63457 1.42043
-7.00933 -0.908369 1.26417
-6.00553 -2.20642 1.14089
6.75812 3.75815 1.38347
6.20674 4.43832 1.38145
3.7869 -5.58793 1.22258
5.24422 5.79195 1.42689
2.58312 7.39231 1.47019
6.59487 3.10407 1.3754
-1.60347 -5.44099 1.07888
6.56188 -1.41466 1.2705
6.37499 2.8232 1.3396
6.31746 2.41967 1.34692
-4.39961 3.89316 1.37961
4.37675 3.57661 1.34953
4.25824 3.32911 1.33568
4.75334 -1.70891 1.26491
4.90448 -1.40498 1.27293
-2.12701 4.76373 1.30082
3.82318 -3.02805 1.24964
3.75634 -2.60619 1.21659
3.49486 -3.03694 1.25301
4.04181 2.59351 1.33946
-2.51594 -3.42821 1.2166
-2.25282 -3.45981 1.18186
3.78643 2.0751 1.31002
3.76266 1.99668 1.30935
-2.82538 3.46426 1.37754
-2.24309 -2.36372 1.16279
2.00697 -2.84946 1.23826
-2.11724 2.75913 1.32014
-2.02329 2.74831 1.32684
2.2918 -1.90156 1.24246
2.41736 -1.52006 1.23671
-2.00851 1.87077 1.29149
-2.02897 -1.41836 1.21006
1.47768 -2.10399 1.26219
-1.96219 -1.0712 1.19858
-1.89979 -0.698155 1.20643
-1.90166 -0.694068 1.23184
-1.93399 -0.340042 1.21726
-1.86967 -0.557421 1.21713
-1.86962 -0.524112 1.22236
8.54507 -9.03483 -7.74648
12.7517 -10.8125 -9.24161
-8.22738 14.6763 -6.52056
22.2695 27.1349 -12.631
-8.55601 -2.45 -2.50946
-19.8995 -50.4789 -11.8758
-30.5155 -20.3841 -6.7785
-30.2472 -19.7805 -5.33089
-29.958 -20.3586 -5.37739
-27.9966 -17.9552 -2.49783
-27.4042 -52.9159 -3.85881
9.87752 -9.40831 -0.417252
-6.95582 14.9939 -0.409051
-27.0654 -10.473 0.672778
-6.57227 -7.85479 0.439431
18.534 26.616 1.75555
12.1466 17.0836 1.72967
-6.4245 -6.39898 0.850077
4.4773 12.9925 1.58238
9.02099 9.39697 1.52058
8.22089 -9.02503 -10.683
8.40611 -8.30585 -10.2244
9.11765 -8.80559 -10.819
7.16242 -12.2611 -11.821
7.0786 -11.6646 -11.192
8.41558 -8.52144 -9.82322
7.21911 -12.3372 -11.6118
7.28694 -11.2929 -10.7552
8.26845 -8.64628 -9.49299
8.37644 -8.37954 -9.35726
6.93894 -11.6136 -10.5827
6.64496 -12.0303 -10.4981
8.0211 -9.13959 -9.25904
6.38182 -14.6756 -12.099
8.59336 -8.99983 -9.40768
6.49399 -12.2448 -10.4563
6.3276 -12.4085 -10.3755
7.76359 -9.77508 -9.30832
8.18041 -9.35385 -9.21457
10.913 -9.84413 -10.9182
6.27315 -14.4186 -11.6125
6.23645 -13.9246 -11.2089
6.31242 -12.9117 -10.5599
9.55227 -9.15875 -9.69644
9.64379 -9.41457 -9.81811
6.04035 -12.8415 -10.2981
9.72339 -9.32906 -9.60552
7.1173 -11.5181 -9.59662
5.77789 -13.3017 -10.254
10.0946 -9.45058 -9.78807
7.88705 -9.67247 -8.7636
10.4166 -9.56431 -9.92326
11.3761 -9.88414 -10.5632
9.81442 -9.4244 -9.42117
11.9631 -10.1341 -10.5178
8.7022 -8.92484 -8.24253
7.72203 -9.65085 -8.15544
8.49191 -9.05583 -8.19498
12.7147 -10.8895 -10.9435
7.92947 -9.70942 -8.19041
-8.72558 -1.94381 -5.83015
8.14703 -9.76215 -8.13848
8.6484 -8.86328 -7.90618
0.336619 15.6659 -9.99839
7.83269 -9.69011 -7.91813
11.4104 -10.04 -9.6524
7.53729 -11.1458 -8.50354
8.47899 -8.82647 -7.7086
4.70459 -15.6339 -10.2611
9.04057 -9.01774 -7.89112
9.22392 -9.00168 -7.95485
10.7963 -9.92473 -9.11649
8.23867 -9.38388 -7.69226
4.1021 -18.137 -11.4494
8.52438 -8.96259 -7.5519
4.11685 -17.3252 -10.8628
0.126719 14.676 -8.93037
6.93745 -11.7191 -8.27942
8.05209 -9.62695 -7.60482
10.6143 -9.75616 -8.73669
13.2261 -10.6456 -10.3409
7.10796 -11.7035 -8.20859
8.39672 -9.57822 -7.63558
11.8204 -10.1653 -9.31019
5.5804 -14.2673 -9.07598
8.0564 -9.64027 -7.44027
9.75493 -9.41609 -8.02387
7.20281 -11.579 -8.05903
8.31704 -9.49949 -7.3984
10.1988 -9.60092 -8.15275
15.3964 7.69552 -10.004
9.05124 -9.2151 -7.45364
7.23379 -11.4208 -7.75826
2.71575 -11.4604 -6.76636
8.19535 -9.44919 -7.15364
7.71271 -9.17263 -6.79467
10.0532 -9.56011 -7.87037
11.3013 -9.93598 -8.47901
0.111783 15.1186 -8.52829
3.24647 -20.1972 -11.5057
7.08752 -11.4241 -7.52612
10.5843 -9.72455 -8.03929
13.0227 -10.9221 -9.52023
9.65555 -9.40519 -7.52225
4.77241 -14.7141 -8.61435
8.91066 -9.05703 -7.04171
8.36833 -9.62722 -7.07407
6.31099 -12.7967 -7.84407
15.3189 7.83392 -9.45343
10.1519 -9.52758 -7.63646
0.80746 17.2841 -9.45104
2.7008 -19.3461 -10.6545
11.68 -10.1155 -8.37952
4.40469 -14.936 -8.4184
15.2238 7.96366 -9.26173
15.6884 10.8357 -10.2471
14.5201 8.01266 -8.86877
11.5013 -10.0958 -8.12827
14.0345 -11.4239 -9.61527
3.00192 -18.8798 -10.0525
11.9448 -10.3291 -8.02545
2.13702 -19.8046 -10.0575
10.7954 -9.824 -7.33007
15.112 -11.947 -9.66184
14.6601 -11.8532 -9.42697
11.5974 -10.1677 -7.67433
7.87188 -9.78057 -6.20755
3.69659 -8.75868 -4.67709
-8.4646 -1.85819 -4.26336
2.16923 -19.403 -9.58146
4.6883 -9.59439 -5.21493
0.384686 13.5262 -6.62576
7.97289 -9.70614 -6.11978
-8.02845 15.3025 -8.36003
-8.93413 -2.36161 -4.45532
8.69208 -8.55072 -5.92715
10.6754 -9.75978 -6.99286
15.968 -12.3268 -9.68343
20.2949 5.80783 -10.101
-9.99021 -2.47327 -4.87039
1.88009 -19.9187 -9.51735
18.1535 17.0682 -11.8162
1.97168 -16.479 -7.83087
3.74818 -9.08671 -4.61929
7.99145 -11.7997 -6.7133
21.0154 5.67335 -10.2568
14.8649 -11.7635 -8.80568
2.99687 -17.578 -8.28593
20.283 6.00216 -9.77791
19.1425 -13.9457 -10.9289
10.1455 -2.56231 -4.83326
21.295 5.39836 -10.1414
18.2989 17.2164 -11.5923
1.76788 -19.428 -8.93358
10.1434 -9.47963 -6.34914
10.5433 -9.62691 -6.57648
-8.95538 -1.62517 -4.15311
9.73707 -3.57232 -4.72128
7.09812 -11.9487 -6.30983
10.1984 -2.69341 -4.78276
21.1565 20.469 -13.2837
20.1709 6.15159 -9.49993
18.7934 18.6505 -11.9186
2.33377 -19.1497 -8.67084
9.64073 -3.17537 -4.56669
16.496 -12.6903 -9.32945
7.44616 -12.2172 -6.38791
7.53602 -11.4892 -6.11395
9.8478 -3.50702 -4.6561
-9.44969 15.4729 -8.06341
18.9571 -13.8311 -10.4171
20.4804 5.90074 -9.45266
16.7652 7.60583 -8.15909
18.9222 19.1225 -11.9138
12.9332 -10.9089 -7.43172
17.5654 -13.0596 -9.63701
-10.51 15.9712 -8.39357
-6.21534 14.1836 -6.78116
-5.13519 4.81657 -3.06708
21.1386 5.74034 -9.52857
9.84747 -3.50758 -4.50918
19.3855 19.6583 -11.8828
16.915 -13.0128 -9.17327
15.4247 7.71401 -7.367
4.02281 -9.72166 -4.46106
-10.4659 15.9061 -8.05156
7.33719 -11.5089 -5.74478
-13.0878 3.20775 -5.67673
0.727346 -21.0205 -8.87234
16.8425 -12.7472 -8.82448
-5.05514 5.56613 -3.1448
0.966084 -20.8656 -8.76502
1.21495 -20.0044 -8.40031
14.6839 7.87734 -6.97632
19.7988 20.6436 -11.9681
3.95945 -9.34789 -4.22498
15.3316 8.02487 -7.20999
19.0807 20.3898 -11.6054
-9.25085 -1.06133 -3.84552
4.16971 -8.8249 -3.99177
14.5462 8.03394 -6.82838
7.24243 -11.612 -5.58461
-13.1324 2.45344 -5.4649
-7.50498 14.5252 -6.63532
20.6806 22.4834 -12.3944
15.6595 7.52584 -7.0067
10.1193 -9.03355 -5.4823
-5.01819 13.6789 -5.83445
19.3435 21.6513 -11.3922
14.8698 -11.7532 -7.41522
4.19201 -9.65689 -4.12181
1.52337 19.4101 -7.56914
-8.21935 14.8325 -6.58131
19.8923 6.06751 -8.06382
-1.69984 12.7812 -4.98963
5.58437 -9.89172 -4.37157
-2.30303 12.9683 -5.05413
21.1565 24.4875 -12.4282
3.45556 24.406 -9.39003
4.88967 -8.91948 -3.85505
20.3653 5.84324 -8.06783
0.811584 -23.6031 -8.991
13.0719 -10.9537 -6.4464
15.9346 -12.2766 -7.56167
20.9747 5.6834 -8.13888
9.73337 -3.54582 -3.87123
0.50283 -20.2408 -7.56086
3.44705 -11.4086 -4.44224
21.8643 25.4516 -12.4805
0.901812 -8.50039 -3.17366
14.9472 -11.8342 -7.02196
21.4272 5.45061 -8.13468
6.74333 -10.7045 -4.62204
19.0563 18.8373 -9.80691
-12.589 2.20585 -4.64663
22.6842 27.1046 -12.8401
2.37023 -13.6216 -4.97528
13.8571 -11.2032 -6.40463
0.775891 15.3791 -5.51361
-7.97265 -2.72044 -3.01542
0.39625 -19.7179 -7.06321
-4.00119 13.1026 -4.86588
0.611803 -20.0736 -7.14786
17.011 -12.8453 -7.54696
-14.55 16.8164 -7.82846
6.26235 -11.9549 -4.73639
4.9568 -12.0035 -4.60532
-10.2875 15.5173 -6.49457
0.107671 -16.8584 -5.93834
15.212 -12.0523 -6.77862
21.3766 5.63074 -7.7214
0.623819 -20.8719 -7.22341
-9.18083 -1.17773 -3.16422
-4.72802 13.7016 -4.95856
3.8411 -8.89686 -3.32765
5.14607 -9.51797 -3.69976
-13.4306 16.6694 -7.31908
2.35068 -11.1659 -3.90562
7.96022 -8.34402 -3.89247
-8.30917 15.0631 -5.85606
3.22953 -14.5244 -5.06227
-13.8659 17.0131 -7.43239
6.35193 -10.0616 -3.97803
21.1855 5.76091 -7.38495
24.3702 30.1621 -12.9834
41.0423 -23.1652 -15.7378
-5.0004 13.2452 -4.69467
1.91583 21.0145 -7.00992
1.27518 -10.171 -3.38966
20.8081 -15.1237 -8.53427
36.7693 -23.112 -14.2704
-4.95407 13.6202 -4.70023
-11.6982 16.0096 -6.4247
20.127 -14.3409 -8.01724
3.73185 -9.06659 -3.13699
6.60557 -10.7286 -4.02935
13.0999 -10.6749 -5.42217
2.37503 -11.2164 -3.645
-3.73923 -28.2599 -9.08119
-0.963828 -20.6657 -6.60189
15.701 10.8153 -6.02521
1.96953 19.8322 -6.33291
-12.2617 16.3111 -6.44258
-16.5121 17.8064 -7.62584
3.25346 -10.4621 -3.4451
14.1381 -11.1471 -5.65861
7.45462 -11.8698 -4.32412
1.29492 -20.0116 -6.21302
-2.15354 -23.1614 -7.15846
7.58434 35.1911 -11.0042
0.748675 14.9157 -4.5394
-10.3497 15.6105 -5.63807
-2.24469 -22.2236 -6.74568
-13.2707 16.5885 -6.33159
-4.36771 -28.788 -8.68815
0.75725 -21.7711 -6.52846
-5.0501 13.8711 -4.38375
2.08053 20.9303 -6.20461
-19.4479 18.131 -7.83724
19.0568 6.06518 -5.89202
-4.04583 13.5605 -4.15421
-7.41301 14.3728 -4.73784
3.58848 -10.5187 -3.24393
4.54138 -9.74143 -3.15065
4.97869 -12.4461 -3.9099
21.353 -15.2608 -7.72906
-12.1991 2.14947 -3.56023
-26.7904 -37.9549 -13.3793
5.562 -14.8107 -4.54335
-14.0386 16.8846 -6.30564
7.49642 -11.9316 -4.04739
2.70262 -10.0133 -2.94041
13.7677 -11.1415 -5.03448
-8.21839 -2.39146 -2.42871
23.1743 29.905 -10.7399
-8.34405 -2.19884 -2.43996
-2.08073 -21.4002 -6.05357
-12.582 1.92841 -3.54489
54.476 -17.5216 -15.9178
4.75019 -12.2386 -3.63355
-8.66903 14.9025 -4.7268
-12.0965 16.1292 -5.5313
-5.04698 13.4545 -3.921
-6.68549 -32.5537 -9.11308
10.316 -9.40138 -3.7931
-19.5819 18.2716 -7.19338
-9.05649 15.0121 -4.69233
34.294 -17.788 -10.3981
-24.1748 18.5693 -8.10301
48.6697 -16.0061 -13.5807
11.9087 11.9891 -4.46723
4.70247 -12.2504 -3.46601
54.2315 -15.7648 -14.9584
-6.36497 -30.0963 -8.10651
2.60503 -9.51948 -2.56793
4.40483 -9.31523 -2.70477
11.8789 -10.5638 -4.15316
-13.3283 16.6854 -5.54675
6.98857 -11.1354 -3.39542
-24.5525 -33.549 -10.7556
3.41431 -10.3319 -2.80485
-24.5766 -35.9987 -11.265
-3.47529 -22.8699 -6.00488
3.83287 -11.1971 -3.0424
4.38509 -10.103 -2.82235
16.7977 -12.6297 -5.35654
-6.64649 14.1522 -3.95104
-26.0265 -34.7122 -11.0098
4.68869 -12.0942 -3.27319
4.55839 -8.24957 -2.39156
7.05159 -11.4954 -3.35513
51.2888 -15.5066 -13.3565
-25.4445 19.1958 -7.87359
-10.6831 15.6916 -4.6741
-22.9386 -33.4675 -9.98413
-7.75145 -30.5508 -7.79273
-22.1946 18.6405 -7.11655
4.70277 -11.1509 -2.9648
-7.18641 -31.0765 -7.83889
-11.17 15.9958 -4.72492
-7.31093 14.2378 -3.85218
-27.3117 -78.6361 -20.1674
10.891 -9.82193 -3.50704
45.5691 -15.1365 -11.4876
15.7299 7.86803 -4.19297
-4.90713 -28.182 -6.83315
4.2647 -9.75789 -2.51591
53.9878 -14.4492 -13.2629
-23.6468 -35.3241 -10.0822
-9.27721 -34.1963 -8.41198
4.5856 -9.80557 -2.5733
-22.0512 -31.9959 -9.11755
4.30607 -12.3297 -3.06597
5.27144 -9.33087 -2.51422
-11.8126 16.0949 -4.641
3.4861 -10.2667 -2.48611
45.3755 -10.7694 -10.8185
-5.93921 -28.0554 -6.65381
11.6975 -10.2496 -3.55024
-4.97506 -25.2871 -5.89602
14.9961 -11.6517 -4.34678
-24.5201 18.9368 -7.01728
-8.90985 -32.0946 -7.54586
46.7334 -10.2202 -10.8562
-27.3066 19.8248 -7.55964
-31.3038 -20.5139 -8.38646
-4.52073 -21.5762 -4.92789
46.0574 -14.2376 -10.8221
5.87055 -10.1905 -2.61888
-12.0032 2.73925 -2.70158
45.8557 -13.438 -10.5563
48.3331 -13.7907 -11.0568
32.532 45.8306 -12.3405
-4.99686 13.1002 -3.06003
14.3475 -11.5446 -4.04886
42.7258 -13.7303 -9.8641
-21.2256 18.4984 -6.10207
-20.5194 -50.6036 -11.8659
4.69997 -10.5676 -2.49983
13.631 -11.2385 -3.86676
4.92668 -9.95723 -2.39205
-13.415 16.7119 -4.5718
-27.6209 20.0627 -7.28379
-28.3375 20.1099 -7.42204
-19.1447 -50.8088 -11.6567
-18.441 -50.5203 -11.51
-9.88285 15.4399 -3.88229
-6.62076 -28.1429 -6.16308
3.51379 -10.6444 -2.38113
4.36427 -10.8033 -2.47527
52.2599 -12.1165 -11.4517
15.553 7.79149 -3.69359
-13.9198 17.1332 -4.66896
5.56441 -9.75213 -2.35248
31.099 45.0177 -11.4622
45.7823 -15.1737 -10.0563
-35.1212 23.0707 -8.80256
-24.3063 -23.7869 -7.06375
15.61 8.17061 -3.66389
-26.7957 -20.6944 -7.02431
-21.6104 -55.4236 -12.334
45.62 -12.2768 -9.76988
-10.5739 15.5774 -3.82141
-14.3493 16.9641 -4.51891
-31.0633 20.8521 -7.59649
50.4447 -11.003 -10.5295
-10.1233 -32.5881 -6.94999
4.53521 -10.6633 -2.34938
4.70168 -10.7005 -2.37365
12.3602 -10.2743 -3.26637
-11.07 15.8841 -3.8605
-14.4502 -41.4879 -8.7951
-6.75035 -26.1406 -5.41507
-6.20894 -25.3881 -5.25249
-10.154 -31.5607 -6.57638
4.47136 -10.8877 -2.3222
-30.1757 -20.6336 -7.20622
40.1606 -12.8826 -8.32274
-24.1094 18.9214 -6.02725
-42.3347 26.5536 -9.77649
-29.3195 -20.9724 -7.02696
-6.36943 14.0683 -2.99274
-19.3209 -45.4081 -9.59757
-29.7878 -19.8304 -6.89564
3.79895 -10.3379 -2.11828
52.3961 -12.14 -10.3285
-11.7421 16.0304 -3.79456
4.38431 -10.2621 -2.12187
-32.2387 -19.5823 -7.13944
-17.8983 -29.0773 -6.49897
-11.9065 -34.3656 -6.89394
42.5919 -14.0499 -8.47723
-31.6548 21.2604 -7.13075
-29.8232 -20.5963 -6.8084
-28.8778 -21.128 -6.71667
-16.0088 -39.6692 -8.06046
-12.956 -35.2025 -6.96927
4.16878 -10.0348 -2.00025
48.3052 -13.0192 -9.29025
6.23538 -10.515 -2.23451
-25.5817 -32.6641 -7.52174
-18.3313 -41.5725 -8.32851
-15.5347 -38.5685 -7.53061
-13.3574 16.6498 -3.78121
-27.4389 -22.1299 -6.26599
-17.7633 -23.6712 -5.29523
-18.5862 -48.5767 -9.24246
-34.4403 21.7322 -7.1798
-24.1002 18.9232 -5.32923
-22.2891 -19.3859 -5.15554
-30.181 20.6525 -6.34493
4.33596 -11.1338 -2.06398
5.16242 -9.31465 -1.84531
14.55 7.81472 -2.85396
14.6454 8.40513 -2.89771
-27.511 20.0052 -5.82707
14.7421 -11.8327 -3.21196
47.9683 -13.5713 -8.48719
47.6067 -12.3298 -8.37221
50.2766 -11.6686 -8.84098
-27.5977 -21.9175 -5.97812
-15.9311 -26.0719 -5.20423
-19.1373 18.2256 -4.43426
-25.0714 -20.6482 -5.53578
-15.4044 -38.2962 -6.98389
15.4653 7.75226 -2.90677
-28.2665 20.0104 -5.78083
7.23182 -12.0405 -2.35544
17.4566 -12.9987 -3.5846
-17.5002 -41.7315 -7.48621
43.8941 -13.8409 -7.50108
-26.738 -14.1979 -4.98523
63.9332 -22.3228 -10.9541
49.6288 -13.3697 -8.35481
-9.54444 15.151 -2.8864
-24.7576 -18.5566 -4.96536
-15.5581 -38.6033 -6.6464
-30.7605 -21.2338 -5.88856
-20.6722 18.1622 -4.30573
-22.9326 -14.3768 -4.27385
-21.8588 18.6599 -4.45108
-35.1093 21.2573 -6.35546
-10.337 15.4702 -2.86936
3.89142 -10.6697 -1.74888
4.34443 -11.4783 -1.89247
-6.99481 14.1855 -2.41224
-27.6812 20.147 -5.22977
-28.0554 -21.6688 -5.3895
-24.6004 -23.0107 -5.10287
-16.6092 -38.6102 -6.40878
47.8743 -12.446 -7.51991
51.1158 -11.1365 -7.97206
-6.02314 13.4128 -2.19656
-24.6962 -21.9653 -4.91382
10.2277 -5.36088 -1.71359
-29.5669 -21.3249 -5.42745
-18.6631 -47.201 -7.53585
9.85992 -9.46184 -2.03103
10.8457 -9.75123 -2.17101
51.3621 -11.8822 -7.83086
-32.2173 -21.4463 -5.69412
-27.6983 -22.8463 -5.25124
-9.63722 -31.9444 -4.91825
18.3186 -13.2531 -3.30917
-22.9004 18.8546 -4.30783
-35.506 21.8973 -6.08179
-18.4988 -41.4539 -6.54711
-7.00921 14.0369 -2.24045
-11.6883 15.9359 -2.81518
6.69721 -12.7913 -2.05686
7.59543 -11.7907 -1.9953
-12.2956 16.4338 -2.8805
-30.6747 20.7216 -5.20067
-25.3934 -23.5139 -4.87531
7.40758 -12.098 -1.97758
42.2986 -13.9595 -6.26497
-27.4887 -22.0263 -4.91482
-25.617 -23.2436 -4.81345
-29.2211 20.9998 -4.98139
-25.89 -21.9126 -4.72063
-15.6447 -37.7113 -5.64478
51.5364 -11.5294 -7.28427
-14.7123 2.75406 -2.06018
-6.29275 13.9144 -2.08373
-16.2954 -42.5348 -6.19452
8.29821 -10.0414 -1.7452
9.78718 -9.635 -1.89193
-12.8471 16.4036 -2.80649
14.177 -11.3074 -2.45139
-20.1474 18.3266 -3.65984
47.7821 -12.3542 -6.55373
51.1604 -11.2063 -6.93452
-7.31278 14.2445 -2.06421
-20.5295 18.0661 -3.57365
-28.8509 -21.5882 -4.70477
-13.6451 16.7089 -2.7872
-30.1901 20.1503 -4.70916
-34.2733 -14.4711 -4.8007
-28.7932 -15.4182 -4.1962
7.63018 -11.3467 -1.75038
9.39397 -9.65738 -1.76155
11.1418 9.12384 -1.85449
-29.9129 -20.6136 -4.64679
-27.9629 20.4136 -4.37655
-31.5105 -19.6624 -4.65295
-24.1968 -49.4565 -6.87901
47.6209 -12.3157 -6.15731
7.40217 -11.2917 -1.6831
-7.03019 14.0606 -1.94406
-22.5578 18.9415 -3.60453
-29.5797 20.8468 -4.46087
7.01843 -13.4566 -1.84335
51.0857 -10.8991 -6.40074
15.6374 8.19353 -2.12792
-14.0027 -33.9176 -4.42851
7.71273 -11.4619 -1.65968
-19.3302 8.56724 -2.50184
-10.8725 -32.8958 -4.079
-34.4367 -13.7513 -4.37004
-28.13 -21.6874 -4.15112
-27.6337 -22.0994 -4.13853
47.771 -12.7966 -5.81438
11.9867 -10.3226 -1.831
-26.6476 20.2057 -3.84507
7.27753 -11.8563 -1.58866
8.01882 -9.87193 -1.45243
-18.0827 -43.4649 -5.30388
12.3679 -10.3826 -1.83251
9.80927 -4.78541 -1.23629
15.6097 8.02235 -1.98323
-9.51156 15.1422 -2.0164
-28.5568 20.8666 -3.95968
-14.3313 2.04699 -1.58537
43.9755 -14.4764 -5.19286
9.96235 -9.60701 -1.52951
-10.1779 15.2648 -1.99301
7.61792 -14.339 -1.75361
51.3099 -11.1516 -5.69528
11.1524 9.16585 -1.56107
18.2016 -13.5207 -2.43177
47.9989 -12.449 -5.31561
10.2367 -9.55527 -1.48214
-17.1931 8.47211 -1.97593
8.89933 -8.98965 -1.32372
-27.2996 -21.8456 -3.6383
-22.2922 -44.7156 -5.21295
-23.4088 -48.6803 -5.51837
15.6065 7.82766 -1.78899
-28.0776 -21.6491 -3.63509
-11.7926 16.0759 -2.02323
-11.7447 15.7355 -1.95066
10.8644 -9.67288 -1.42387
-15.4174 -39.1572 -4.12776
7.10029 -13.5968 -1.48001
10.0906 -9.52639 -1.31145
-46.4746 25.8865 -5.1342
18.0374 -13.1965 -2.14699
47.9083 -12.8738 -4.75757
-22.5053 -45.4933 -4.82456
-15.1941 -39.8767 -4.0546
-21.1039 18.4596 -2.61993
52.2573 -11.6253 -5.00361
10.3418 -9.56544 -1.30299
45.0426 -14.8584 -4.42129
-13.7341 16.8362 -1.96684
-27.1178 -12.3635 -2.71418
-23.7217 -46.2454 -4.78971
17.1536 -12.8394 -1.94798
-24.87 -45.5644 -4.71225
9.19062 -9.28752 -1.18204
-32.2365 -18.2827 -3.24294
13.8425 -11.4264 -1.56197
51.7487 -11.9944 -4.5539
10.0154 -9.61723 -1.16626
11.6945 -10.2985 -1.3089
-30.2124 20.7488 -3.04831
18.2664 -13.3205 -1.8716
-12.9854 -33.792 -2.89997
15.8451 -12.3899 -1.60309
-29.5612 -57.7701 -5.1507
-9.45282 -26.4661 -2.2192
-26.5932 20.2207 -2.58245
-29.3424 20.7405 -2.77261
-17.0884 -39.0355 -3.28868
8.16372 -9.99005 -1.02834
-43.5705 23.7134 -3.75371
-19.4007 18.2596 -1.9376
-29.4929 20.8619 -2.61693
17.7662 -13.2751 -1.62172
47.9519 -12.8321 -3.61949
-27.6907 -52.3952 -4.27256
15.0487 -11.9068 -1.37273
-25.2721 -15.68 -2.04598
-12.0609 -31.9959 -2.3595
8.63625 -15.8933 -1.20561
11.5008 -10.2711 -1.05594
-21.117 18.4904 -1.89531
13.8234 -11.4066 -1.19924
19.5665 -14.1915 -1.61094
-17.4579 -40.2252 -2.89593
17.3903 -13.154 -1.43957
-11.3353 -31.4297 -2.16056
50.2191 -13.0609 -3.24699
-23.0801 -46.7651 -3.17798
39.9085 -9.68185 -2.52352
49.0149 -11.2188 -3.09082
6.97405 -15.0754 -0.989497
35.4338 -23.4468 -2.54169
-9.01847 15.0556 -1.03193
-12.1511 -31.6995 -1.93128
18.0389 -13.4815 -1.26428
-9.0061 -11.6745 -0.807334
15.6087 8.00852 -0.9535
14.9671 -11.8482 -1.02214
-11.7321 15.8995 -1.03265
-12.8912 -31.9523 -1.82746
15.4975 8.14975 -0.863142
-12.675 -32.4005 -1.70435
-12.9617 16.4297 -1.00144
10.1903 -9.61225 -0.642587
-17.7603 -40.7407 -2.00629
13.3449 -10.9708 -0.80104
-12.0862 -33.692 -1.58606
-13.3714 -32.9448 -1.51863
7.75599 -14.323 -0.720851
-10.5293 -32.1 -1.43621
-44.6013 24.2564 -2.05529
20.022 -14.3847 -1.00087
18.2622 -13.5745 -0.886552
-28.2767 -54.8815 -2.32021
-13.6736 -35.8571 -1.40889
-29.8117 20.4841 -1.32286
48.5857 -12.519 -1.81083
-84.9305 31.8373 -3.27425
-24.5423 -48.8183 -1.8199
-19.1262 -41.9155 -1.54478
22.3526 25.8541 -1.14512
-19.4498 18.227 -0.869328
9.25674 -16.3388 -0.629334
10.0414 -9.58635 -0.450441
12.0982 -10.651 -0.524393
20.3031 -14.3561 -0.817849
39.1363 -14.7611 -1.3908
24.7821 30.0009 -1.2594
-25.0908 -12.5848 -0.876436
-20.7307 18.4614 -0.846794
-28.2337 19.997 -1.07996
-18.2497 -41.9563 -1.41041
-10.761 -30.4461 -0.990673
-8.87377 -26.715 -0.820965
-15.7643 -40.2167 -1.30181
-12.5656 -34.0556 -1.03499
-30.3296 -18.389 -0.93967
12.2376 -10.3818 -0.430576
17.7238 -13.1829 -0.583076
-35.784 22.1376 -1.10945
-26.9579 20.5131 -0.838617
-27.8316 19.777 -0.873718
-27.4533 20.1206 -0.805181
10.1965 -9.59902 -0.325098
-36.9188 12.7606 -0.862081
-17.6145 -28.3251 -0.778001
-24.4412 -40.9291 -1.06552
23.4102 -15.6571 -0.620164
34.6564 -21.0149 -0.916126
14.7519 4.07727 -0.316013
-43.2859 15.606 -0.897178
35.2895 61.6796 -1.32679
25.6452 -11.9393 -0.500332
54.3741 -12.5204 -1.04317
-27.3478 -19.6533 -0.60897
-25.7158 -25.2575 -0.56551
-14.5038 -35.5909 -0.633289
13.6569 -11.2307 -0.291875
-23.8069 -11.2608 -0.400872
20.2534 -14.6352 -0.383018
-85.1894 38.175 -1.30344
-26.786 -11.9052 -0.38097
-28.9762 -21.6847 -0.497726
-23.8155 -48.0093 -0.713166
-20.3769 -43.3692 -0.647513
-30.0484 -20.5211 -0.4693
-26.9794 20.5263 -0.400056
18.5041 -13.8187 -0.275424
33.2138 -20.5945 -0.461621
-27.424 20.1337 -0.379682
-33.601 -18.7743 -0.427397
-14.8743 -34.1141 -0.391119
-9.43839 -28.4129 -0.295993
-25.1726 -44.355 -0.459711
-13.1052 16.6245 -0.164389
-24.539 -12.3717 -0.218116
-13.7341 16.7426 -0.149986
-20.4671 18.2795 -0.14278
-19.0947 17.9109 -0.120751
-27.4339 -12.9968 -0.0965932
-9.77896 -12.5714 -0.0535509
15.3604 8.06976 -0.0255868
11.8812 -10.4476 -0.00962505
-86.2512 37.3212 0.0624029
-26.5819 -8.03491 0.0658169
-30.9337 -16.9435 0.0593958
-8.99183 -26.7245 0.0982472
18.4235 -13.3854 0.0971162
-14.6878 -33.7207 0.171927
20.5221 -14.4594 0.131506
8.03757 -13.8173 0.115431
28.4298 -11.6638 0.186
-47.6456 17.0134 0.483744
17.6185 -13.0573 0.207558
41.851 -8.54428 0.398005
-26.8639 -7.57458 0.329899
-32.1661 -19.4146 0.420896
-9.08968 -26.0439 0.302792
-45.9499 25.184 0.640451
-10.1089 -28.0142 0.362131
-8.22937 -25.2971 0.32604
7.2585 -14.8375 0.209196
7.93637 -12.227 0.190193
-25.2523 19.8229 0.489712
12.1108 -10.577 0.24001
-21.814 18.6555 0.471705
11.6585 -10.4097 0.243596
13.9458 -11.4807 0.282783
40.544 -8.67647 0.684812
-30.587 -20.4924 0.676528
-27.8716 19.929 0.671087
7.05493 -14.741 0.314974
7.73316 -12.1703 0.27604
8.61912 -10.1142 0.257801
8.49224 -8.81673 0.290922
38.7014 79.5922 1.90582
8.311 -10.1551 0.294899
10.8005 -9.78255 0.34965
-26.606 -8.53125 0.67676
-21.1278 18.442 0.756371
-24.7666 19.5291 0.844312
-26.7365 -8.02775 0.739291
9.79083 -9.47739 0.36616
10.2527 -9.52927 0.379566
-23.0349 19.4147 0.816154
27.3348 -5.52977 0.772411
-7.36469 -9.33127 0.333278
13.954 -11.4473 0.535447
16.5841 27.0188 0.970743
-30.7004 21.7688 1.12984
7.09105 -14.6292 0.508657
8.23946 -12.8444 0.476562
-26.3516 -7.43166 0.901909
-11.3387 -17.3609 0.68825
-26.0403 -8.13844 0.947009
16.9812 11.6231 0.738611
-26.9423 -16.6951 1.11385
17.9809 31.2383 1.27847
-27.5844 -15.0458 1.17006
25.1905 -4.54863 0.920796
-25.0971 -17.8493 1.14737
-6.94724 -7.57456 0.389667
9.63878 -9.3992 0.498249
13.1372 14.3713 0.745786
35.8519 73.9709 3.09797
34.7022 73.889 3.05905
-10.9602 -8.67514 0.553568
9.28449 -9.22668 0.515546
-23.1564 19.076 1.21526
23.2063 -3.14468 0.944778
15.4917 25.2957 1.21861
-26.1233 -15.8672 1.25795
10.0272 -9.50769 0.564242
13.215 15.2201 0.862211
7.42945 -14.0698 0.672358
16.1604 20.9984 1.15888
23.7475 32.8037 1.76526
-8.77286 -12.7563 0.684283
-9.12306 -14.2684 0.756189
8.30153 -11.9645 0.638925
9.18601 -9.28136 0.587699
25.908 -3.96875 1.17912
-27.5528 -8.0291 1.31396
7.44451 -12.2387 0.656079
-7.87903 -7.7535 0.522305
27.1901 54.8653 2.91905
-25.9028 -16.0088 1.44539
-9.03993 -12.6807 0.745082
10.2877 -9.54508 0.658495
18.8812 23.075 1.39699
20.7107 57.5628 2.95213
-27.6719 -12.2567 1.44968
-6.42406 -7.8317 0.500525
17.7589 41.3007 2.28663
-27.3207 -10.6987 1.47718
-7.27291 -6.68745 0.501132
-6.38972 -7.24329 0.490516
18.6886 33.8558 2.00086
22.9085 32.5187 2.10987
11.0588 12.9318 0.915284
15.4557 21.0335 1.39583
9.95408 -9.50719 0.734855
16.0867 20.9316 1.45199
17.023 26.2927 1.71853
-24.9524 17.5696 1.67022
-6.62882 -7.79006 0.569445
-23.9366 18.3671 1.67459
6.97649 -14.7292 0.907383
-6.71894 -8.6589 0.627599
10.4406 13.0415 0.978379
16.7831 28.2787 1.91504
7.35733 -14.7754 0.945542
15.3419 25.0309 1.72847
-7.86752 -7.73307 0.666984
12.0581 12.1422 1.01618
15.9436 21.2059 1.58851
-6.95888 -9.42012 0.73142
7.71417 -12.2926 0.880845
12.031 -10.3772 0.96026
6.5099 -11.9333 0.839554
-6.90333 -6.38062 0.589188
15.8007 22.416 1.72981
16.8557 7.48244 1.19299
-6.76655 -5.91164 0.591238
7.39468 -15.3816 1.13228
10.4767 23.6656 1.74182
10.9166 13.1588 1.16478
14.616 19.6544 1.70344
13.5724 22.5044 1.81365
11.8782 12.548 1.20865
7.16968 -10.6923 0.907974
12.0316 12.3098 1.2416
10.2933 -7.2657 0.893629
12.9562 12.543 1.32019
10.5187 -8.88287 1.0055
-6.00914 6.513 0.659408
10.7976 9.50807 1.07701
12.835 19.1914 1.73273
12.3974 19.7524 1.75285
-6.62137 -7.33902 0.768938
11.7759 20.3259 1.79823
10.1248 -9.5323 1.07141
11.0515 14.8359 1.44638
-6.22295 -4.16943 0.591893
9.9879 20.0116 1.78368
10.5821 -7.24093 1.02364
13.0312 12.0909 1.43287
9.82915 10.8568 1.14097
10.6165 20.6139 1.86337
-6.85318 -9.09021 0.93061
7.24237 -10.112 1.00833
12.8119 12.2568 1.44872
12.7159 12.5064 1.47698
11.9515 12.4925 1.42734
-4.64396 -10.601 0.978295
10.8256 13.5448 1.47161
-6.69572 -5.85064 0.767799
-6.54081 -6.42466 0.776543
-4.80679 -10.5445 0.990109
-6.96678 -7.3926 0.877371
9.76604 -7.63198 1.06769
-6.78133 -7.67379 0.898972
-6.69633 -7.33906 0.876343
9.83297 13.1258 1.45049
-6.60685 -7.95639 0.926893
11.1983 9.39642 1.32861
11.0166 14.1892 1.61932
10.8926 9.56705 1.32349
8.17379 14.8376 1.55516
-6.17726 -7.73403 0.909837
-6.53309 -8.53532 0.995405
11.6639 11.2499 1.49147
11.6608 9.51427 1.40462
11.3183 11.2504 1.49227
6.94683 16.054 1.64131
-11.1058 2.84553 1.07463
-6.17314 -4.04711 0.692772
-6.54554 -6.05347 0.828837
9.91968 13.9903 1.65105
-5.88956 6.39973 0.854135
8.34365 -6.92697 1.05363
8.35039 13.924 1.60982
-6.74812 -7.27208 1.00226
9.71061 12.1425 1.56491
7.3508 13.0523 1.51756
7.44016 13.7074 1.58734
9.85234 9.39717 1.40571
6.24521 14.8887 1.6714
9.57892 13.0282 1.68276
-5.91907 -4.31908 0.769493
6.33314 14.5531 1.66973
6.59598 14.449 1.66763
-6.75582 -4.29108 0.857549
9.04593 9.30497 1.38032
9.47392 10.5546 1.53928
7.6269 11.4523 1.49259
6.0926 12.0007 1.46096
-6.01396 -7.07497 1.01784
10.554 6.6332 1.37585
9.25573 8.37755 1.37296
7.63498 12.2047 1.58693
7.15377 12.1589 1.55715
5.62921 12.5006 1.52334
5.13543 12.7657 1.53774
5.03271 14.6377 1.70151
10.1451 7.25407 1.38928
9.04904 9.61933 1.47264
5.63884 12.0657 1.49776
-6.56216 -6.44899 1.02662
7.13724 11.1405 1.48781
4.61438 14.0779 1.67327
10.0701 -3.29945 1.1784
-5.88752 -5.2215 0.913143
7.61652 -6.39409 1.12544
10.6936 5.86774 1.39563
-7.2222 -0.964135 0.835268
-6.04021 -5.17009 0.917158
5.48238 -5.80417 0.916376
5.31917 12.2011 1.54437
-6.66783 -4.41636 0.928444
4.75974 -7.75932 1.04812
10.6794 5.28335 1.39484
9.13765 8.11037 1.43114
-5.82052 -4.23584 0.840505
-6.26434 -5.09325 0.955766
4.43363 -8.52009 1.13671
5.20897 -6.13498 0.961801
10.4208 4.87298 1.37575
8.76532 8.51175 1.47685
-5.53009 -3.61944 0.817882
5.52604 12.0395 1.61524
9.26806 6.42079 1.37733
8.24044 8.57625 1.48698
-6.25521 -5.53905 1.04239
4.0109 -8.19082 1.1366
8.89059 6.85536 1.40867
-6.24413 -5.15937 1.02729
9.31175 6.15952 1.42226
8.38886 7.32009 1.41751
8.32499 7.70289 1.44522
6.01814 -5.5682 1.04905
-6.75799 -4.30652 1.03039
8.32577 8.2206 1.51469
-7.1988 -1.0195 0.939857
-6.74911 -2.75497 0.953107
9.16861 4.18953 1.31703
8.60669 6.79024 1.43614
5.24628 -6.32583 1.07625
5.17125 -6.51225 1.09701
7.10096 -4.42613 1.1105
-6.97308 -1.67925 0.962245
-6.84484 -2.16742 0.960797
-5.84261 -4.28797 0.970663
8.32993 6.81815 1.45638
8.79088 4.53317 1.34546
8.8215 5.28108 1.40127
8.22864 7.31645 1.49583
-6.6181 -3.62883 1.02637
9.05075 4.24867 1.3655
8.44979 5.96412 1.41334
7.84299 5.97022 1.34063
-6.20588 -4.19883 1.02709
-5.77399 -4.38551 0.992093
5.52432 9.30949 1.4931
3.79701 10.505 1.55016
-7.20807 -1.06886 1.00966
-6.70519 -3.81353 1.07216
5.17287 -5.79349 1.06946
5.45178 -5.62814 1.08373
7.69084 -3.64436 1.18692
3.53861 10.6131 1.56675
8.57724 4.69455 1.38016
7.60323 -3.79155 1.20196
7.81152 -3.43316 1.21323
7.99195 -3.40323 1.22928
9.12564 2.8737 1.37396
5.05823 -5.89597 1.11253
7.55546 -2.931 1.17665
-6.77295 -3.21181 1.09405
8.13952 -2.85695 1.25447
8.89348 -1.86782 1.33068
5.15307 8.82288 1.50624
3.07414 9.82704 1.53115
7.92235 -1.934 1.19874
7.37691 5.87507 1.40231
3.59201 9.93763 1.561
3.32364 10.2185 1.59183
-7.21118 -1.02044 1.08045
-6.9107 -1.97583 1.07212
7.09518 6.42298 1.44225
-6.12181 -2.22005 0.978239
-7.08115 -1.3447 1.08875
8.0996 4.9152 1.44044
5.84218 7.52811 1.4435
5.42074 7.81611 1.44547
5.18801 8.22178 1.46774
6.94822 -3.3152 1.16102
7.45226 -3.21317 1.23949
7.84564 -2.83073 1.26773
-7.16357 -0.717199 1.09993
-6.93387 -1.90908 1.11098
6.97655 -3.17784 1.18229
3.95238 -6.09647 1.11871
-6.88904 -2.02732 1.12686
-7.18729 -1.06886 1.14163
7.49974 4.86473 1.40902
-7.04019 -1.41136 1.14319
-7.11241 -1.27221 1.16006
-6.93299 -1.97183 1.1732
7.19817 4.8499 1.41403
-6.93789 -1.90032 1.1827
7.13771 4.95413 1.4404
6.7293 4.93603 1.38997
5.30197 6.35805 1.3768
4.77545 7.3292 1.45895
3.92342 8.14339 1.50101
-7.08995 -1.34293 1.20543
2.97414 -6.14765 1.14527
7.26957 4.50793 1.43817
6.63049 5.33247 1.43278
