ply
format ascii 1.0 
element vertex 1648
comment /media/mkaihara/Seagate Backup Plus Drive/model_iterations/model_1.ply
property float32 x 
property float32 y 
property float32 z 
end_header 
-0.444036 0.0833943 -0.0638849
-0.164344 0.366114 -0.0565792
-0.418295 -1.09118 -0.158305
0.270487 -0.327312 -0.0572425
0.317222 -0.312348 -0.0616985
-0.362573 0.464409 -0.0816755
0.453156 -0.361386 -0.0785785
-0.577251 0.526143 -0.107552
1.48934 -0.384943 -0.204015
1.59022 -0.348177 -0.215324
-0.210939 0.412326 -0.0618646
-0.225677 0.420853 -0.0637043
-0.583741 0.514855 -0.10428
-0.840497 -0.628902 -0.13743
-0.386386 0.474542 -0.0814249
-0.856629 0.572748 -0.136523
-1.00925 -0.426118 -0.142229
-0.850378 -0.455372 -0.124666
0.251755 -0.374378 -0.0580017
0.305487 -0.31413 -0.0576665
0.33 0.270736 -0.0565943
-0.873541 -0.601962 -0.136136
-0.791851 0.579139 -0.126822
-0.921533 -0.575012 -0.136587
-0.45465 -0.780202 -0.114113
-0.601684 -1.22849 -0.170071
1.47828 -0.382096 -0.190895
-0.960395 -0.538448 -0.135434
-1.13337 -2.1504 -0.300311
0.245094 -0.373902 -0.055983
-0.189396 0.381112 -0.0545822
-0.645617 0.543155 -0.105916
-0.834342 0.589116 -0.12875
0.232859 -0.446249 -0.061235
1.59124 -0.339345 -0.199178
0.472454 0.247844 -0.0658589
-0.376864 -0.912538 -0.118815
0.25434 -0.37796 -0.054979
-0.013293 -0.0164282 -0.00569951
-0.577224 0.25628 -0.0768302
-0.288076 -0.871296 -0.107774
-1.01206 -0.404048 -0.129332
-0.820983 -0.632935 -0.121495
-0.805302 -0.643996 -0.120919
1.48796 -0.398392 -0.180827
0.384165 -0.330775 -0.0590145
-0.760121 0.577377 -0.11255
0.241069 -0.392696 -0.0528446
0.262334 -0.32299 -0.047903
-0.448497 -1.07665 -0.130815
0.396234 -0.332577 -0.0590342
0.310322 -0.151349 -0.0398823
0.472049 0.242893 -0.0615354
-0.266004 0.425201 -0.0587306
-0.75566 -0.333682 -0.0919571
-0.805043 0.589394 -0.114536
-0.438715 0.0627362 -0.0501846
1.37592 -0.452766 -0.162129
-1.00719 -0.6414 -0.133296
-1.09331 -1.99512 -0.249464
0.321317 -0.309833 -0.049737
-0.288254 0.433862 -0.0588141
0.253015 -0.476041 -0.0582646
1.59946 -0.34744 -0.177329
0.332919 0.274017 -0.0482842
0.578393 -0.429499 -0.0773159
1.5006 -0.38903 -0.165928
0.329852 -0.307872 -0.0481694
-0.711257 0.366017 -0.0839895
-0.525703 0.25921 -0.0625263
0.287796 -0.290706 -0.0432734
-1.09785 0.597398 -0.130316
-0.798033 -0.638583 -0.106669
-0.590343 -1.18362 -0.137148
-0.57216 -1.18817 -0.133927
0.473465 0.237732 -0.0558277
-0.820821 -0.63286 -0.1066
-0.334794 0.457852 -0.0598751
-1.11894 -2.10608 -0.239092
-0.337637 0.453652 -0.0585094
0.348922 -0.3106 -0.0461337
-0.402364 -1.02125 -0.107095
-0.752607 -0.676089 -0.0979915
0.239555 -0.458733 -0.0500138
0.324195 -0.305989 -0.0425624
-1.2673 0.707239 -0.143344
-0.382101 -0.305536 -0.0406546
0.574118 -0.419907 -0.0684109
1.49977 -0.402825 -0.148658
-0.588718 -1.18932 -0.125273
-0.393589 -1.03222 -0.104368
-0.607276 0.53222 -0.0780951
1.63751 -0.364123 -0.156541
0.333005 -0.307969 -0.0423767
1.41674 -0.467191 -0.138683
-0.397781 0.488757 -0.0594948
-0.577364 0.299295 -0.0567159
-0.806484 -0.36764 -0.0815989
-0.628793 -1.22527 -0.125967
0.546505 -0.408929 -0.0621749
-0.680346 -1.24633 -0.127898
0.297298 -0.300414 -0.0386882
-0.950047 -0.538781 -0.0961464
0.443075 -0.365648 -0.0502496
1.63011 -0.377715 -0.14318
0.322967 -0.310083 -0.0380344
0.375335 -0.330456 -0.0423703
-0.869133 0.597777 -0.0906442
0.580556 -0.423195 -0.0595585
1.5002 -0.386858 -0.132604
-0.760988 -1.36512 -0.124723
-0.348597 -0.906764 -0.0774195
0.506196 -0.395701 -0.0513804
-0.751824 -1.46826 -0.129509
-0.265535 -0.743721 -0.0622401
-0.763899 0.581827 -0.077053
-0.832061 0.589251 -0.0815344
-0.448139 -1.02289 -0.0855856
0.268084 -0.328125 -0.0341743
-1.23013 0.670468 -0.109232
-0.564056 0.531834 -0.0590174
-0.857506 0.607328 -0.0790553
0.56705 -0.423579 -0.0518471
1.51315 -0.404783 -0.113944
-0.716697 -1.3552 -0.109311
0.482207 -0.381453 -0.0442015
0.27163 -0.467038 -0.035124
-0.750715 -0.465748 -0.0614109
1.33156 -0.285729 -0.0956422
-0.327523 -0.868617 -0.0637029
0.276516 -0.508148 -0.0385993
0.369856 -0.330247 -0.0343337
-0.61578 0.540074 -0.05799
0.443226 -0.36565 -0.0387206
0.622305 -0.451169 -0.0512425
-0.469573 -1.08157 -0.0771135
0.556668 -0.420968 -0.0461824
-0.583775 -1.15231 -0.0803173
-0.306894 -0.850659 -0.0581487
1.58648 -0.412447 -0.102264
-0.606407 -1.22793 -0.0824415
1.25923 -0.305372 -0.0796863
1.54457 -0.353354 -0.0972338
-0.785033 -0.368963 -0.0534254
-0.740856 -1.43089 -0.0978557
0.236204 -0.510425 -0.0335269
1.11985 -0.740643 -0.0794963
-0.253785 0.425384 -0.0313533
-0.334903 -0.873617 -0.0528353
0.576088 -0.430402 -0.0404559
-0.267117 -0.346312 -0.0246318
0.476096 0.244504 -0.0306714
0.47942 -0.379414 -0.0329748
-0.345364 0.46905 -0.0328555
-0.349663 -0.866267 -0.0491803
0.472413 0.248671 -0.0279116
-0.347095 -0.887051 -0.0462388
-0.373775 0.475033 -0.0313504
-0.720858 -0.368757 -0.0407454
-0.631751 -1.27173 -0.0675331
0.328966 -0.31026 -0.0211973
-0.469359 -1.07592 -0.0522139
0.429592 -0.353125 -0.0261045
-0.317968 -0.885625 -0.0412666
-0.361105 -0.889197 -0.0405625
0.263034 -0.485812 -0.0245352
-1.66074 0.606312 -0.0764718
-0.28539 -0.869886 -0.0385011
-1.27334 0.693396 -0.0619931
0.64134 -0.460649 -0.0320587
-0.557057 -0.983291 -0.0438074
0.585104 -0.434799 -0.0284843
-3.19779 1.41684 -0.137474
-0.703854 -1.3645 -0.056395
-0.361123 -0.946256 -0.0366251
-0.871763 0.599752 -0.041633
1.53189 -0.394451 -0.0568619
-2.18045 0.819306 -0.0880061
-0.990446 -0.55782 -0.0396198
-0.628483 -1.24887 -0.0454631
-0.504781 -1.1054 -0.0398954
0.6518 0.754828 -0.0360084
-0.570166 0.535213 -0.0281669
0.309292 -0.545788 -0.0209803
0.323873 -0.309119 -0.0149965
0.38922 -0.342571 -0.0172385
0.649398 -0.459037 -0.0261638
1.23925 -0.467185 -0.0437758
0.716009 0.867898 -0.0392205
-0.751945 -0.377103 -0.0270694
-0.607299 0.541702 -0.0275181
-0.819802 0.581524 -0.0342428
-0.46981 -1.0789 -0.0354662
-0.297052 -0.840411 -0.0269699
-0.236639 -0.711771 -0.0217524
-0.420966 -1.07343 -0.0339258
-0.331538 -0.897758 -0.026803
-0.901657 -0.546629 -0.0284336
0.393682 -0.333908 -0.0142408
0.567218 -0.421753 -0.0187855
-1.01765 0.630648 -0.0346191
-0.787121 0.599781 -0.0273962
-0.814995 0.57991 -0.0284653
-0.8024 0.588896 -0.0264268
0.328652 -0.30931 -0.0109514
-1.09763 0.37981 -0.0282029
-0.915246 -0.542509 -0.0227821
-0.513758 -0.826342 -0.0224267
-0.677814 -1.1347 -0.0286776
0.747665 -0.499861 -0.0196889
1.10674 -0.670843 -0.0286149
-2.35167 1.03271 -0.0600699
0.455297 0.125997 -0.0111098
-2.18763 0.872034 -0.0531254
-1.28087 0.462233 -0.0293743
-0.580126 -0.547775 -0.0157475
0.77217 1.35487 -0.0328504
0.815816 -0.379674 -0.016033
1.74163 -0.400922 -0.0330909
-0.813018 -0.58424 -0.0184792
-0.75242 -0.738895 -0.0165581
-0.393512 -0.96519 -0.0165467
-0.274441 -0.775826 -0.0114902
0.438622 -0.360592 -0.00969411
-0.715962 -0.338595 -0.0129188
0.650436 -0.469888 -0.0122949
-2.35873 1.05798 -0.0406411
-2.68556 1.14683 -0.0446046
-0.804636 -0.35756 -0.0123023
-0.857782 -0.641868 -0.0150002
-0.610911 -1.23019 -0.0171593
-0.537521 -1.14311 -0.0161101
-0.891867 -0.609029 -0.0142805
-0.784658 0.597893 -0.0145358
0.592098 -0.441998 -0.00889436
1.0539 -0.653106 -0.0140742
-0.810247 0.59554 -0.0141282
-1.00094 -0.559214 -0.013236
-0.405159 -0.928712 -0.0100927
-0.260916 -0.785416 -0.00787525
-0.679154 -1.19594 -0.0113765
-0.388533 0.49378 -0.00738547
-0.737522 -0.371776 -0.00735218
-0.400971 0.48991 -0.00688313
-0.610184 0.545635 -0.00697508
-0.650265 -1.24103 -0.00631309
-0.564992 0.530769 -0.00623779
-0.823775 -0.390195 -0.00369129
-0.289814 -0.372558 -0.00218608
0.471266 0.247782 -0.00240378
0.298663 -0.289832 -0.00274994
0.383245 -0.336929 -0.000717116
-2.32686 1.00826 -0.0027409
-0.557934 -0.574797 0.000854684
-0.801518 -0.242156 0.00088543
-0.924226 -0.506156 0.00119523
-0.244867 -0.727374 0.00288998
0.591691 -0.429762 0.00299879
-0.399858 -0.917425 0.00524032
0.658878 -0.464085 0.00420388
0.269023 -0.462406 0.00365965
0.909542 -0.373071 0.00584395
0.470496 1.03326 0.00506733
0.195866 0.619188 0.00317575
-1.40846 0.503429 0.0113384
0.567483 -0.420477 0.0065305
1.33686 -0.272816 0.0125716
0.144285 0.346836 0.00212741
-0.812784 -0.229082 0.0088529
-0.959881 -0.579289 0.01213
-0.249416 -0.714282 0.00850194
-1.36197 0.746946 0.015515
-0.277489 -0.768639 0.0102409
-0.225684 -0.693474 0.00910287
0.247858 -0.506641 0.00701062
0.263557 -0.405997 0.0059851
-0.750893 0.590117 0.0116937
0.390026 -0.34052 0.0073222
-0.647122 0.554178 0.0112481
0.37626 -0.335872 0.0074377
0.449649 -0.370081 0.00879907
1.29935 -0.277984 0.0217954
-0.9117 -0.610733 0.0198287
0.494123 0.804873 0.0146701
0.15754 0.398045 0.0058718
-0.823438 0.589519 0.016931
0.241338 -0.504241 0.010623
0.256834 -0.404132 0.00882282
0.280576 -0.329148 0.00790527
0.274054 -0.284387 0.008801
0.668343 1.04952 0.0238659
-2.16544 0.933066 0.043799
0.661677 1.36903 0.0287616
0.460971 1.09227 0.0247923
0.271299 -0.331409 0.00913695
0.348244 -0.315319 0.0107877
-0.804266 -0.257778 0.0194009
-0.632089 0.552395 0.0198947
-0.734639 0.580013 0.0222083
-0.809388 -0.242919 0.02129
0.316238 -0.306011 0.0113038
0.330522 -0.307085 0.0117222
-0.68478 0.577884 0.0214522
0.867374 -0.175357 0.0239504
-2.45588 0.847723 0.0692148
-0.218853 -0.277242 0.00915082
0.449998 -0.369062 0.0169368
0.478232 0.780308 0.0252359
-0.888072 0.630734 0.0296769
-0.568248 -0.418759 0.0217043
0.239956 -0.494878 0.017026
0.273308 -0.425957 0.0155037
0.133416 0.370386 0.0101185
-1.59982 0.709533 0.0510108
-0.79856 -0.225098 0.0262097
-0.332476 -0.508996 0.0198938
0.286593 0.650296 0.0213334
-0.78986 -0.246771 0.0276547
0.524398 0.359062 0.0209572
-0.808805 -0.501111 0.0329158
0.492501 0.857657 0.0321158
-0.830302 -0.45281 0.0345834
0.798361 -0.144051 0.0285232
-0.75187 -0.53467 0.0339512
-0.207091 -0.225689 0.0107601
0.311372 -0.303522 0.0155576
0.400774 0.438621 0.0206764
0.659698 1.36869 0.0531864
0.706866 1.51167 0.0581855
0.280727 0.835015 0.0304218
-1.16371 -0.599658 0.0535845
-0.329344 -0.260586 0.0157986
0.29992 -0.297934 0.0160969
-0.691183 0.570074 0.0334799
0.733074 -0.099219 0.0290606
0.442804 0.724336 0.0321802
-0.785265 -0.476889 0.0372527
0.323618 -0.306736 0.0176824
0.404575 0.466105 0.0242608
0.250566 -0.474422 0.0224399
0.489836 0.636856 0.032664
0.689557 0.953794 0.0482165
-0.258858 -0.376327 0.0196529
-0.26827 -0.419515 0.0217913
0.274669 -0.395803 0.0207621
0.296639 -0.299582 0.0184188
0.821051 -0.125655 0.0366741
0.280068 0.761974 0.0331101
-0.836166 -0.243563 0.0387836
0.247216 -0.406292 0.0214113
-0.235543 -0.231682 0.0147639
0.641174 1.29837 0.0651044
-0.778816 -0.481248 0.0429129
-0.267095 -0.374592 0.0214707
0.331826 -0.307754 0.0207134
0.548874 0.671891 0.0381112
0.376728 1.05477 0.0504547
-0.836619 -0.370479 0.043015
-0.190734 -0.232412 0.014037
0.47867 1.11572 0.0581826
-0.826339 -0.323479 0.0437678
-0.217575 -0.199928 0.0140803
-0.190304 -0.215619 0.0137478
0.532297 0.965838 0.0538605
0.682913 0.970279 0.059807
0.336513 0.39371 0.0258392
0.464571 0.632738 0.0394908
0.321139 -0.306587 0.0231692
0.485908 0.632704 0.0414007
0.50609 0.782435 0.0483275
-0.753059 0.530767 0.0476729
-0.197069 -0.231472 0.0161038
-0.720809 0.553661 0.0476581
0.239091 -0.504746 0.0308892
-0.199024 -0.256364 0.0178222
0.527631 0.502777 0.0406945
0.318048 0.397441 0.0277724
0.488806 0.824722 0.0529199
0.251481 -0.505027 0.0321201
0.4545 0.742306 0.0485045
-0.235251 -0.231113 0.0191003
0.366207 0.369047 0.0289151
0.48111 0.640379 0.0454572
-0.205868 -0.278562 0.020921
0.256117 -0.408012 0.0288618
0.38805 -0.334588 0.0305192
0.217345 -0.398248 0.0275986
-0.206326 -0.190548 0.0166895
0.467127 0.663508 0.0486128
0.522731 0.232198 0.0354071
0.0903698 0.263255 0.0182717
-0.202721 -0.176966 0.0167657
0.252568 -0.525276 0.0385016
0.315362 0.712723 0.0497189
0.329577 0.397613 0.0331386
0.440913 0.59336 0.0489894
0.402032 0.667337 0.0511557
0.363308 0.383972 0.034981
0.235257 -0.350646 0.0292766
0.371794 0.38041 0.0363872
0.32895 -0.232059 0.0278607
0.399725 0.387054 0.0387495
0.337752 -0.285068 0.0316989
-0.189236 0.205265 0.0189891
0.331067 0.291676 0.0312182
0.384382 0.575275 0.049508
0.371286 0.592075 0.0500697
-0.197338 -0.218598 0.0220761
0.351746 0.607675 0.0512447
0.326385 -0.307128 0.0339865
0.336051 0.451357 0.0418343
-0.187401 -0.125404 0.0167734
0.296699 0.595021 0.0505182
0.337587 -0.230839 0.0319551
0.400257 0.371544 0.042063
0.295453 0.326752 0.0324053
0.315373 0.612952 0.0528567
-0.202799 -0.268854 0.0268146
0.236875 -0.330546 0.0324158
0.393323 0.376449 0.0425132
0.388373 0.382218 0.0431347
0.366044 0.382789 0.0417276
-0.133562 -0.304702 0.0275541
0.329916 0.41299 0.0427779
-0.200573 -0.1751 0.0220607
-0.194898 -0.191246 0.0222391
-0.138577 -0.303805 0.0279558
-0.207598 -0.220129 0.0253059
0.312458 -0.244013 0.0334691
-0.201651 -0.228029 0.0259167
-0.199227 -0.218181 0.025236
0.297679 0.397643 0.0418599
-0.196034 -0.235913 0.0267102
0.345515 0.289999 0.0391909
0.337246 0.434508 0.0474545
0.334186 0.293675 0.0387912
0.250144 0.454072 0.0453863
-0.182984 -0.228928 0.0261528
-0.193324 -0.25241 0.0287064
0.358406 0.345822 0.0439132
0.360656 0.294325 0.041637
0.348822 0.34681 0.0440659
0.210788 0.487165 0.0475027
-0.343444 0.0881422 0.0316443
-0.186119 -0.121868 0.0198356
-0.19531 -0.180428 0.0238107
0.301724 0.425745 0.0481037
-0.186663 0.20291 0.0253127
0.266623 -0.221158 0.0329024
0.254425 0.424344 0.0469084
-0.200951 -0.216382 0.0290121
0.297295 0.371863 0.0459052
0.224466 0.398575 0.0442367
0.227272 0.418714 0.0463409
0.30388 0.289887 0.0415299
0.190303 0.453611 0.0486829
0.296359 0.403005 0.0499824
-0.177895 -0.129634 0.0221037
0.192811 0.443019 0.0486112
0.1981 0.434169 0.0478922
-0.203729 -0.129234 0.0248233
0.277581 0.285628 0.0405261
0.291551 0.324858 0.0454587
0.235002 0.35278 0.0439854
0.188987 0.371904 0.0432371
-0.178297 -0.20955 0.0293456
0.32704 0.205607 0.0409972
0.285258 0.258253 0.0405445
0.2331 0.372671 0.0464039
0.220491 0.374618 0.0459312
0.175372 0.388958 0.0453251
0.161875 0.40162 0.0462911
0.148004 0.430887 0.047825
0.31361 0.224316 0.0412632
0.278916 0.296518 0.0435332
0.174647 0.373335 0.0442926
-0.195721 -0.192151 0.0297375
0.220059 0.343362 0.0438777
0.146709 0.446533 0.0508965
0.316875 -0.103642 0.0360959
-0.176508 -0.156387 0.0264235
0.243115 -0.203884 0.0351004
0.330818 0.18164 0.0415919
-0.221053 -0.0293593 0.0242955
-0.180747 -0.154514 0.0264842
0.175235 -0.185242 0.0283886
0.164027 0.375917 0.0455131
-0.200866 -0.132865 0.0269464
0.154145 -0.250873 0.0331387
0.331136 0.163917 0.0417034
0.282403 0.250676 0.0424716
-0.174776 -0.126999 0.0242163
-0.187628 -0.152349 0.0276585
0.14467 -0.277532 0.0363153
0.166967 -0.196347 0.0299376
0.322965 0.151134 0.0411149
0.346472 0.35073 0.0568655
0.270048 0.262285 0.0437093
-0.166648 -0.1089 0.0235902
0.169253 0.368575 0.0473826
0.286564 0.198594 0.0409425
0.254081 0.264448 0.0440426
-0.186881 -0.16527 0.0302086
0.130315 -0.265525 0.0361101
0.274358 0.211625 0.0417916
-0.187134 -0.154432 0.0298289
0.28828 0.19075 0.042403
0.259238 0.226228 0.0420844
0.256858 0.237693 0.0428441
0.191828 -0.177227 0.0325244
-0.20366 -0.129594 0.030026
0.257256 0.254001 0.0450181
-0.22037 -0.0310575 0.0275108
-0.204939 -0.08349 0.0278085
0.284339 0.130014 0.0393446
0.266357 0.210163 0.0427617
0.167779 -0.20195 0.0335313
0.165497 -0.20804 0.0342281
0.224691 -0.139834 0.0341717
-0.212763 -0.0510753 0.0281505
-0.208402 -0.065827 0.028079
-0.175351 -0.128485 0.0281217
0.257883 0.211085 0.0433957
0.272626 0.140651 0.040196
0.273484 0.163773 0.0418617
0.254318 0.226139 0.0445042
-0.199993 -0.109475 0.0299482
0.28084 0.131911 0.0408632
0.261604 0.184683 0.0421248
0.242276 0.184468 0.039773
-0.186735 -0.126147 0.0298844
-0.173192 -0.131337 0.0287573
0.170764 0.28753 0.0442348
0.119881 0.33073 0.0468554
-0.220701 -0.0325775 0.0296613
-0.202661 -0.115085 0.031351
0.164963 -0.184408 0.0331797
0.173541 -0.178826 0.0335686
0.242513 -0.114712 0.0364166
0.112005 0.334869 0.0474793
0.266208 0.145748 0.0412887
0.239877 -0.119412 0.036918
0.246042 -0.107929 0.0371905
0.251607 -0.106934 0.0376794
0.283651 0.0894277 0.0412899
0.161315 -0.187661 0.0345538
0.237937 -0.092123 0.0359951
-0.205251 -0.0971547 0.0320597
0.256023 -0.0896746 0.0384023
0.279211 -0.0584789 0.0406672
0.159953 0.273538 0.0448503
0.099348 0.316034 0.0473683
0.248441 -0.0604696 0.0364733
0.228753 0.182152 0.0418354
0.112263 0.309824 0.0467384
0.105687 0.323757 0.0485108
-0.220818 -0.0310923 0.0318326
-0.210648 -0.0600604 0.031498
0.220392 0.199421 0.0431049
-0.185982 -0.0672676 0.0285658
-0.216424 -0.0409335 0.0320484
0.251029 0.152383 0.0430709
0.181122 0.233205 0.0429563
0.168159 0.242221 0.0430134
0.160589 0.254247 0.0435733
0.218628 -0.104084 0.0354844
0.234787 -0.101035 0.0380034
0.246749 -0.0888338 0.0388056
-0.219644 -0.0218369 0.032454
-0.21145 -0.0580523 0.032695
0.219597 -0.0998107 0.036157
0.12574 -0.193363 0.0346325
-0.209964 -0.0616209 0.0331695
-0.220116 -0.0325805 0.0337177
0.232363 0.150754 0.042075
-0.21525 -0.042993 0.0337333
-0.217623 -0.0387696 0.0342659
-0.211379 -0.0599499 0.0345927
0.223081 0.150322 0.0422363
-0.21162 -0.0577961 0.0348933
0.221574 0.153775 0.0431169
0.208307 0.152806 0.0414258
0.164443 0.197016 0.0409702
0.148346 0.227369 0.0435032
0.122634 0.253953 0.0450033
-0.216886 -0.040922 0.0356536
0.0938375 -0.193013 0.0351196
0.225461 0.139835 0.0430397
0.205871 0.165509 0.0428528
0.12902 -0.178108 0.0360127
0.130453 -0.165844 0.0346354
-0.217761 -0.0373324 0.0362797
-0.195601 -0.0776327 0.0346313
0.234254 0.0900412 0.0410186
0.22183 0.122827 0.0415903
-0.189726 -0.0812234 0.034054
0.213582 0.129246 0.0412196
0.184275 -0.113848 0.036139
-0.221942 -0.031041 0.0375379
-0.188798 -0.0675322 0.0333737
0.179744 -0.118157 0.0359395
0.172871 -0.122336 0.0359869
0.115864 0.22999 0.0434888
-0.202852 -0.0515779 0.0356091
0.146955 -0.146115 0.0353626
-0.21305 -0.0273194 0.0370421
0.154782 -0.14561 0.036503
0.137627 0.206049 0.0424243
0.207564 0.109522 0.0407813
0.208744 0.116061 0.0412921
-0.19256 -0.0446763 0.0343911
0.119751 -0.176024 0.0376516
0.160158 0.176874 0.0419438
-0.182969 -0.0647048 0.0344722
0.112657 -0.169469 0.0367635
0.1092 0.217484 0.0437475
-0.0426832 -0.144601 0.0282028
0.203003 0.0861247 0.0404068
-0.0559038 -0.148763 0.0300369
0.198742 0.0881342 0.0402911
-0.0757625 -0.145639 0.0315452
-0.000111871 0.0143182 -0.00142612
-0.115996 0.17559 0.0440388
0.140651 0.122347 0.0408873
0.133374 -0.092091 0.0365358
0.147991 -0.0695897 0.0382415
0.131985 0.103329 0.0398894
0.118993 -0.09357 0.0379646
-0.121084 0.214396 0.0609625
0.126203 0.0807797 0.040256
-0.037142 -0.10512 0.0308325
-0.0642309 -0.0985003 0.0327622
0.121169 0.074148 0.0395565
-0.0937106 0.114999 0.0431556
-0.0702011 -0.0820665 0.0327972
-0.0668346 -0.0820232 0.0327117
0.0571184 -0.085753 0.0351057
-0.0934719 -0.0984277 0.0491163
0.0577575 -0.0849736 0.0359833
0.0619964 -0.0774805 0.0357789
-0.0676268 0.0923046 0.0424318
0.0880125 -0.0171395 0.0380082
0.0873242 -0.010308 0.0374075
-0.0602911 -0.0463004 0.0340917
-0.060202 -0.0416598 0.0349675
-0.0530828 -0.050706 0.0357444
-0.0582154 -0.0326525 0.0342166
-0.0580774 -0.0309412 0.035072
-0.0571595 -0.0255239 0.0352325
-0.0569772 -0.0206024 0.0351089
-0.0569557 -0.0204025 0.0359265
-0.0566378 -0.0136938 0.0353465
-0.0558005 -0.0100665 0.0353842
-0.0552384 -0.0116849 0.0355209
0.317353 -0.288695 -0.289877
0.0698727 -0.566063 -0.287984
-0.214194 -0.252794 0.0123718
0.383825 1.05197 -1.01362
0.255176 -0.279442 -0.332264
0.261602 -0.272555 -0.33171
0.261344 -0.263191 -0.31381
0.21965 -0.375882 -0.358495
0.27264 -0.286729 -0.311145
0.252118 -0.286415 -0.292664
0.185067 -0.402632 -0.337359
0.404544 1.27503 -1.01245
0.301872 -0.282433 -0.311458
0.192063 -0.437706 -0.359355
0.266768 -0.278891 -0.289815
0.258327 -0.294823 -0.292733
0.235899 -0.298427 -0.282996
0.185678 -0.441898 -0.349223
0.249941 -0.300738 -0.281763
0.254021 -0.294223 -0.279632
0.229679 -0.339837 -0.291583
0.220021 -0.355991 -0.296182
0.324235 -0.296109 -0.308016
0.211881 -0.360785 -0.285941
-0.0665642 0.154676 -0.10668
0.261139 -0.280035 -0.254701
0.240592 -0.302772 -0.256619
0.276265 -0.281212 -0.261762
-0.0364496 0.127142 -0.079393
0.378601 -0.324352 -0.325726
0.252382 -0.30911 -0.261773
0.208913 -0.409556 -0.299696
0.258816 -0.299008 -0.257589
0.340064 -0.277726 -0.280819
0.154119 -0.489863 -0.330029
-0.0113952 0.332604 -0.212725
-0.0244977 0.106599 -0.0620958
0.252507 -0.301532 -0.251867
0.239546 -0.353827 -0.271585
0.273358 -0.279149 -0.248658
0.351991 -0.311015 -0.297593
0.291997 -0.286064 -0.25613
0.381762 -0.325225 -0.313897
0.265044 -0.279933 -0.236909
0.123076 -0.507106 -0.319698
0.132608 -0.475268 -0.302707
0.00233619 0.33675 -0.20451
0.257959 -0.307275 -0.240109
0.122395 -0.478754 -0.294506
0.373647 -0.319581 -0.294126
0.225786 -0.363309 -0.253527
0.254361 -0.288173 -0.227485
0.175918 -0.445941 -0.282802
0.210818 -0.411092 -0.269898
0.274004 -0.28128 -0.228644
0.316736 -0.296598 -0.25277
0.0923514 -0.385996 -0.227136
0.179907 -0.453852 -0.275812
0.314968 -0.298628 -0.245108
0.218434 -0.3643 -0.238745
0.0965335 -0.586992 -0.333568
0.291408 -0.293058 -0.231467
0.397475 -0.33316 -0.290212
0.225057 -0.361963 -0.237042
0.150563 -0.466149 -0.270312
0.204276 -0.412671 -0.252819
0.0195841 0.41796 -0.22782
0.438664 0.232314 -0.271125
0.136319 -0.457996 -0.257666
0.479499 -0.379069 -0.329023
0.451524 0.22484 -0.270096
0.420703 0.232308 -0.256784
0.152283 -0.47076 -0.262552
0.394285 -0.330878 -0.270599
0.0529793 -0.581338 -0.30056
0.374443 -0.322867 -0.253056
0.00366165 0.25694 -0.129087
0.0609638 -0.577367 -0.294811
0.458797 -0.363917 -0.295805
-0.000152049 0.323556 -0.162352
-0.175461 0.367093 -0.204764
0.348832 -0.31585 -0.236238
0.173297 -0.427627 -0.231777
0.251891 -0.315584 -0.200896
0.282429 -0.26818 -0.191554
0.546536 0.170283 -0.280554
-0.203418 0.387981 -0.212696
0.38466 -0.322875 -0.242841
0.346299 -0.316025 -0.224936
0.484861 -0.371428 -0.294229
0.481125 0.457084 -0.317131
0.252159 -0.372037 -0.213701
0.456019 0.22575 -0.24021
0.455591 -0.360403 -0.271216
-0.292234 0.420436 -0.236
0.518647 -0.392613 -0.296789
0.312017 -0.078222 -0.148456
-0.266431 -0.0483453 -0.124713
0.545297 0.527477 -0.344398
0.136073 -0.315294 -0.155504
-0.246589 0.405021 -0.214178
-0.153704 0.1288 -0.0917341
0.076831 -0.625551 -0.283369
0.23279 -0.38245 -0.201122
0.312765 -0.301205 -0.191424
0.418773 -0.332342 -0.234659
0.489453 0.22368 -0.238882
0.330839 -0.2918 -0.193404
-0.156751 0.358627 -0.171807
-0.301211 -2.23282 -0.986134
0.0456123 -0.551699 -0.239547
-0.271695 0.415474 -0.215116
0.308355 -0.108472 -0.140624
-0.272514 -0.0507092 -0.120567
0.238735 -0.375087 -0.187583
0.518656 -0.391661 -0.271742
0.444653 0.235545 -0.212566
0.538693 0.562065 -0.327478
0.328672 -0.309679 -0.187546
0.6115 -0.437497 -0.315114
0.0292028 -0.614167 -0.256375
-0.10294 0.317987 -0.13823
-0.289267 -0.0321814 -0.122203
0.427701 0.236653 -0.201101
0.59181 0.645395 -0.359265
-0.374672 0.0705564 -0.157053
-0.3389 -2.09886 -0.867601
0.463302 0.220504 -0.209005
-0.120027 0.331907 -0.142632
-0.0280962 -0.583495 -0.239264
-0.197346 -1.99173 -0.797915
0.0512739 -0.0377144 -0.022187
0.129164 -0.311753 -0.133981
0.408741 -0.338425 -0.207776
0.463473 -0.365742 -0.230498
0.546439 0.613545 -0.320891
-0.258571 -0.0320575 -0.100536
0.585117 0.180711 -0.238833
0.0310698 0.399175 -0.155417
-0.210599 0.381836 -0.16936
-0.331167 -1.89317 -0.74172
0.281764 -0.280402 -0.150897
0.378574 -0.333534 -0.193968
0.54605 0.63505 -0.324861
0.0138319 0.324001 -0.124247
-0.0352008 0.273201 -0.106002
0.0907576 -0.40474 -0.159
-0.258526 -0.0368569 -0.100805
0.0668929 0.47718 -0.183061
-0.439719 -2.15764 -0.83361
0.0199698 -0.622647 -0.235563
0.506304 -0.387801 -0.240229
0.306345 -0.11179 -0.123666
-0.35501 0.439623 -0.212281
-0.0563654 -0.728656 -0.27444
-0.231881 -0.10307 -0.0944873
-0.280359 -1.79916 -0.670157
0.0368223 -0.341068 -0.126331
0.240765 -0.38425 -0.165518
0.433073 0.242285 -0.180717
-0.24395 -0.0837702 -0.0941984
-0.0618035 -0.647833 -0.235117
0.0156949 0.315721 -0.112789
-0.0881908 0.301605 -0.111754
0.199571 -0.381321 -0.151134
0.527996 -0.398782 -0.23407
0.596277 0.184432 -0.220981
0.0431858 0.431405 -0.15251
0.62353 0.755843 -0.343119
-0.276021 -0.0399696 -0.0968105
-0.366154 0.453808 -0.201963
-0.854608 -2.27664 -0.83483
0.101799 -0.452163 -0.159193
-0.21414 0.389212 -0.153184
-0.844719 -2.37766 -0.860072
0.619256 -0.43838 -0.259636
-0.112534 0.326609 -0.118215
-0.263408 -1.78664 -0.609146
0.461824 -0.371838 -0.19882
0.529629 0.237467 -0.193749
-1.528 -2.75814 -1.0548
0.0379076 -0.595789 -0.198254
0.033653 0.386193 -0.128287
0.0500492 -0.349272 -0.116614
1.3216 -0.674985 -0.485783
-1.38514 -2.44241 -0.904742
-0.909731 -2.37335 -0.822429
-0.0837744 -0.62498 -0.203982
-0.273063 -0.0348339 -0.0933037
0.213683 -0.347528 -0.13044
0.590379 -0.416692 -0.231139
0.0397146 0.398549 -0.127722
0.476008 -0.370654 -0.190417
-0.328051 0.43991 -0.174797
0.859011 -0.467044 -0.307429
0.0396273 -0.597415 -0.187014
-0.0913647 0.31641 -0.102952
-0.270823 0.412371 -0.151212
-0.0634664 -0.656359 -0.201076
0.112045 -0.344683 -0.109851
0.676853 -0.379242 -0.235611
-0.834455 -2.29249 -0.732618
0.0215911 -0.616337 -0.185999
0.56771 0.328476 -0.195773
-0.487059 -2.10227 -0.644285
0.649754 -0.461065 -0.235985
0.55203 0.174899 -0.171335
0.475691 0.349047 -0.172403
-0.188645 0.36777 -0.121715
0.152101 -0.376307 -0.117672
-0.794012 -2.24057 -0.672832
0.132511 -0.385263 -0.115595
-0.264315 -0.0383066 -0.0768974
0.153951 -0.396072 -0.118935
-0.331036 0.444304 -0.156019
-0.650066 -0.858144 -0.298056
-0.21257 -1.05866 -0.296935
-0.22821 0.392326 -0.125108
-0.382084 0.0576098 -0.107624
-0.417938 0.4819 -0.175262
0.893042 -0.587454 -0.28888
-0.624279 -2.20706 -0.614424
-0.0889951 -0.640309 -0.174129
0.138805 -0.334938 -0.0968101
1.48774 -0.482615 -0.418053
-0.238701 0.399077 -0.125421
1.04692 -0.497409 -0.30877
1.62363 -0.473717 -0.447824
-0.642174 -0.758876 -0.263274
-1.33888 -2.46947 -0.738131
0.356225 -0.317644 -0.126433
-0.149717 0.349587 -0.100623
-0.358711 0.451537 -0.153296
-0.680902 -0.926505 -0.300163
-0.167813 -0.796756 -0.212659
-1.11606 -2.45348 -0.697803
0.178956 -0.345174 -0.100491
0.22984 -0.367454 -0.111708
-0.171229 0.366076 -0.104166
-0.260155 0.407322 -0.12524
0.596436 -0.424588 -0.180268
-1.33709 -2.51052 -0.706943
-0.206955 -0.821933 -0.211255
1.54715 -0.391717 -0.3955
-1.06191 -2.42389 -0.64499
-0.60869 -1.7512 -0.450939
-0.188171 -0.814522 -0.204618
0.371846 -0.327766 -0.12197
0.638747 0.849532 -0.259782
-0.190391 0.372114 -0.10288
-0.291724 0.425966 -0.126854
0.630231 0.173668 -0.15942
0.454863 0.240599 -0.123776
-0.661848 -0.995213 -0.285238
-1.04889 -2.31954 -0.604067
0.148528 -0.339115 -0.0875028
0.471196 0.233791 -0.125573
0.139306 -0.33083 -0.0842473
-0.142081 -0.710741 -0.168411
0.201518 -0.353801 -0.0942963
0.505428 -0.367895 -0.14606
1.54349 -0.373297 -0.368765
-0.320332 0.438181 -0.126906
-0.561996 -1.52336 -0.37664
-0.661692 -1.98665 -0.482045
0.462632 0.237287 -0.119265
1.51376 -0.327341 -0.350657
-0.240097 0.402158 -0.106599
-0.210863 -0.755435 -0.174397
-0.788334 -0.68168 -0.227951
-0.589629 -1.44836 -0.339061
0.141158 -0.351313 -0.0821657
1.48833 -0.381653 -0.335039
0.471769 0.234391 -0.114438
-0.264254 0.414538 -0.107168
-0.518545 -0.815346 -0.207729
-0.469021 -1.2962 -0.29829
-0.340251 -1.06289 -0.240506
0.176929 -0.357639 -0.0859699
0.405949 -0.334023 -0.115504
0.321124 -0.303547 -0.0933982
1.56498 -0.366259 -0.343598
-0.372987 0.463764 -0.127334
-0.823535 -0.607887 -0.217443
0.356676 -0.310153 -0.103774
1.43808 -0.480824 -0.320253
0.46308 0.245049 -0.110928
-0.631351 -1.50037 -0.337938
-0.870885 0.589991 -0.217794
1.51394 -0.421426 -0.318172
-0.180447 -0.739756 -0.154624
0.14871 -0.431594 -0.0914499
0.249805 -0.275222 -0.0754819
1.55326 -0.335011 -0.323001
0.259083 -0.294924 -0.0775725
0.401193 -0.33208 -0.104587
1.49355 -0.384304 -0.307029
-0.685336 0.518247 -0.173044
-0.889661 -0.562913 -0.20871
-0.708496 -0.675543 -0.194014
-0.255208 -0.799563 -0.166998
0.221527 -0.370682 -0.0859192
0.25594 -0.267894 -0.0749232
1.60659 -0.375517 -0.321945
-0.324577 0.444554 -0.10845
-0.678072 0.532532 -0.170052
-0.450222 -1.06101 -0.22256
0.497543 0.376915 -0.121277
-0.162087 0.359607 -0.0772812
-0.977009 0.629213 -0.225024
-0.846029 -0.61195 -0.200305
-0.806202 -0.631331 -0.197192
-0.878312 0.586331 -0.201569
-0.865856 -0.571183 -0.196546
-0.773825 -1.65394 -0.345897
0.572821 0.180308 -0.113576
-0.884846 -0.533894 -0.193596
-0.312627 -0.901809 -0.17787
0.145007 -0.377277 -0.0759035
-0.457311 -1.13836 -0.22784
-0.345566 -0.931192 -0.181672
0.555375 -0.405857 -0.125405
0.150576 -0.364622 -0.0710572
0.443883 -0.346769 -0.101719
1.58879 -0.35336 -0.292148
-0.377796 0.470041 -0.109969
0.457948 -0.320898 -0.101175
-0.685072 0.5384 -0.156384
-1.20968 -2.35237 -0.467523
0.471192 0.249805 -0.0945749
-0.769033 -0.670191 -0.178092
-1.09576 -2.20556 -0.425459
-0.461395 0.499018 -0.119351
1.50252 -0.384736 -0.266034
-0.195205 0.378361 -0.0739121
-0.231561 0.428939 -0.0842038
-0.741536 -0.612853 -0.1667
1.57079 -0.369619 -0.27264
-0.763858 0.557604 -0.161831
-0.782449 -0.602008 -0.16542
-0.488285 -0.824837 -0.160946
-0.538202 0.515722 -0.12647
-0.806317 0.570535 -0.167454
-1.20425 -0.679566 -0.226953
0.542931 -0.404928 -0.110979
-0.259168 0.413446 -0.0796145
-1.05144 0.619693 -0.196505
-0.853605 0.29781 -0.13677
-0.81479 -0.612114 -0.163539
-0.862451 -0.594882 -0.165447
0.134849 -0.372609 -0.0618536
-0.609758 0.522015 -0.126473
-0.37719 -0.423351 -0.0882972
0.582201 -0.411546 -0.110403
-0.282429 0.424556 -0.079525
1.63009 -0.381859 -0.253855
-0.714763 -0.636422 -0.144099
-0.564674 -0.945004 -0.16378
-0.458835 -1.06323 -0.174583
-0.746866 0.561173 -0.142339
-0.945166 0.590381 -0.168196
-0.812371 -0.630585 -0.153762
1.57076 -0.336423 -0.239071
-0.864754 -0.625375 -0.156286
-1.17912 0.659434 -0.197259
-0.912409 -0.608569 -0.158263
0.250604 -0.480586 -0.0784511
-0.939482 -0.546008 -0.154311
-0.167672 0.372204 -0.0584865
-0.336435 0.455746 -0.0810266
-0.803086 0.579311 -0.141122
-0.905724 -0.430283 -0.139725
-0.709812 -0.608775 -0.12928
-0.489141 -1.08907 -0.164129
-0.321128 -0.938803 -0.136278
1.28203 -0.426172 -0.185046
-0.598355 0.526906 -0.108628
-0.316699 0.600085 -0.0914856
-0.831906 -0.622988 -0.136014
-0.787003 -0.645627 -0.134857
-0.875595 -0.602999 -0.136555
0.261397 -0.33109 -0.0548032
1.51663 -0.388066 -0.200673
-0.844922 0.575936 -0.132756
-0.799752 -0.426738 -0.116268
0.211371 -0.273809 -0.0446002
1.59124 -0.373844 -0.207041
-0.782798 0.576399 -0.124025
0.613342 -0.444923 -0.0945635
0.497725 -0.387669 -0.0776128
-0.42999 0.492776 -0.080661
-0.770052 0.58086 -0.119435
-0.821584 0.581811 -0.123968
-1.44056 -2.55669 -0.353
-0.266622 0.425745 -0.0601802
-0.819221 -0.58915 -0.11909
-0.433335 -1.04222 -0.130856
0.4449 -0.359751 -0.0671744
1.25378 -0.414146 -0.152618
0.230503 -0.375873 -0.0508179
0.383225 -0.332037 -0.0574177
0.566756 -0.421854 -0.0796309
-0.286188 0.430753 -0.0594415
-0.441543 -0.98127 -0.11828
0.251781 -0.468884 -0.0582099
0.397249 -0.331712 -0.0576012
1.51857 -0.389268 -0.171931
-0.971501 0.606703 -0.125812
1.60158 -0.37409 -0.176918
0.512387 -0.393339 -0.0688349
-0.33883 0.459154 -0.0609132
-1.04918 -1.96597 -0.227253
-0.411159 -0.656362 -0.0779161
-0.547672 -1.14061 -0.126457
0.465651 0.246779 -0.0543832
-0.417719 -1.0597 -0.114741
0.48185 -0.380047 -0.0614655
-0.363286 0.466089 -0.0596429
0.240828 -0.461368 -0.0500376
0.322259 -0.305632 -0.0433215
0.587241 -0.429256 -0.0710082
-0.7857 -0.375406 -0.0828179
-0.393897 0.483584 -0.0605462
-0.685556 -1.33496 -0.138511
-1.16752 0.417859 -0.114492
-0.890729 -0.557329 -0.0934509
0.557098 -0.417333 -0.062705
1.37135 -0.456168 -0.129078
-1.61748 0.856874 -0.153648
0.381626 -0.339164 -0.0425105
1.54542 -0.394858 -0.132869
-0.345752 -0.899794 -0.0770355
-0.699886 -1.3674 -0.118355
0.61307 -0.44666 -0.0598991
-0.77366 0.586503 -0.0770649
-0.710365 0.362953 -0.0556901
0.262418 -0.323328 -0.0326079
-0.839886 0.595446 -0.0793348
-0.353509 -0.874242 -0.0701231
-0.493654 -1.12907 -0.0881733
-0.693378 -1.304 -0.103808
-0.647325 -1.29546 -0.0979925
0.432887 -0.360188 -0.0381815
0.5906 -0.430015 -0.0494488
-0.987381 0.615646 -0.0790351
-0.437656 0.0598391 -0.02309
1.56156 -0.399655 -0.105649
-0.784404 -0.368791 -0.0526711
-0.717669 -1.38549 -0.0930545
0.500262 -0.38989 -0.0384147
-0.31792 -0.635206 -0.0354191
1.12614 -0.741446 -0.0728539
1.11426 -0.70182 -0.071253
0.488068 0.241311 -0.0299693
0.469454 0.249197 -0.0290716
-0.343876 0.470427 -0.0319936
-0.491576 -1.08413 -0.0602775
-0.285581 -0.776734 -0.0407677
-0.739338 -0.426949 -0.0411231
-0.741071 -1.39541 -0.0756395
0.332321 -0.31295 -0.0232767
0.463326 -0.368373 -0.0293503
0.508204 0.323625 -0.0303744
0.522253 0.366288 -0.0317135
0.26017 -0.477236 -0.0258904
-1.58042 0.579199 -0.076057
-0.572619 -0.168874 -0.026769
-0.636468 -1.13397 -0.0563698
0.374234 -0.505201 -0.0256761
0.63 -0.454203 -0.0317759
1.53543 -0.392037 -0.0629676
-0.568822 0.109059 -0.0255773
-0.259014 -0.342594 -0.0172141
1.59968 -0.374464 -0.0645314
0.71456 0.860379 -0.0412633
-0.85087 0.582466 -0.0386197
-1.62997 0.622143 -0.0630202
-0.965706 -0.541477 -0.0364325
-0.37984 -0.946301 -0.0320713
0.571548 -0.426251 -0.023397
0.616632 -0.433733 -0.0237441
0.461027 0.125021 -0.0155536
-0.481028 -1.10406 -0.035081
0.756605 1.2538 -0.0438823
-0.606972 0.541569 -0.0259541
-0.25765 -0.780848 -0.0217402
1.55281 -0.329733 -0.0444528
-1.03991 0.647935 -0.0362099
-0.47796 0.0662193 -0.0115107
-1.36479 0.491466 -0.0376027
-0.818871 -0.37103 -0.0199522
-0.994426 -0.596901 -0.0270791
-0.558231 -0.931009 -0.0230366
1.58747 -0.368493 -0.0350226
-0.12868 0.277219 -0.00734078
-0.797046 0.60338 -0.0229008
-0.83982 0.267567 -0.0206241
0.875149 1.53851 -0.0370992
-0.787253 0.581944 -0.0216234
0.447257 -0.366359 -0.0103536
-0.871835 -0.459594 -0.0135832
-0.91695 -0.570567 -0.0170238
-0.587584 -1.1806 -0.0183712
0.607777 -0.438137 -0.0110084
-0.450223 0.057004 -0.00747305
-0.265251 -0.801654 -0.010416
-0.390606 0.496671 -0.00900862
-2.4157 1.0384 -0.0326787
-0.751934 -0.354142 -0.0106453
-0.476485 -1.0491 -0.0120861
-0.418264 -0.96062 -0.0105735
-1.31395 0.462451 -0.0192047
-0.256664 -0.690817 -0.0046309
1.0944 -0.685112 -0.0110506
-0.616161 0.550452 -0.00837434
-0.273625 -0.351154 -0.00191953
0.259733 -0.433205 -0.00115994
0.466675 0.244273 -0.00173582
-0.759645 0.22146 -6.78269e-05
-0.863763 -0.499397 0.00351817
-0.944526 -0.58317 0.00568445
-0.543274 -0.928048 0.00868187
-1.33964 0.73447 0.0121889
-0.671881 -0.211793 0.00322074
0.248598 -0.440919 0.00493556
0.278592 -0.316678 0.00366375
-1.08512 -0.576829 0.0132271
-0.255594 -0.72362 0.00895816
0.381764 -0.33268 0.00615944
-0.627533 0.536924 0.00811421
0.0733521 0.194861 0.00136997
-0.328186 -0.50923 0.0086284
-0.826851 0.589126 0.0151448
-0.931329 -0.624301 0.0199586
-0.91089 -0.672843 0.0197758
0.366601 -0.32937 0.00754483
0.00556837 0.0317488 -0.000758485
0.273751 -0.337356 0.00880543
0.275274 -0.321197 0.00856487
0.157367 0.384473 0.00750123
-1.70383 0.590872 0.0389441
-0.669274 -0.386542 0.0186812
-0.748798 -0.477098 0.020478
0.634008 -0.460055 0.0189487
-0.805629 -0.241915 0.0215372
-0.75184 0.590263 0.0246032
-1.50566 0.571116 0.0407731
0.399238 -0.341944 0.0138644
0.583011 -0.25259 0.0174884
-0.6734 0.571874 0.0234394
-0.222783 -0.261159 0.0102024
0.408363 0.444233 0.0192196
-0.752552 -0.535302 0.0316524
0.237454 -0.489117 0.0188254
0.306314 -0.301311 0.014075
0.833084 -0.147505 0.0275314
0.606543 0.579667 0.0278054
0.449044 0.778434 0.0307996
0.242807 0.55253 0.019623
-2.20718 0.788563 0.0822365
-1.47402 0.484894 0.0529621
0.827458 -0.160618 0.0311919
0.830554 1.13779 0.0522826
-0.691711 0.565705 0.0309164
-0.385871 0.0661363 0.011519
-0.832754 -0.426171 0.0362195
0.322174 -0.306374 0.0165922
0.751491 -0.103406 0.0277668
0.393374 0.455826 0.0223789
0.48552 0.62769 0.0298639
-0.807745 -0.3863 0.0356526
-0.848613 -0.466884 0.0384229
-0.301283 -0.449429 0.0219759
0.247894 -0.469919 0.0214612
0.473243 1.09999 0.0462133
0.276008 -0.397647 0.0199526
-0.569686 -0.243808 0.027276
-0.215789 -0.212286 0.0125453
-0.22908 -0.316848 0.0169096
0.273484 -0.287304 0.0143811
0.530333 0.645502 0.0344059
-0.824153 -0.326142 0.0414565
0.533556 0.346478 0.0297272
-0.221458 -0.20592 0.0136392
0.499767 0.777366 0.044782
-0.196841 -0.231599 0.0159553
0.471458 0.646257 0.0411579
-0.715455 0.551499 0.0470997
0.469609 0.765764 0.0490653
0.349753 0.592903 0.0359473
-0.746632 -0.363646 0.0459904
-0.199829 -0.257467 0.017941
0.264153 -0.523343 0.0333561
0.316184 0.397865 0.02792
-0.69647 -0.316825 0.0439442
0.482919 0.642045 0.0477097
0.4839 0.862766 0.0577354
-0.415755 0.0568953 0.0256952
-0.96539 -0.411659 0.0642157
-0.0676345 -0.0518409 0.00850473
0.30852 0.868703 0.0553496
-0.203641 -0.277824 0.0214184
0.322219 0.734481 0.0509487
0.367087 0.322929 0.0328726
0.367859 0.389126 0.035676
0.450721 0.520887 0.0469051
0.300939 -0.463743 0.0386443
0.342699 0.286167 0.030946
0.415344 0.466132 0.0444312
-0.427797 0.252476 0.0355273
-0.334073 0.0631043 0.024177
0.40374 0.525817 0.0490314
0.372165 0.593739 0.0518321
0.337904 -0.231081 0.0311776
-0.218356 -0.23085 0.0246859
0.408555 0.370039 0.0428886
0.380478 0.372354 0.0421071
-0.201741 -0.177311 0.0209551
-0.202073 -0.197416 0.0226196
-0.392467 0.0558235 0.0312161
-0.198277 -0.250956 0.0268964
0.368478 0.384748 0.0438235
0.304635 -0.2392 0.0329299
0.449513 0.364107 0.0511167
0.338566 0.298361 0.0390879
-0.343037 0.0879976 0.0309444
-0.218401 -0.203241 0.0260044
-0.370796 0.0689124 0.0322463
0.372324 0.287383 0.0431345
0.293437 0.415165 0.0466108
0.232757 0.428136 0.0455304
0.269872 0.419665 0.0478199
-0.193023 -0.192151 0.0262709
0.262856 -0.218275 0.0325796
0.30857 0.386655 0.0474387
0.316886 0.323769 0.0447915
-0.199675 -0.156562 0.0255018
0.30628 0.291682 0.043158
0.261055 0.354941 0.0441052
0.217498 0.421662 0.0483237
0.301413 0.26324 0.0404803
0.292693 0.326031 0.045719
0.183192 0.403328 0.0457654
-0.181087 -0.213079 0.0294984
0.214813 0.365408 0.0445342
0.169704 0.42498 0.0482549
-0.200339 -0.116659 0.024591
-0.19271 -0.174691 0.027819
0.138942 -0.274789 0.0331872
0.183287 -0.205079 0.0299502
0.296948 0.23909 0.0410257
0.288033 0.306582 0.0454649
0.25219 0.35922 0.0469704
0.305729 -0.250431 0.0425714
0.21599 0.340758 0.0439506
-0.200995 -0.13332 0.0263941
0.163824 -0.266851 0.0352973
-0.323833 0.217172 0.0433475
-0.211115 -0.063348 0.0244926
0.285559 0.192935 0.0392739
0.187772 0.383174 0.0482746
0.159516 0.368623 0.0452546
-0.194417 -0.149295 0.0286712
0.160053 -0.196196 0.0288253
0.277984 0.282135 0.0451949
0.144931 -0.277284 0.0371426
0.264006 0.122309 0.034887
0.350412 0.174815 0.0464595
0.153281 0.425452 0.0541212
-0.178093 -0.15562 0.0281367
-0.276347 0.0395344 0.03335
0.260319 0.238155 0.0428157
-0.186432 -0.153874 0.0296979
0.246487 0.258874 0.0440723
-0.0784535 -0.0282637 0.00736758
-0.202911 -0.105087 0.0285608
0.166632 -0.199734 0.0326015
0.166953 -0.180008 0.0310029
0.265172 0.218224 0.0436967
0.251007 0.248212 0.0451053
-0.215279 -0.0513587 0.0286413
-0.209346 -0.0656112 0.0282604
-0.189391 -0.127484 0.0293782
0.162515 -0.204452 0.0337732
0.264402 0.200456 0.0433712
-0.200637 -0.123348 0.0307675
-0.176213 -0.129262 0.0284566
0.164862 -0.184063 0.0329191
0.240496 -0.114009 0.0359441
0.264197 0.134193 0.0404716
0.263177 0.14466 0.0409735
-0.205581 -0.0859347 0.030788
0.24333 -0.121235 0.0377303
0.226573 -0.0984173 0.033712
0.165128 -0.193062 0.0356663
0.262558 -0.0553481 0.0376482
-0.205654 -0.0960861 0.0326286
0.232201 0.175015 0.041953
0.181642 0.234338 0.0429361
0.251633 0.123387 0.0412193
0.248956 0.132111 0.0412271
0.171944 0.246657 0.0438436
0.161017 0.274761 0.0461897
0.111999 0.305741 0.0471462
-0.20795 -0.0837028 0.0331024
0.248039 -0.0900288 0.0392654
0.252415 -0.0717332 0.0393072
0.250512 -0.0646173 0.0387716
0.235942 0.132881 0.042035
0.222191 0.149436 0.0423281
0.212042 0.154537 0.0419431
0.169568 0.203014 0.0422303
-0.215962 -0.0406139 0.0351964
0.157607 0.231191 0.0448542
0.148824 0.227517 0.043798
-0.217122 -0.024018 0.0353433
0.0965706 -0.198706 0.0361949
0.210692 0.128582 0.0405391
0.204363 0.16415 0.0428047
0.12206 0.252056 0.0451314
-0.189717 -0.06823 0.0331103
-0.186275 -0.079282 0.0334659
0.125283 -0.173413 0.0353529
-0.208427 -0.053495 0.0364591
0.13938 -0.152305 0.0351815
0.209604 0.110414 0.041184
0.159124 0.175824 0.0415983
0.120462 -0.177056 0.0379284
0.107757 0.215277 0.0431071
0.204283 0.0959132 0.0412984
0.202111 0.0854114 0.0403361
-0.04139 -0.142472 0.0280526
-0.0567434 -0.150016 0.0307645
0.196673 0.0748472 0.0405235
0.1288 -0.149171 0.0380897
-0.101028 0.187775 0.0439684
-0.118143 0.169494 0.0434721
0.0797829 -0.0719526 0.0231997
0.135279 -0.0936986 0.0374564
0.149334 0.124029 0.0440457
-0.135913 0.124645 0.0434259
0.146465 -0.0695067 0.0380776
0.142097 -0.0400027 0.0353716
0.119027 -0.0937338 0.0382296
0.117468 -0.0820658 0.0367616
0.109621 -0.094741 0.0378719
-0.064141 -0.0993769 0.0325696
-0.0707381 -0.0823843 0.0330316
0.0583482 -0.0764811 0.0337448
0.0599662 -0.0808905 0.0355753
-0.0674838 0.0920381 0.0421658
-0.0599669 -0.0419618 0.0337306
-0.0518617 -0.0515309 0.0362023
-0.0575818 -0.0337739 0.0343226
0.219283 -0.219163 -0.281477
0.311479 -0.290969 -0.301363
0.273886 -0.261279 -0.250043
0.301103 -0.290543 -0.249121
0.0716248 -0.574876 -0.307825
0.452495 -0.373015 -0.279636
0.126778 -0.319639 -0.154746
-0.429066 -2.21567 -0.893459
-0.68482 -2.00408 -0.747196
0.739611 0.921775 -0.399777
-0.393582 -2.31952 -0.786989
0.432881 -0.323884 -0.175703
0.0374087 0.382003 -0.114043
0.852969 -0.35293 -0.257943
-0.943052 -2.39306 -0.681193
1.28686 -0.51571 -0.315569
-0.545271 -0.759575 -0.17474
-0.722145 -0.671622 -0.152296
0.32438 -0.299236 -0.0555328
0.300807 -0.296401 -0.0427551
0.306026 -0.301802 -0.0323024
0.668746 -0.47338 -0.0447568
1.56704 -0.420729 -0.0838165
-0.863891 -0.365278 0.00874352
0.209107 0.491904 0.00493189
0.318393 0.219293 0.0392718
-0.114946 0.174341 0.0433047
-0.0671057 -0.064594 0.04842
0.25313 -0.260793 -0.325656
0.249499 -0.262454 -0.318387
0.267411 -0.269811 -0.314217
0.215738 -0.370927 -0.352016
0.278477 -0.25917 -0.300035
0.256017 -0.263929 -0.290534
0.645952 1.95469 -1.62334
0.257508 -0.279473 -0.291694
0.311909 1.01138 -0.799139
0.304729 -0.284088 -0.314301
0.193299 -0.437491 -0.359425
0.183691 -0.441091 -0.349405
0.291888 -0.283326 -0.297884
0.246544 -0.296955 -0.279361
0.253709 -0.2936 -0.27706
0.232479 -0.343445 -0.294647
0.329669 -0.299769 -0.311972
-0.014991 0.092908 -0.0557299
0.208296 -0.357757 -0.282368
0.349697 -0.304079 -0.313956
0.266288 -0.295261 -0.266263
0.239402 -0.303701 -0.257749
-0.0364948 0.127147 -0.0794875
0.258805 -0.298737 -0.259541
-0.0205802 0.0956438 -0.0559121
0.15462 -0.486263 -0.328926
-0.0125584 0.341198 -0.219079
0.237732 -0.350232 -0.271094
0.336829 -0.309073 -0.295906
0.248548 -0.297936 -0.247939
0.354777 -0.31617 -0.301369
0.230188 -0.355485 -0.263528
0.267694 -0.280676 -0.240723
0.00238182 0.338269 -0.206059
0.25363 -0.284811 -0.229568
0.372762 -0.316159 -0.294629
0.294323 -0.291697 -0.244645
0.212692 -0.413567 -0.27389
0.17595 -0.443293 -0.279906
0.272353 -0.294687 -0.231859
0.231439 -0.363163 -0.246785
0.165223 -0.412346 -0.249106
0.290405 -0.294594 -0.231925
0.0943128 -0.566906 -0.322226
0.218501 -0.365615 -0.23824
0.258674 -0.297759 -0.220952
0.397272 -0.332475 -0.289368
-0.0114816 0.334047 -0.183454
0.318507 -0.311706 -0.244123
0.470914 -0.368302 -0.325317
0.433596 -0.347327 -0.299297
0.447118 0.306927 -0.292973
0.453622 0.223345 -0.271638
0.415746 0.229751 -0.252677
-0.0515691 0.136053 -0.0700116
0.373971 -0.322459 -0.253491
-0.00172881 0.347235 -0.175715
0.0697786 -0.562504 -0.2865
0.350599 -0.314029 -0.236595
0.511272 -0.380831 -0.325511
0.245632 -0.309871 -0.198122
0.462487 -0.366537 -0.296765
0.586056 -0.418601 -0.349902
0.574277 0.177588 -0.293408
0.077937 -0.561165 -0.275338
0.418713 -0.345511 -0.262243
0.505999 -0.384982 -0.308011
0.0166313 0.224874 -0.103894
0.530828 -0.394525 -0.3214
0.244955 -0.360431 -0.209514
0.278834 -0.281023 -0.184734
0.455773 0.223863 -0.237797
-0.266583 -0.0441039 -0.125507
0.238001 -0.365372 -0.202882
0.211093 -0.359775 -0.192798
0.319152 -0.0800745 -0.15197
0.568927 -0.415319 -0.323187
-0.287622 0.414846 -0.231431
0.122784 -0.31177 -0.151487
-0.246864 0.405734 -0.214639
0.48793 0.221104 -0.241185
0.399749 -0.331457 -0.230719
0.529564 -0.418166 -0.296325
-0.272414 0.416519 -0.215975
-0.194947 0.190394 -0.118853
-0.180045 0.180897 -0.110131
0.0385675 -0.479921 -0.204672
0.571826 -0.407708 -0.296333
0.573894 0.596239 -0.349552
0.532829 -0.402307 -0.28038
0.461953 0.227474 -0.216696
0.431742 -0.341949 -0.229562
-0.165526 0.177503 -0.0982023
-0.29322 -0.0318423 -0.124059
-0.291823 -2.04679 -0.854928
0.576203 0.628864 -0.352583
0.18175 -0.173904 -0.103214
0.428833 0.23741 -0.201065
0.501886 0.226504 -0.222726
0.457525 0.235892 -0.208032
-0.203744 -2.01205 -0.8058
-0.244749 -2.03435 -0.813728
0.512527 0.476409 -0.277348
-0.300069 -2.0333 -0.803457
0.0456876 -0.533113 -0.209066
0.286978 -0.290138 -0.158924
0.581551 0.179706 -0.236971
0.550803 0.616669 -0.32204
0.015465 0.340397 -0.130994
-0.269476 -0.0389033 -0.107035
-0.349366 -2.00146 -0.779095
0.0677739 0.481767 -0.184552
0.0200635 -0.631098 -0.240657
-0.425669 -2.10123 -0.80845
0.558259 -0.412533 -0.259323
-0.221764 0.284163 -0.133409
-0.312981 -1.97862 -0.735044
0.162825 -0.309899 -0.125954
0.431804 0.241604 -0.180451
-0.0619641 -0.632258 -0.229647
0.00163422 0.0283294 -0.00570491
0.0155703 -0.59571 -0.210566
0.0470954 0.456674 -0.160705
-0.0898975 0.305631 -0.112345
-0.259787 0.40135 -0.168818
-0.0207435 -0.582964 -0.205782
0.171359 -0.214662 -0.0963156
-0.369949 0.45828 -0.205478
-0.214693 0.390146 -0.154154
-0.785796 -2.25028 -0.820112
-0.112586 0.323913 -0.11634
-0.307029 -2.05244 -0.69879
0.513821 0.230916 -0.188821
0.0246177 0.352317 -0.117874
-0.122039 0.328238 -0.116307
-1.45682 -2.60974 -0.989312
1.30629 -0.670633 -0.483541
0.295293 -0.290406 -0.132352
0.332341 -0.293405 -0.141743
0.418646 -0.346145 -0.17499
0.272722 -0.312302 -0.132854
0.487716 -0.3815 -0.198201
0.546087 0.506021 -0.232876
0.252571 -0.299863 -0.121416
-0.0922916 0.314081 -0.0992136
0.388709 -0.32959 -0.153829
0.504491 -0.374807 -0.186968
0.644887 0.821454 -0.317332
-0.878329 -2.38669 -0.762653
-0.1123 -0.712532 -0.216605
0.704648 -0.500858 -0.25646
0.465902 0.293688 -0.159478
0.460688 -0.359633 -0.167624
-0.124477 0.335004 -0.101598
-0.333987 0.450023 -0.160006
-0.610807 -1.99042 -0.585806
0.308752 1.14691 -0.331005
-1.34588 -1.67003 -0.597131
0.594929 0.164307 -0.172614
0.483052 0.327008 -0.162505
0.67675 0.879229 -0.308375
-0.478377 -1.85655 -0.526597
-0.113747 -0.666582 -0.187543
0.468244 0.477374 -0.185901
1.50634 -0.48147 -0.426237
-1.49905 -2.52802 -0.7885
-0.232306 0.39273 -0.122821
-0.671167 0.521071 -0.224243
-0.594147 0.500459 -0.203219
-1.62267 -2.57634 -0.787377
-1.17093 -2.44828 -0.704866
-1.45687 -2.57716 -0.75897
-0.169419 0.362281 -0.103638
-1.21441 -2.39709 -0.681503
1.04595 -0.471265 -0.294354
-1.19256 -1.31173 -0.442617
-0.980584 -2.37892 -0.644363
1.48735 -0.370105 -0.383096
-0.279056 -0.0327672 -0.0708995
-0.824507 -2.13371 -0.562351
-0.189887 0.370978 -0.103107
-0.652431 0.51607 -0.205088
-0.405593 -0.533331 -0.164384
-0.144683 -0.40727 -0.110223
0.650768 0.863119 -0.263341
-0.0650684 0.270485 -0.0671701
-0.291339 0.424655 -0.124912
-0.737325 -1.64985 -0.435603
-1.16779 -2.42691 -0.636453
0.117319 -0.359086 -0.0890839
0.458407 0.244918 -0.124345
-0.83525 -0.655752 -0.249464
0.195368 -0.420454 -0.108945
1.71365 -0.412965 -0.409181
-0.152462 -0.748422 -0.176078
-0.240206 0.404961 -0.109369
0.469293 0.230314 -0.12005
0.28719 -0.254788 -0.0880855
-0.743795 0.541979 -0.206795
-0.247155 -0.885678 -0.202243
0.141773 -0.357817 -0.0845308
1.4697 -0.372175 -0.327246
-0.887801 -0.583122 -0.226939
-0.490334 -1.17943 -0.272141
-0.372607 0.464001 -0.125666
0.454403 0.243126 -0.108697
-0.813158 -0.615326 -0.210385
0.318265 -0.315052 -0.0930526
0.266196 -0.291951 -0.0792366
1.50521 -0.382471 -0.318279
1.60918 -0.341115 -0.331761
0.32252 -0.333678 -0.0909435
