ply
format ascii 1.0 
element vertex 1877
comment /media/mkaihara/Seagate Backup Plus Drive/model_iterations/model_75.ply
property float32 x 
property float32 y 
property float32 z 
end_header 
-5.99705 -4.54517 1.03047
7.13962 -3.92958 1.12022
8.03589 6.45691 1.42579
5.31834 8.98894 1.4463
-6.38976 -4.32657 1.05823
4.9317 -5.52449 1.02885
7.17715 -3.8254 1.132
7.54996 -3.68163 1.16235
3.58385 9.94205 1.47147
3.39742 10.2223 1.50167
-7.38014 -1.08373 1.04183
-7.08286 -2.0064 1.02629
4.9712 -5.28649 1.01454
7.23866 -3.73347 1.14434
7.35463 -3.66807 1.16576
7.86196 -3.35205 1.21513
-7.16416 -1.87719 1.0537
-7.01684 -2.94954 1.10344
-6.01437 -4.37813 1.07025
7.89645 -2.77922 1.22491
8.20565 4.60556 1.37876
4.96066 8.49797 1.44219
8.3428 4.49264 1.40054
7.82217 -2.3383 1.20359
7.11991 5.66782 1.36288
2.93293 9.36129 1.4666
-7.10277 -2.02204 1.10726
7.47723 -3.10696 1.22076
8.20252 4.53316 1.4207
5.75778 7.40488 1.4244
5.26376 7.5938 1.408
5.09866 7.89942 1.42814
5.05164 8.00635 1.43282
7.32804 -3.16733 1.21943
7.67246 -2.75366 1.24145
-6.76386 -1.68472 1.0504
7.82412 -2.25466 1.24874
7.21082 5.40803 1.38415
-7.11235 -1.95484 1.1451
-6.92805 -2.78918 1.16123
6.79182 5.50898 1.37182
-7.36583 -1.0973 1.1637
-7.15333 -1.82647 1.15674
-7.05513 -2.07004 1.1525
-7.12989 -1.87484 1.15739
-6.90311 -2.93769 1.17817
4.78649 7.42167 1.40452
3.44653 -6.0324 1.10946
-7.28576 -1.30121 1.18613
3.52844 -5.70829 1.08115
3.56539 -5.61378 1.07056
7.05898 4.75822 1.38731
4.64091 7.34519 1.41408
-7.07991 -2.02603 1.20064
-7.10206 -1.94941 1.209
6.95451 4.8191 1.39941
3.79792 7.88987 1.44968
6.05196 -3.3186 1.14985
6.62308 4.86548 1.37035
4.64395 7.13764 1.42048
3.83672 -5.30101 1.0999
7.09583 4.41864 1.40761
7.46802 2.85563 1.35132
6.30943 5.27443 1.3939
-7.28938 -1.2575 1.26019
6.74539 4.07824 1.35382
-6.45732 -2.77476 1.19968
5.50914 -3.62946 1.13335
5.69026 -3.51827 1.1487
2.73885 7.80508 1.42994
-7.38354 -1.04109 1.29328
5.33355 -3.78325 1.13994
-6.31717 -2.26191 1.16401
-6.27743 -2.41908 1.17843
4.28141 -4.66498 1.10731
4.49424 -4.47742 1.11288
4.59184 -4.44918 1.12175
-6.80936 -1.73469 1.23835
4.3195 6.48044 1.38932
-7.16992 -0.929625 1.29291
-6.14987 -2.25987 1.16755
6.6334 3.68858 1.36069
6.09292 4.35677 1.35874
3.60934 -5.32842 1.17045
5.13772 5.6742 1.40017
2.50323 7.16298 1.42521
6.48067 3.05011 1.35437
-1.70639 -5.78269 1.14145
6.4255 -1.38578 1.24725
6.26976 2.77639 1.32027
6.21563 2.38045 1.32802
-4.46763 3.95357 1.4034
4.3214 3.53134 1.33487
4.20743 3.28936 1.32218
4.66505 -1.6777 1.24488
4.81839 -1.38085 1.25395
-2.1557 4.8312 1.32264
3.72807 -2.95381 1.22278
3.67417 -2.55027 1.194
3.40791 -2.96283 1.22629
3.99984 2.56656 1.32811
-2.59366 -3.53322 1.25092
-2.32499 -3.56911 1.21616
3.75104 2.05569 1.30045
3.72784 1.97818 1.29992
-2.85213 3.49788 1.39317
-2.29511 -2.41808 1.1872
1.95768 -2.78424 1.21418
-2.12896 2.77514 1.32948
-2.0336 2.76314 1.33564
2.2527 -1.87124 1.22632
2.38188 -1.49927 1.22319
-2.0188 1.88027 1.29918
-2.0632 -1.44223 1.22835
1.45157 -2.07274 1.24711
-1.99126 -1.08721 1.21449
-1.92394 -0.70734 1.22018
-1.9257 -0.70314 1.24579
-1.95511 -0.344223 1.22935
-1.89199 -0.564441 1.23016
-1.89162 -0.530665 1.23527
8.20806 -8.68687 -7.45469
12.0857 -10.2535 -8.77144
-8.85248 15.8043 -7.03019
20.3276 24.7528 -11.5049
-8.82089 -2.52616 -2.58546
-34.8606 -23.287 -7.74407
-34.4472 -22.5276 -6.0728
-34.1783 -23.227 -6.13647
-31.4931 -20.1977 -2.8134
9.262 -8.82181 -0.390828
-7.81533 16.846 -0.458141
-29.6863 -11.4876 0.733529
-6.93238 -8.28537 0.461564
16.4697 23.6497 1.56595
11.2807 15.8648 1.6102
-6.70479 -6.67779 0.88503
4.17855 12.1245 1.47778
8.68293 9.04451 1.46661
7.96765 -8.75886 -10.3735
8.82625 -8.53414 -10.4906
6.95247 -11.9299 -11.5072
6.86825 -11.3435 -10.8895
8.1476 -8.25987 -9.52715
7.01794 -12.0226 -11.3203
7.06183 -10.9666 -10.4503
7.99737 -8.37274 -9.19847
6.72359 -11.2784 -10.2832
6.44147 -11.6908 -10.2076
7.75296 -8.84568 -8.96722
6.20155 -14.3081 -11.8014
8.29323 -8.69538 -9.0956
6.29627 -11.9028 -10.1701
6.14414 -12.082 -10.1078
7.48653 -9.4395 -8.99575
7.90496 -9.05101 -8.92191
10.4547 -9.43844 -10.4758
6.11737 -14.1084 -11.3666
6.09942 -13.6649 -11.0025
6.12787 -12.5704 -10.2861
9.18763 -8.81736 -9.34171
9.27535 -9.0638 -9.45884
5.86172 -12.4991 -10.0291
9.3512 -8.9806 -9.25306
6.85653 -11.118 -9.2706
5.6127 -12.9641 -9.99902
9.68044 -9.07038 -9.40162
7.60433 -9.33852 -8.46744
9.98491 -9.17543 -9.52694
10.9035 -9.48152 -10.1392
11.4239 -9.68434 -10.058
8.37926 -8.60249 -7.95079
7.42628 -9.29319 -7.86022
8.162 -8.71264 -7.89127
7.62313 -9.34603 -7.89079
7.83186 -9.39611 -7.83994
8.31512 -8.52982 -7.61509
0.361083 15.88 -10.1341
7.52282 -9.31819 -7.62134
10.8953 -9.59364 -9.23036
7.22011 -10.6936 -8.16658
8.15009 -8.49213 -7.42307
4.61124 -15.4018 -10.1115
8.70822 -8.69544 -7.61409
7.91647 -9.02693 -7.40611
4.04685 -18.0146 -11.3736
8.19265 -8.62224 -7.27131
4.08531 -17.3066 -10.8507
0.146892 14.886 -9.05745
6.64953 -11.2545 -7.95898
7.73788 -9.26252 -7.32328
10.1116 -9.29954 -8.33603
6.81568 -11.2436 -7.89344
8.05501 -9.19827 -7.3394
11.2507 -9.68116 -8.87431
5.39754 -13.8496 -8.81606
7.73001 -9.26033 -7.15377
9.34204 -9.02493 -7.69701
6.89708 -11.1073 -7.73844
7.97807 -9.12201 -7.11101
9.74173 -9.17717 -7.79995
14.8088 7.39971 -9.61373
8.65996 -8.82361 -7.14406
6.92773 -10.9567 -7.45036
2.63863 -11.2074 -6.62207
7.85455 -9.06557 -6.86999
9.59396 -9.12958 -7.52318
10.7781 -9.48242 -8.0985
3.2793 -20.601 -11.7313
6.79637 -10.975 -7.23711
10.0931 -9.2793 -7.67824
12.315 -10.3333 -9.01551
9.23104 -8.99845 -7.20362
4.61217 -14.283 -8.36799
7.99757 -9.20917 -6.77426
14.7308 7.53108 -9.08217
9.68597 -9.09632 -7.29776
0.837893 17.4652 -9.54779
2.74159 -19.8604 -10.9321
11.1131 -9.63036 -7.9845
4.22878 -14.4076 -8.12836
14.6445 7.65827 -8.90087
15.0257 10.3739 -9.80263
13.9821 7.71353 -8.5317
10.9333 -9.60272 -7.73836
13.2337 -10.7768 -9.0789
3.04385 -19.336 -10.2902
11.3363 -9.80823 -7.62773
2.16831 -20.3848 -10.3469
10.245 -9.32743 -6.9672
14.2337 -11.2583 -9.11209
13.7701 -11.1378 -8.86658
10.9884 -9.63804 -7.28216
7.50108 -9.32855 -5.9281
3.56149 -8.46445 -4.52576
-8.71852 -1.91427 -4.38871
2.22381 -20.1714 -9.95344
4.52979 -9.295 -5.05699
0.40471 13.6554 -6.687
7.60001 -9.26064 -5.84605
-8.55534 16.3284 -8.92863
-9.22092 -2.43766 -4.59566
14.9506 -11.5454 -9.07792
19.3053 5.52361 -9.6023
-10.3394 -2.55989 -5.03817
1.90909 -20.5586 -9.8179
17.1192 16.0871 -11.1251
7.57195 -11.1945 -6.3773
19.953 5.38564 -9.73224
13.9924 -11.0782 -8.29958
2.92544 -17.3135 -8.16493
19.2826 5.70526 -9.28939
17.7779 -12.956 -10.1617
9.84776 -2.48739 -4.69286
20.2065 5.12154 -9.6172
17.2432 16.2145 -10.9057
1.81012 -20.2332 -9.29689
9.65749 -9.03069 -6.05458
-9.23107 -1.67554 -4.27878
9.43666 -3.4626 -4.57802
6.7025 -11.2991 -5.97586
9.89489 -2.61356 -4.64195
19.1757 5.84723 -9.02487
17.6211 17.4779 -11.1561
9.35307 -3.08099 -4.43243
15.3794 -11.8343 -8.70884
7.02534 -11.5429 -6.0443
7.14037 -10.9003 -5.80848
9.54256 -3.39877 -4.51402
-10.0859 16.5323 -8.62243
17.5873 -12.8355 -9.67567
19.461 5.60615 -8.97602
16.0492 7.2796 -7.8033
17.7265 17.9043 -11.1416
16.3703 -12.1749 -8.9921
-11.358 17.2723 -9.08696
-6.61448 15.1177 -7.23572
-5.2535 4.92767 -3.13862
20.0554 5.44534 -9.0343
9.54151 -3.39905 -4.37119
18.1153 18.3604 -11.0847
15.7696 -12.1355 -8.56278
14.8146 7.40714 -7.06832
3.83492 -9.29336 -4.27155
-11.2792 17.1555 -8.69251
6.93299 -10.8888 -5.44334
-13.6412 3.34312 -5.91753
0.743113 -22.4116 -9.44963
15.7575 -11.9311 -8.26605
-5.18451 5.7092 -3.22688
0.998837 -22.2761 -9.34725
1.23126 -20.7864 -8.72346
14.1263 7.5762 -6.70403
18.4402 19.2166 -11.1267
3.77948 -8.94719 -4.05047
14.7265 7.70612 -6.91795
17.8147 19.0259 -10.8154
-9.53528 -1.09438 -3.96203
4.00482 -8.4973 -3.84875
13.9932 7.72655 -6.56138
6.83244 -10.9686 -5.28342
-13.6788 2.55528 -5.69267
-8.04444 15.5854 -7.12803
19.1308 20.7872 -11.4439
15.0277 7.22073 -6.71704
-5.3212 14.5339 -6.2061
13.9123 -10.999 -6.94664
1.52927 19.1954 -7.47805
-8.84049 15.9673 -7.09319
18.9237 5.77106 -7.6652
-1.7607 13.347 -5.21471
5.28955 -9.38319 -4.15407
-2.3965 13.5727 -5.29403
19.4496 22.499 -11.4025
4.6567 -8.50854 -3.68363
19.3479 5.5505 -7.65895
0.878018 -26.6113 -10.1182
14.8583 -11.4499 -7.05968
19.9038 5.39232 -7.71763
9.42752 -3.43477 -3.75123
0.534022 -22.7581 -8.48297
3.24347 -10.7781 -4.20527
20.0415 23.3161 -11.4166
0.909915 -8.72498 -3.25311
13.9871 -11.0771 -6.57934
20.3096 5.16552 -7.70484
17.7802 17.5687 -9.13354
-13.0894 2.29315 -4.83139
20.6807 24.6956 -11.6814
2.28349 -13.2399 -4.84052
12.9999 -10.5128 -6.01631
0.796117 15.4164 -5.52291
-8.215 -2.8034 -3.10476
0.410071 -21.9121 -7.83391
-4.25848 13.9785 -5.19838
0.638498 -21.9741 -7.81201
15.8027 -11.9352 -7.01933
-15.9376 18.4253 -8.58634
5.92038 -11.3232 -4.49289
-11.162 16.8449 -7.05859
0.0931488 -18.5603 -6.5241
14.223 -11.272 -6.34597
20.2645 5.33685 -7.31408
0.657985 -23.1023 -7.98144
-5.07122 14.7236 -5.33637
3.63659 -8.44205 -3.16417
4.87189 -9.02457 -3.51444
-14.6966 18.2463 -8.02022
2.27332 -10.8789 -3.8088
-8.99964 16.3265 -6.35562
3.02084 -13.6687 -4.77298
-15.1781 18.6297 -8.14704
20.0831 5.46032 -6.99502
21.8493 27.0286 -11.6146
35.788 -20.2026 -13.7344
-5.36951 14.2435 -5.05638
1.90885 20.6715 -6.88738
1.26701 -10.2464 -3.41372
-5.31562 14.6385 -5.05904
-12.7536 17.4602 -7.0149
18.4871 -13.1737 -7.37223
3.55815 -8.66874 -3.00438
6.21132 -10.0992 -3.79983
2.31235 -11.0034 -3.57814
-4.61088 -34.6277 -11.1022
-1.14629 -24.0009 -7.64799
14.9608 10.3036 -5.73242
-13.3864 17.8133 -7.0438
-18.2429 19.6768 -8.43552
6.9493 -11.075 -4.04241
1.38668 -21.9375 -6.79976
-2.59789 -27.6614 -8.52738
7.12004 32.8757 -10.2633
0.771141 15.0059 -4.56349
-11.2839 17.0258 -6.15705
-2.72813 -26.78 -8.10578
-14.5396 18.1792 -6.94641
-5.35619 -35.1149 -10.5756
0.840391 -25.1611 -7.52706
-5.46314 15.0277 -4.7572
2.07387 20.6193 -6.10491
-21.575 20.1171 -8.70366
18.1491 5.77543 -5.60583
-4.34815 14.6072 -4.48192
-8.03167 15.5827 -5.14405
4.25166 -9.13445 -2.96139
4.62977 -11.6009 -3.65242
-12.6657 2.23123 -3.69626
-33.5969 -47.5899 -16.7615
-15.4031 18.5302 -6.92751
6.94542 -11.062 -3.76055
2.56184 -9.53907 -2.80646
12.903 -10.4442 -4.72428
-8.46568 -2.46377 -2.50004
20.8902 26.9412 -9.65786
-8.59367 -2.26497 -2.51128
-2.58245 -26.3452 -7.42787
-13.0743 2.00348 -3.68345
4.381 -11.312 -3.36708
-9.43556 16.2273 -5.15414
-13.2345 17.6508 -6.06015
-5.46537 14.588 -4.25869
-8.65117 -42.0078 -11.7335
-21.7712 20.3166 -8.0059
-9.86157 16.3531 -5.11835
-27.0944 20.8135 -9.0898
11.3896 11.4632 -4.26337
4.31999 -11.2776 -3.19947
46.6789 -13.5696 -12.8782
-8.35492 -39.4247 -10.5913
4.0852 -8.64824 -2.5185
11.1483 -9.91595 -3.90322
-14.6485 18.3414 -6.10417
6.52735 -10.4094 -3.18025
3.17497 -9.63691 -2.62313
-30.6667 -44.9144 -14.0425
-4.42569 -29.0254 -7.59548
3.5364 -10.3587 -2.82249
4.06382 -9.37711 -2.62685
15.5583 -11.6987 -4.96695
-7.25568 15.4584 -4.32308
-32.0997 -42.8089 -13.5676
4.30507 -11.1271 -3.01977
4.25185 -7.69846 -2.23827
6.52568 -10.6446 -3.11393
44.3988 -13.4235 -11.5649
-28.6771 21.6358 -8.88176
-11.6854 17.1681 -5.12029
-28.0468 -40.9139 -12.1957
-10.0789 -39.6684 -10.0946
-24.821 20.8476 -7.96614
4.34392 -10.3176 -2.75058
-12.2256 17.5121 -5.17898
-7.95091 15.4923 -4.1978
10.2565 -9.25142 -3.30734
39.9533 -13.2715 -10.0747
15.0677 7.53546 -4.01036
-6.42397 -36.7849 -8.89414
3.96172 -9.07855 -2.34713
46.553 -12.4595 -11.4381
-12.4197 -45.7268 -11.2235
3.85019 -11.043 -2.75646
4.90305 -8.68375 -2.34604
-12.9502 17.6482 -5.09487
10.9856 -9.62726 -3.33864
-6.28185 -31.8528 -7.40709
-27.5303 21.2631 -7.8856
41.1763 -9.00492 -9.5654
-30.9364 22.4615 -8.57181
-35.8338 -23.4828 -9.59923
40.3799 -12.4827 -9.49007
5.44702 -9.46113 -2.4375
-12.4545 2.84184 -2.80297
40.2529 -11.796 -9.268
42.2037 -12.042 -9.65607
-5.45547 14.3148 -3.35026
13.3551 -10.7467 -3.77336
37.7589 -12.1345 -8.71935
-23.704 20.6593 -6.82084
-30.5826 -75.3976 -17.6531
4.30293 -9.68486 -2.29825
4.53282 -9.16749 -2.20904
-14.7725 18.4051 -5.04053
-31.3829 22.7959 -8.28282
-32.2773 22.906 -8.461
-29.2339 -77.5605 -17.7646
-10.8332 16.928 -4.2621
-8.59303 -36.4749 -7.96766
3.18521 -9.66988 -2.17111
3.95946 -9.81256 -2.25622
45.3481 -10.5139 -9.93735
14.9006 7.46347 -3.5328
-15.3564 18.9039 -5.15701
5.15716 -9.04285 -2.18715
26.2506 37.9803 -9.64685
14.9393 7.81843 -3.50042
-30.4645 -23.5278 -7.98469
-11.5991 17.0901 -4.19775
-15.8232 18.7083 -4.98868
-35.7024 23.9661 -8.73809
44.0101 -9.59947 -9.18612
-13.5546 -43.6144 -9.28126
4.12901 -9.71819 -2.14838
11.5777 -9.62419 -3.06329
-12.1527 17.4402 -4.24379
-20.5035 -58.8441 -12.4522
-13.2277 -41.0897 -8.54522
4.06293 -9.90467 -2.11973
-34.4878 -23.5824 -8.2358
-27.0832 21.256 -6.77633
-33.5074 -23.9684 -8.03033
-6.98449 15.4346 -3.28902
-27.3674 -64.3038 -13.573
-33.914 -22.5776 -7.85086
3.43037 -9.34739 -1.92276
45.429 -10.5256 -8.95487
-12.908 17.6238 -4.17656
3.98302 -9.33055 -1.93614
-36.8402 -22.3778 -8.15918
-21.5796 -35.0554 -7.82825
-15.9446 -46.0057 -9.21179
37.5921 -12.4007 -7.48347
-36.4792 24.5004 -8.22411
-34.0563 -23.52 -7.77485
-32.9979 -24.1426 -7.67474
-21.8635 -54.1642 -10.9894
-17.2686 -46.9055 -9.27054
3.81586 -9.19644 -1.83912
42.1902 -11.371 -8.11451
5.74861 -9.6976 -2.06617
-25.1889 -57.1162 -11.4275
-20.9408 -51.9759 -10.1341
-14.7403 18.3742 -4.17727
-31.4352 -25.3532 -7.17824
-20.5139 -27.3354 -6.11127
-39.9629 25.217 -8.33759
-27.094 21.274 -5.996
-34.5595 23.6488 -7.27109
3.90262 -10.0323 -1.86667
4.76634 -8.60258 -1.70916
13.9601 7.49693 -2.73269
14.032 8.05217 -2.77054
-31.2339 22.7128 -6.6208
41.8726 -11.8466 -7.40888
41.6753 -10.7935 -7.32887
-31.5922 -25.0902 -6.84347
-21.3188 20.3035 -4.94401
-20.9014 -51.9523 -9.46094
14.8128 7.42417 -2.77859
-32.1174 22.7372 -6.57343
-24.1944 -57.683 -10.335
43.1752 -11.631 -7.26816
-10.4775 16.6339 -3.17279
-21.2004 -52.5947 -9.0432
-35.2732 -24.3493 -6.75372
-23.0447 20.2468 -4.80364
-24.4674 20.8869 -4.98614
-40.6748 24.6272 -7.36835
-11.3557 16.9961 -3.15593
3.46645 -9.51345 -1.56602
3.86173 -10.212 -1.69058
-7.71914 15.6568 -2.66685
-31.4693 22.9042 -5.94991
-32.0975 -24.7911 -6.1669
-28.239 -26.4144 -5.85759
41.8609 -10.8825 -6.57471
44.4691 -9.68821 -6.93407
-6.62674 14.7606 -2.4215
9.81945 -5.14711 -1.64544
-33.8495 -24.4141 -6.21494
10.1751 -9.14851 -2.03921
44.6068 -10.3192 -6.7997
-37.0584 -24.6692 -6.55167
-31.8541 -26.2745 -6.04006
-12.9542 -42.9215 -6.59595
16.8603 -12.1984 -3.0485
-25.6942 21.1548 -4.83694
-25.3508 -56.801 -8.96245
-7.71503 15.4528 -2.47021
-12.8585 17.5319 -3.10017
6.02121 -11.5035 -1.85549
-13.5691 18.1365 -3.18204
-35.1678 23.7566 -5.96676
6.74561 -11.0186 -1.80585
37.3122 -12.3137 -5.52657
-31.4802 -25.2251 -5.62973
-33.4453 24.0354 -5.70568
-21.0814 -50.8095 -7.59715
44.7558 -10.0123 -6.32431
-6.96202 15.3973 -2.30979
-23.3244 -60.8731 -8.85477
7.73968 -9.36641 -1.63065
-14.1656 18.0872 -3.09732
13.1827 -10.5142 -2.28171
-22.4826 20.4506 -4.08698
41.7824 -10.8028 -5.72973
44.4844 -9.74387 -6.02785
-22.8648 20.1212 -3.98287
-33.0334 -24.7183 -5.38874
-15.0671 18.4502 -3.08025
-34.4699 23.0068 -5.38042
-38.7167 -16.3477 -5.42609
7.00354 -10.4157 -1.61049
10.7397 8.79282 -1.78194
-34.1586 -23.5399 -5.3086
-31.844 23.2468 -4.98743
-35.9537 -22.4355 -5.31172
41.6501 -10.7714 -5.38402
6.78332 -10.3483 -1.5462
-7.7532 15.5081 -2.14725
-25.3142 21.2558 -4.04766
-33.8369 23.8471 -5.1064
6.27968 -12.0437 -1.65482
44.4377 -9.48065 -5.56571
14.9535 7.83424 -2.02942
-18.3309 -44.3965 -5.79136
7.0732 -10.5123 -1.52567
-20.6672 9.1594 -2.67558
-14.6436 -44.2959 -5.48516
-32.1832 -24.8127 -4.75157
-31.6643 -25.3234 -4.7444
41.7302 -11.1783 -5.07783
11.2081 -9.65216 -1.71374
-30.2596 22.9442 -4.36908
6.6294 -10.8017 -1.45102
7.47824 -9.2071 -1.35685
11.5588 -9.70335 -1.71421
9.43851 -4.60453 -1.18919
14.9323 7.67328 -1.89186
-10.4722 16.6716 -2.2222
-32.606 23.8253 -4.52408
38.595 -12.705 -4.55695
9.34103 -9.00789 -1.43572
-11.194 16.7887 -2.19381
6.77467 -12.7546 -1.56456
44.5774 -9.68822 -4.94568
10.7372 8.82335 -1.49752
16.7155 -12.4168 -2.23501
41.9231 -10.873 -4.64109
9.60246 -8.96319 -1.39173
8.36714 -8.45213 -1.24596
-31.2202 -24.9834 -4.16349
-30.9965 -62.1728 -7.24687
14.9294 7.48729 -1.7062
-32.1219 -24.768 -4.16158
-13.0041 17.7272 -2.23258
-12.9185 17.3077 -2.14691
10.189 -9.07146 -1.3365
-21.4 -54.3479 -5.72597
6.29984 -12.0644 -1.31743
16.5861 -12.1346 -1.97562
41.8126 -11.2356 -4.15044
-31.5646 -63.8041 -6.76663
-21.3976 -56.1535 -5.70657
-23.5789 20.6241 -2.92856
45.266 -10.0699 -4.33162
9.6996 -8.97139 -1.22315
39.4141 -13.0017 -3.86778
-15.1904 18.6209 -2.1764
-29.9212 -13.642 -2.99739
-33.2191 -64.758 -6.70831
15.8064 -11.8309 -1.79622
8.62284 -8.71367 -1.11014
12.8583 -10.6138 -1.45199
44.8558 -10.3967 -3.94472
9.38585 -9.01256 -1.09389
10.9292 -9.62454 -1.22417
-34.5976 23.7598 -3.49259
16.7852 -12.2404 -1.72085
-17.2935 -45.0008 -3.86121
14.6388 -11.4466 -1.48198
-11.9153 -33.3574 -2.79571
-30.1908 22.9557 -2.93304
-33.5181 23.6918 -3.16867
-23.2612 -53.1346 -4.4778
-51.9625 28.2802 -4.47976
-21.6306 20.3576 -2.16077
-33.7481 23.871 -2.99579
16.3237 -12.197 -1.49083
41.8377 -11.1958 -3.15563
-40.5764 -76.7742 -6.26667
13.9352 -11.0255 -1.27183
-15.8677 -42.0928 -3.10471
10.7442 -9.59531 -0.987028
-23.6034 20.6669 -2.11883
12.8367 -10.5922 -1.11418
17.8861 -12.9727 -1.47323
15.988 -12.0931 -1.32408
-14.962 -41.4835 -2.85258
43.5744 -11.3327 -2.81463
-32.7619 -66.3809 -4.51727
35.6245 -8.6425 -2.24996
42.7608 -9.7872 -2.69334
6.02944 -13.0333 -0.85846
30.692 -20.3088 -2.20264
-9.95726 16.6222 -1.13923
-15.8631 -41.3801 -2.52342
16.5529 -12.3708 -1.16045
-9.71868 -12.5987 -0.871907
14.9198 7.65438 -0.906485
13.8627 -10.9737 -0.946887
-12.9263 17.517 -1.13716
-16.7796 -41.5896 -2.38177
14.8141 7.78972 -0.82016
-16.6134 -42.466 -2.23747
-14.3067 18.1337 -1.1046
9.5489 -9.00713 -0.602121
-24.5862 -56.3979 -2.78406
12.4205 -10.2106 -0.745514
-16.3575 -45.598 -2.15085
-17.5459 -43.2296 -1.99748
6.8346 -12.6201 -0.636848
-14.2151 -43.3319 -1.94266
-53.4092 29.0457 -2.46258
18.2661 -13.1228 -0.912957
16.7426 -12.4447 -0.812597
-42.8948 -83.2548 -3.53352
-18.6466 -48.8977 -1.92755
-34.0496 23.3952 -1.51073
42.3144 -10.9028 -1.57372
-35.4813 -70.5785 -2.64319
-26.5134 -58.1042 -2.15059
19.9904 23.1199 -1.01441
-21.674 20.3105 -0.967606
8.08624 -14.2716 -0.55105
9.40546 -8.97895 -0.421553
11.2744 -9.92548 -0.488337
18.5197 -13.0948 -0.745604
34.6175 -13.0565 -1.22808
21.7497 26.3278 -1.09453
-27.572 -13.8299 -0.966714
-23.1513 20.6162 -0.944538
-32.0745 22.7167 -1.22635
-25.6188 -58.8985 -1.98955
-14.0637 -39.7858 -1.29996
-22.0565 -56.2632 -1.83004
-16.9762 -46.0092 -1.40524
-34.3382 -20.8201 -1.06944
11.4235 -9.69098 -0.401377
16.283 -12.111 -0.535097
-41.6111 25.7419 -1.29
-30.6521 23.3233 -0.95257
-31.1736 22.8463 -0.913363
9.5513 -8.99143 -0.303922
-41.7816 14.4407 -0.976661
-32.0594 -53.6838 -1.40857
21.1733 -14.1607 -0.560102
30.2988 -18.3722 -0.800055
14.192 3.9221 -0.300229
26.928 47.0556 -0.995821
23.4421 -10.9135 -0.455552
46.7783 -10.7715 -0.893178
-30.9109 -22.2137 -0.694017
-29.9 -29.3678 -0.664575
-19.3815 -47.5574 -0.855557
12.6883 -10.4339 -0.27036
18.4483 -13.3306 -0.347997
-29.4816 -13.1039 -0.423369
-33.1544 -24.812 -0.576102
-34.3153 -69.1771 -1.04311
-28.4222 -60.4916 -0.916336
-34.261 -23.3985 -0.541579
-30.6722 23.335 -0.453303
16.9371 -12.6483 -0.251131
29.1336 -18.0643 -0.403667
-31.1294 22.8534 -0.429531
-19.4507 -44.6091 -0.521055
-12.2285 -36.8064 -0.390919
-34.1594 -60.1882 -0.638091
-14.4801 18.3676 -0.179206
-26.8898 -13.5571 -0.242973
-15.1771 18.5007 -0.163326
-22.8015 20.3638 -0.156924
-21.224 19.9074 -0.13199
-10.6008 -13.6283 -0.0605734
14.6823 7.71297 -0.0198661
11.0839 -9.74636 -0.0078082
-34.8065 -19.0643 0.0607104
-11.5268 -34.2579 0.117297
16.8979 -12.2768 0.0905639
-19.1618 -43.9918 0.212807
18.7082 -13.1813 0.121448
7.15677 -12.3023 0.103849
25.8893 -10.6218 0.172024
-56.133 20.0433 0.569101
16.1945 -12.0018 0.192382
37.2279 -7.60051 0.358439
-29.277 -8.25548 0.356083
-36.6412 -22.116 0.472147
-11.5043 -32.9614 0.374082
-12.9197 -35.801 0.45271
-10.4429 -32.0991 0.404628
6.31056 -12.8988 0.183317
7.19791 -11.0888 0.173825
-28.5166 22.3846 0.55573
11.2881 -9.85837 0.225297
-24.3903 20.858 0.530305
10.877 -9.71186 0.228845
12.9382 -10.6511 0.263998
36.188 -7.7447 0.615624
-34.8969 -23.3803 0.764145
-31.6129 22.6033 0.763771
6.12366 -12.7943 0.275256
7.0069 -11.0269 0.251708
8.0127 -9.40235 0.241243
26.852 55.2138 1.33599
7.71606 -9.42791 0.275445
10.1101 -9.15713 0.329082
-29.0122 -9.30307 0.734152
-23.5718 20.5746 0.847196
-27.9079 22.0053 0.954561
-29.1415 -8.75021 0.802061
9.17407 -8.88029 0.344914
9.60732 -8.92928 0.357527
-25.889 21.8194 0.92063
25.267 -5.11154 0.717726
12.948 -10.6219 0.498868
14.6622 23.8857 0.864991
6.17101 -12.7305 0.445225
7.43941 -11.5968 0.432383
-28.6611 -8.08337 0.977357
-12.6944 -19.4366 0.764765
-28.3412 -8.85802 1.0269
16.0362 10.976 0.70249
-30.08 -18.6395 1.23701
15.5785 27.061 1.11465
-30.6969 -16.7443 1.29592
23.4412 -4.23287 0.860608
-28.0666 -19.9614 1.27628
-7.31096 -7.97146 0.408328
9.03589 -8.81132 0.469147
12.357 13.5173 0.706356
25.4064 52.4113 2.20631
24.2847 51.7045 2.1515
-11.5948 -9.17777 0.583229
8.70886 -8.65461 0.485702
-25.9723 21.3949 1.36682
21.7538 -2.9482 0.889396
-29.0365 -17.6369 1.39188
9.39711 -8.91028 0.530961
12.3773 14.2551 0.812422
6.55774 -12.419 0.596412
14.7309 19.1406 1.06206
20.529 28.356 1.53346
-9.53552 -13.8647 0.739641
-10.0309 -15.688 0.826551
7.58067 -10.9258 0.585906
8.60996 -8.69924 0.553119
24.0835 -3.68936 1.10008
-30.0825 -8.76649 1.43052
6.72666 -11.0584 0.59557
-8.29389 -8.16217 0.547788
20.8947 42.1574 2.2514
-28.7961 -17.7971 1.60027
-9.80998 -13.7604 0.804353
9.64202 -8.94609 0.619499
15.0904 41.9351 2.15766
-30.4959 -13.5076 1.59216
-6.77716 -8.26237 0.525967
14.2771 33.2018 1.8444
-29.9736 -11.7377 1.61566
-7.60839 -6.99617 0.522633
-6.71298 -7.60989 0.513492
15.8902 28.7849 1.7075
10.4771 12.2511 0.871339
14.0872 19.1703 1.27752
9.32722 -8.90848 0.691068
14.6724 19.0908 1.32966
15.0968 23.3169 1.52974
-27.833 19.5973 1.86663
-6.98855 -8.21306 0.598168
-26.7587 20.5319 1.87604
6.07332 -12.8234 0.793931
-7.1243 -9.18135 0.662844
9.88634 12.3487 0.930478
14.7096 24.7839 1.68394
6.44025 -12.9348 0.831625
13.6687 22.3001 1.54514
-8.28067 -8.13958 0.699755
11.4604 11.5395 0.970003
14.5208 19.3128 1.45191
-7.41931 -10.0436 0.776676
6.99106 -11.1408 0.801584
11.2314 -9.68767 0.89918
5.8523 -10.7282 0.758377
-7.20945 -6.66378 0.613655
14.317 20.3097 1.57243
16.0633 7.13027 1.1412
-7.05016 -6.15979 0.614508
6.44035 -13.399 0.990821
9.26267 20.9227 1.54369
10.339 12.4618 1.1071
13.411 18.0331 1.56761
12.2456 20.3031 1.64077
11.2655 11.9003 1.15033
6.58311 -9.81767 0.837118
11.4143 11.678 1.18189
9.78374 -6.90636 0.85214
12.2709 11.8793 1.25448
9.90018 -8.36056 0.949295
-6.19534 6.71461 0.68253
10.3699 9.13095 1.03804
11.791 17.6294 1.59591
11.3425 18.0709 1.60774
-6.96125 -7.71615 0.806006
10.721 18.5043 1.64097
9.48857 -8.93347 1.00717
-6.42543 -4.3055 0.610247
9.06563 18.1628 1.62225
10.056 -6.88125 0.975672
12.3663 11.4736 1.36378
9.61656 18.6715 1.69124
-7.28641 -9.66482 0.986003
6.702 -9.35818 0.936682
12.1538 11.6268 1.37828
12.0571 11.8578 1.40441
11.3371 11.8499 1.35781
-5.06982 -11.5712 1.06272
10.2276 12.796 1.39394
-6.97403 -6.09421 0.797935
-6.8308 -6.70946 0.808957
-5.23092 -11.4727 1.07231
-7.31843 -7.76582 0.9191
9.26247 -7.2387 1.01568
-7.13861 -8.07814 0.943585
-7.03361 -7.70872 0.917913
9.31127 12.4287 1.37693
-6.97012 -8.39385 0.974896
10.7481 9.01837 1.27879
10.3724 13.3591 1.52817
10.4577 9.18457 1.2742
7.64073 13.8697 1.45657
-6.51404 -8.15573 0.956516
-6.92245 -9.04392 1.05133
11.1195 10.7244 1.42552
11.1792 9.12102 1.35023
10.7914 10.7264 1.4264
6.41018 14.8131 1.51673
-11.4763 2.94006 1.11142
-6.37039 -4.17687 0.713905
-6.8189 -6.30612 0.861506
9.34888 13.1846 1.55926
-6.06511 6.59045 0.882491
7.94612 -6.59733 1.00658
7.85757 13.1017 1.5176
-7.08526 -7.6355 1.04956
9.23504 11.5473 1.49147
6.94373 12.3289 1.43609
6.99633 12.8893 1.49515
9.47395 9.03598 1.35501
5.79702 13.8194 1.55327
9.06509 12.3292 1.59554
-6.11509 -4.46252 0.79374
5.89676 13.5496 1.55655
6.15637 13.4851 1.55849
-6.9813 -4.43467 0.884895
8.71277 8.96178 1.33261
9.07348 10.1081 1.47734
7.2723 10.9196 1.42587
5.77551 11.3757 1.38708
-6.31191 -7.42538 1.0654
10.2156 6.42027 1.33506
8.93953 8.09103 1.3292
7.25214 11.5922 1.50992
6.78948 11.5395 1.48029
5.30768 11.7861 1.43816
4.82155 11.9848 1.44527
4.64854 13.5188 1.57267
9.81461 7.01749 1.3473
8.70194 9.25006 1.41921
5.33429 11.4137 1.41876
-6.85459 -6.73641 1.0699
6.81482 10.6369 1.42312
4.26953 13.0242 1.54901
9.73357 -3.18959 1.14209
-6.11242 -5.42139 0.94616
7.27862 -6.11105 1.07885
10.3653 5.68719 1.35609
-7.39307 -0.987366 0.855046
-6.266 -5.36354 0.949638
5.24211 -5.55037 0.879601
5.02109 11.5169 1.45947
-6.89324 -4.56599 0.958406
4.44795 -7.25278 0.983969
10.3602 5.12514 1.35645
8.83341 7.84008 1.38657
-6.00917 -4.37343 0.866437
-6.49521 -5.28114 0.989195
4.08635 -7.85506 1.05306
4.96148 -5.84416 0.919764
10.1223 4.73307 1.33961
8.46799 8.22267 1.42973
5.22797 11.3895 1.52975
9.00053 6.23514 1.34068
7.96317 8.28738 1.43979
-6.49979 -5.75565 1.08102
3.70241 -7.56462 1.05487
8.6316 6.65531 1.37067
-6.47736 -5.35234 1.06371
9.0469 5.98405 1.38491
8.13981 7.1025 1.37836
8.06919 7.4659 1.40372
5.77027 -5.33925 1.00933
-6.98277 -4.45006 1.06316
8.05475 7.95275 1.46824
-7.36929 -1.04407 0.962049
-6.93317 -2.83052 0.978334
8.94104 4.08526 1.28742
8.36025 6.59557 1.39798
4.99333 -6.02192 1.02831
4.9114 -6.18616 1.04597
6.86136 -4.27717 1.07626
-7.14436 -1.72092 0.985546
-7.02003 -2.22331 0.984857
-6.03303 -4.428 1.00078
8.09468 6.62537 1.41815
8.57636 4.42229 1.31566
8.59469 5.14506 1.36827
7.98629 7.10069 1.45463
-6.81812 -3.73885 1.05618
8.82766 4.14368 1.3349
8.22771 5.80711 1.37915
-6.40664 -4.33496 1.0588
-5.96495 -4.5308 1.02329
5.322 8.96828 1.44041
3.6074 9.97953 1.47353
-7.3795 -1.09471 1.03354
-6.91411 -3.93273 1.10422
4.94469 -5.53885 1.02615
5.22363 -5.3935 1.04211
7.45383 -3.5324 1.15354
3.35245 10.0538 1.48485
8.36962 4.5807 1.34974
7.36571 -3.67349 1.16765
7.57692 -3.33046 1.18
7.75108 -3.30109 1.19544
8.90968 2.80541 1.34453
4.82971 -5.63067 1.06631
7.34456 -2.84951 1.14695
-6.96828 -3.30482 1.1245
7.90675 -2.77561 1.22178
8.64934 -1.81685 1.29734
4.9763 8.52 1.45642
2.92494 9.34876 1.4571
7.7213 -1.88528 1.17141
7.19941 5.73353 1.37132
3.42457 9.47364 1.48893
3.15602 9.70207 1.51188
-7.38185 -1.04502 1.10587
-7.08458 -2.02596 1.09856
6.9167 6.26127 1.40863
-6.27055 -2.27438 1.00141
-7.25101 -1.37737 1.11458
7.90995 4.79987 1.40962
5.68038 7.31947 1.40579
5.26431 7.59037 1.40586
5.02761 7.96735 1.42433
6.75259 -3.22238 1.13153
7.23764 -3.12098 1.20705
7.62591 -2.75182 1.23544
-7.32828 -0.734118 1.12518
-7.10733 -1.95726 1.13823
6.78209 -3.08966 1.15256
3.74965 -5.78632 1.0662
-7.06289 -2.0789 1.15468
-7.35743 -1.09459 1.16845
7.33501 4.75764 1.38089
-7.20906 -1.44562 1.17026
-7.28237 -1.30303 1.18747
-7.10745 -2.02187 1.2021
7.04491 4.74642 1.38669
-7.11116 -1.9482 1.21164
6.98447 4.8476 1.41222
6.59189 4.83501 1.36427
5.18418 6.21653 1.34845
4.64875 7.13457 1.42213
3.79719 7.88111 1.45403
-7.25994 -1.37555 1.23397
2.79334 -5.77881 1.08198
7.11799 4.41373 1.41097
6.48924 5.21873 1.40488
3.87379 -5.36546 1.11575
3.93706 -5.0215 1.08017
-7.28322 -1.25431 1.25418
-6.60628 -2.62842 1.20673
7.39657 2.84013 1.34386
7.00837 3.8792 1.36509
-6.42173 -2.75621 1.18937
6.75315 4.08565 1.355
5.67984 -3.51802 1.14995
-7.40759 -1.04123 1.29411
-6.36426 -2.28309 1.16286
5.53302 -3.64642 1.14222
5.31717 -3.77277 1.14278
3.5751 7.11873 1.40117
-6.80848 -1.73747 1.23449
4.47991 -4.46734 1.1134
-7.10272 -0.915994 1.27626
4.72468 -4.45727 1.14946
4.3077 6.46141 1.38567
6.56738 3.46399 1.3409
6.60609 3.67163 1.35775
-6.44932 -1.50241 1.1915
3.60945 -5.32722 1.17056
5.05737 5.59035 1.3803
-6.16197 -2.18571 1.19871
3.41418 -5.16015 1.15067
3.36813 6.73194 1.40818
-1.69713 -5.78015 1.1445
6.42873 2.72511 1.32879
-2.14272 -5.72641 1.17561
6.29329 2.78899 1.32524
-2.7873 -5.37626 1.18695
-3.54156 5.37848 1.39617
4.45798 3.88231 1.34912
4.15207 -2.8794 1.17728
4.62854 -2.18624 1.23685
4.18928 3.28367 1.31845
3.70914 -2.93161 1.22438
4.0105 2.56953 1.3306
-1.44239 -4.11591 1.22146
-2.32046 -3.57888 1.2125
3.85311 2.3601 1.30901
-2.86988 3.53736 1.36655
-2.4802 -2.91609 1.18953
-2.37765 -2.93719 1.19445
1.84496 -2.81464 1.18311
1.86793 -2.79275 1.21312
1.99392 -2.52872 1.19933
-2.04763 2.81347 1.32423
2.80414 -0.555749 1.25917
2.78323 -0.336856 1.24079
-2.08888 -1.61894 1.21314
-2.0767 -1.45112 1.23826
-1.86168 -1.79552 1.28347
-1.99435 -1.1313 1.20478
-1.98588 -1.07027 1.23164
-1.94576 -0.880303 1.23194
-1.93021 -0.708374 1.2223
-1.92909 -0.701479 1.24953
-1.90555 -0.469677 1.22244
-1.871 -0.345693 1.21971
-1.85581 -0.401155 1.22639
2.3776 -19.698 -10.0119
-7.61689 -8.99274 0.466104
8.00998 -8.79081 -10.457
8.25633 -8.62174 -10.494
8.20802 -8.28286 -9.87705
6.95121 -11.9462 -11.3996
8.50742 -8.96439 -9.73145
7.84302 -8.92905 -9.12707
5.84543 -12.789 -10.7216
9.41617 -8.8239 -9.73358
6.14264 -14.0844 -11.5678
8.27894 -8.67038 -9.01349
8.00981 -9.15998 -9.09959
7.28508 -9.23713 -8.76508
5.90473 -14.1408 -11.1812
7.71054 -9.29672 -8.71563
7.84783 -9.10791 -8.66064
7.1217 -10.5705 -9.07494
6.81303 -11.0619 -9.21038
10.0391 -9.18 -9.55444
6.53269 -11.1642 -8.85566
8.02514 -8.61942 -7.84252
7.35286 -9.27123 -7.86382
8.50694 -8.67215 -8.07498
7.7117 -9.46241 -8.01975
6.47985 -12.7608 -9.34593
7.92471 -9.171 -7.90546
4.99896 -16.0305 -10.8006
-0.472057 13.9424 -8.92001
7.71952 -9.23485 -7.71854
7.32646 -10.851 -8.33675
8.36853 -8.55668 -7.62536
10.858 -9.60545 -9.19556
8.97911 -8.80886 -7.88904
11.7432 -10.0141 -9.67259
8.06375 -8.5264 -7.2202
4.03965 -16.8399 -10.614
4.24668 -15.3718 -9.79237
7.83575 -9.34857 -7.31043
3.9511 -15.6264 -9.61174
11.4585 -9.80976 -9.03459
6.85585 -11.064 -7.72902
7.76416 -8.81066 -6.95687
5.48196 -13.9849 -8.87534
6.4809 -12.6924 -8.34073
8.35293 -8.5852 -6.98062
9.6743 -9.06855 -7.73214
2.78826 -11.7868 -6.9431
5.47113 -13.8799 -8.44801
9.58124 -9.09259 -7.46722
6.61009 -11.0578 -7.25425
3.35005 -20.7203 -11.7632
8.86805 -8.9284 -7.0546
12.1656 -10.2068 -8.8969
6.81573 -10.9937 -7.20644
4.67801 -14.5979 -8.47231
6.21431 -12.6075 -7.73272
0.897337 18.5591 -10.1134
14.5774 7.70262 -8.95662
4.1994 -14.23 -8.01362
14.6841 -11.62 -10.0946
14.9297 7.41874 -8.8787
13.9712 7.69751 -8.47406
4.76108 -14.8368 -8.27985
12.0571 -10.1284 -8.28705
1.81416 -20.5082 -10.5921
11.3923 -9.83177 -7.70986
2.08162 -20.231 -10.3204
0.00644855 14.2795 -7.16684
-7.33922 15.2588 -8.4878
10.5741 -9.58245 -7.17071
7.50446 -9.41285 -5.99802
-8.55891 16.2287 -8.86955
11.6161 -9.7557 -7.34255
10.475 -9.56725 -6.81252
14.7408 -11.3013 -8.95966
16.62 15.7431 -10.8735
7.47171 -11.0437 -6.35326
14.9641 7.39363 -7.8301
13.89 -10.999 -8.28125
-12.0334 17.2334 -9.63272
15.7874 -11.9626 -9.04976
9.76429 -2.44815 -4.62372
-9.12705 -1.65929 -4.21872
18.6145 17.9617 -11.6692
3.91016 -9.09208 -4.49235
-10.2785 16.7932 -8.84434
-5.35894 4.45674 -3.13514
6.84683 -11.2725 -5.93798
9.41305 -9.07246 -5.76628
15.9634 7.28214 -7.73947
-6.67058 15.1538 -7.23389
1.4995 -18.7485 -8.13509
-11.2507 17.1203 -8.82296
9.57086 -3.36647 -4.3453
7.00623 -11.0282 -5.52371
15.7726 -11.9232 -8.27718
14.6015 7.71845 -6.92625
18.6416 19.394 -11.2398
1.02062 -22.6641 -9.44487
-4.55134 13.9277 -6.03899
-9.95407 -1.11335 -4.15126
14.0424 7.75367 -6.54823
20.3088 22.0904 -12.2282
-13.1105 2.45698 -5.43416
15.0643 7.15734 -6.74396
-5.2482 14.3873 -6.16149
3.63471 -8.79977 -3.78984
13.9003 -10.9757 -6.92209
19.1803 21.4653 -11.1636
18.7393 5.77851 -7.60305
1.53748 19.1971 -7.46524
-8.78694 15.8354 -6.98413
11.3761 -10.0306 -5.83415
19.1111 22.1557 -11.2677
0.683841 15.3576 -5.88596
-1.66437 12.7913 -4.96336
2.71228 -12.2407 -4.81051
-8.78532 -1.25476 -3.37334
0.703492 -23.7315 -8.95837
15.1314 -11.596 -7.19024
9.48004 -3.45911 -3.80645
-14.6739 18.0917 -8.6843
-7.90329 -3.51081 -3.1719
1.09651 -10.4673 -3.87064
7.01699 -11.219 -4.83957
14.1486 7.89987 -5.84908
-8.30671 -2.852 -3.15825
0.790188 15.2624 -5.44817
-3.97462 13.4481 -4.96338
5.7286 -10.9705 -4.35578
15.7782 -11.9243 -7.00542
19.0101 5.87124 -6.99875
2.10161 20.4974 -7.22289
21.4535 25.9344 -11.6936
-14.9885 18.5033 -8.17609
2.96524 -13.314 -4.69535
-8.95049 16.171 -6.31899
18.3975 -13.0306 -7.72783
-5.06659 14.5624 -5.24535
1.3627 -22.3148 -7.40815
1.75531 19.5444 -6.48041
1.44792 -10.3192 -3.4439
38.78 -19.8237 -14.2948
6.16015 -10.0332 -3.76891
17.493 -12.3518 -6.85946
2.11225 20.5952 -6.5868
-13.4491 17.9565 -7.07604
1.45561 -22.8239 -7.12547
-4.32623 14.8161 -4.79877
-11.0282 16.7114 -6.07077
-2.78141 -28.2898 -8.63467
3.06048 -9.4585 -3.02155
0.796556 -24.4041 -7.34249
19.0299 -13.5074 -6.9255
17.5383 5.54839 -5.39682
-7.94006 15.3735 -5.03977
4.22127 -10.4755 -3.28274
3.61401 -10.5495 -3.17422
4.23274 -10.9237 -3.28903
-13.4089 17.9239 -6.22913
-9.35224 15.9892 -5.04176
-13.2838 1.99129 -3.6832
-17.0529 19.5934 -7.05539
26.1292 -17.2015 -8.47774
-3.97337 -28.3243 -7.66937
3.77838 -9.13475 -2.64511
-9.86875 16.407 -5.09877
46.8011 -13.665 -12.9296
10.5093 -9.37325 -3.7279
-6.4935 15.038 -4.28165
-14.5223 18.2086 -6.11405
-8.12662 -38.4427 -10.2331
4.94936 -9.55465 -2.78553
6.54505 -10.4751 -3.18694
-7.26333 15.4181 -4.3349
-10.6292 16.5568 -5.02954
-10.0614 -39.8669 -10.2234
-9.20439 -39.7311 -9.95699
10.9147 -9.62166 -3.57814
-8.0242 15.5758 -4.25106
-11.8131 17.1714 -5.0476
14.5588 7.69035 -3.90731
4.04021 -9.23801 -2.38659
15.1607 7.5082 -3.98638
3.74108 -8.89528 -2.26865
-6.61139 -32.9342 -7.77725
5.61478 -9.86433 -2.63104
44.3387 -10.7298 -10.6038
-12.9051 17.5795 -5.02188
14.8146 7.58699 -3.76502
43.3958 -9.38755 -10.0587
-9.86356 16.4314 -4.29173
3.70668 -9.23358 -2.16498
42.5681 -10.9202 -9.59246
15.072 7.47715 -3.60231
-10.7195 16.7341 -4.25873
-22.1921 -34.8879 -8.88214
4.81036 -9.72977 -2.34191
44.6255 -10.4488 -9.80695
-14.9053 18.4677 -4.9949
-32.524 -24.0056 -8.56775
41.3196 -13.8254 -9.21875
14.7978 7.8194 -3.4899
-35.8973 24.2755 -8.86238
-8.50903 -34.8021 -7.25399
3.93996 -11.4719 -2.43873
44.1619 -9.52812 -9.1897
11.7463 -9.72304 -3.05835
42.5894 -10.9638 -8.76443
-27.2362 20.5532 -6.77373
6.12791 -10.2567 -2.37911
45.4973 -10.6393 -9.1267
-12.8964 17.5968 -4.2178
-27.1175 21.2516 -6.69586
15.9713 12.0807 -3.82678
-6.94337 15.2865 -3.22515
-33.4382 -24.1861 -7.89864
-31.9301 -25.0034 -7.79332
-36.1256 24.0725 -8.17565
-33.9417 -22.3901 -7.68359
17.9546 5.6448 -3.51251
-34.4658 -20.7957 -7.51708
-15.3555 -44.2704 -8.72794
3.7618 -9.79837 -1.97655
-25.2411 -62.8392 -12.5926
-17.1333 -46.1563 -9.00413
3.96771 -9.61709 -1.87677
13.0308 -10.1823 -2.9827
44.9903 -10.0115 -8.27976
-14.8699 18.4428 -4.23445
-27.273 21.3906 -6.12027
15.033 7.95768 -2.96205
-30.5925 -26.6591 -7.07234
42.4493 -10.8731 -7.52411
-8.00559 15.4232 -2.94527
-9.84981 18.1412 -3.48895
44.271 -10.4214 -7.6915
-31.0848 22.6421 -6.47519
-30.5484 -23.5022 -6.44169
-21.0095 20.0885 -4.83703
-32.7283 23.1135 -6.68497
15.8637 -11.8364 -3.24394
-10.4257 16.5526 -3.11352
-43.985 25.8821 -8.09728
-31.9461 -23.9991 -6.39632
-33.8071 -23.319 -6.46813
3.42643 -9.47664 -1.57617
-24.0071 20.5079 -4.87687
16.8473 -11.9099 -3.19637
-11.2722 16.871 -3.0838
45.6301 -10.6939 -7.11415
-23.4458 -54.3337 -8.94067
-29.8241 22.3673 -5.57473
-38.8939 24.2512 -6.80368
-31.9736 -24.8192 -6.0383
44.2764 -9.48813 -6.74302
-34.0991 -24.6609 -6.14855
-50.7601 28.3413 -8.35959
-35.9243 -23.962 -6.21552
6.70736 -12.8718 -2.1081
-7.02065 15.4798 -2.36211
-13.24 17.8733 -3.09576
-32.5627 23.4436 -5.60879
-25.2559 -56.2457 -8.50101
-16.5285 -48.3178 -7.02215
36.4381 -12.1179 -5.26707
-23.4183 20.5789 -4.14866
-32.6093 -24.4207 -5.31856
-30.954 -25.3937 -5.29318
-34.2588 -23.5942 -5.32815
7.43217 -9.41369 -1.55108
42.5019 -10.8795 -5.63012
-33.9284 23.0875 -5.21784
-30.0242 -16.0212 -4.33778
6.03389 -7.81426 -1.26117
44.4115 -10.4384 -5.78459
-31.4691 23.1279 -4.87359
14.4589 -11.2647 -2.2522
-30.376 22.8783 -4.60052
-33.0142 23.3379 -4.86802
-10.4627 16.6408 -2.27188
-31.8274 -22.8907 -4.61221
12.9559 -10.4786 -1.9509
35.5549 -11.7489 -4.33348
6.32967 -10.3221 -1.39197
11.1681 -9.67791 -1.66524
16.3838 -12.1985 -2.30216
-11.1789 16.7625 -2.23159
6.73768 -12.5539 -1.56168
11.5736 -9.66507 -1.67008
42.343 -10.8579 -4.79977
-39.5826 24.6801 -5.0064
44.471 -10.3915 -4.91781
14.8678 -11.4167 -1.99464
-13.0895 17.6841 -2.26034
14.7195 7.79084 -1.66398
13.9623 -11.0144 -1.77677
-14.1507 18.0982 -2.22863
6.381 -12.2285 -1.32811
9.38708 -8.90401 -1.25069
16.9505 -12.3943 -2.04976
-29.106 -13.9083 -3.03872
-15.1391 18.5387 -2.23151
-38.313 -74.6405 -7.80938
-34.3165 -21.4734 -3.5843
16.0788 -12.0483 -1.80839
38.2077 -12.713 -3.60451
11.0871 -9.85549 -1.2261
42.7409 -10.9239 -3.67988
-16.5567 -43.0848 -3.70735
-41.4881 -81.1243 -7.09781
17.5444 -12.7845 -1.71481
-30.5836 23.1464 -2.93362
7.43386 -9.15719 -0.913108
-33.3049 23.5754 -3.031
-16.9342 -41.8924 -3.377
-37.9979 -71.5027 -5.75866
-36.9247 -73.9543 -5.66273
12.5379 -10.4342 -1.09816
17.004 -12.3847 -1.42237
-40.0454 24.9294 -3.08394
42.9904 -11.0065 -2.91345
-28.8994 -13.5892 -1.91233
-41.8503 -80.8531 -5.51395
14.4624 -11.2748 -1.10521
30.9 -20.3554 -2.0227
30.8798 -19.4623 -1.99577
15.2889 7.55083 -0.884485
14.7297 7.81059 -0.856967
-13.0153 17.7611 -1.11735
-25.372 -55.9886 -3.15856
-43.9003 -82.7375 -4.57462
9.63696 -9.07611 -0.662254
13.4118 -10.6657 -0.841851
15.8966 10.1127 -0.889786
16.185 11.3442 -0.919909
6.80613 -12.483 -0.676327
-20.1395 -5.94254 -0.901376
-30.6262 -54.5789 -2.76178
10.1916 -13.7592 -0.700101
17.9765 -12.9636 -0.906059
42.2242 -10.7856 -1.73466
-9.42791 -12.4696 -0.60302
43.7251 -10.2388 -1.76628
21.9328 26.3678 -1.16924
-33.1942 22.6912 -1.39312
-36.9022 -20.6932 -1.37718
-18.6629 -46.512 -1.61082
16.4194 -12.2497 -0.668634
14.3462 3.88593 -0.438222
-26.7141 -61.3861 -2.00822
-23.1009 20.578 -0.883406
-12.6019 -38.2122 -1.08245
42.6377 -9.05745 -1.21923
-42.7724 26.6044 -1.36119
-55.4402 19.9353 -1.41071
43.3073 -10.0563 -0.956626
-31.4833 23.7931 -0.788194
-30.7546 9.7821 -0.674327
30.5995 53.5746 -1.13278
-30.7201 22.6722 -0.730699
12.9339 -10.5977 -0.289859
-35.0464 -21.8103 -0.639785
-31.5539 -63.4585 -1.05581
17.418 -12.5614 -0.312209
-12.8823 -38.9461 -0.530015
-14.4356 18.3251 -0.23739
-20.5736 -47.2825 -0.561147
30.015 -18.7994 -0.319787
-23.0897 20.6011 -0.20938
-9.96736 -12.7928 -0.0489902
6.99711 -11.6719 -0.0235862
14.5573 7.61267 0.000731719
-36.0766 -22.2772 0.226017
-24.343 -41.6058 0.35459
-54.6626 29.9446 0.638506
6.66798 -11.8309 0.140679
7.99111 -9.08581 0.120923
-41.7441 -22.1934 0.519834
-11.6846 -33.0899 0.390731
11.0717 -9.65132 0.19254
-23.4745 20.0576 0.407288
-12.4884 -19.3763 0.335004
-31.7323 22.5804 0.694898
-35.7422 -23.9622 0.770164
-35.2541 -26.0438 0.764791
10.6073 -9.53239 0.232695
7.77255 -9.58082 0.265126
7.87952 -9.19678 0.261336
-72.9612 25.2644 1.80653
18.0158 -13.0778 0.541997
-29.0036 -8.71352 0.810921
-28.4556 22.3147 1.04292
11.5498 -9.89536 0.414836
17.2016 -7.45635 0.533838
-25.4189 21.5581 0.993603
-7.93627 -9.30653 0.389395
12.6015 13.7008 0.662313
6.11515 -12.5997 0.492872
8.88944 -8.7474 0.426205
24.3946 -4.32276 0.828617
18.3391 17.5136 0.916022
13.6369 23.607 1.0257
-58.1074 19.0997 2.20358
24.2048 -4.70194 0.934156
-25.8899 21.1489 1.26505
9.35619 -8.90074 0.499298
22.2527 -3.06574 0.848684
12.1053 14.0205 0.758634
14.5957 18.8592 0.976996
6.49009 -12.3052 0.571154
17.4085 40.236 1.83106
7.62332 -10.9854 0.563747
-7.57777 -7.45937 0.470007
-8.3227 -11.5147 0.634916
-29.9055 -11.8386 1.53222
16.2643 10.5584 0.966656
-7.75477 -7.21546 0.507507
15.0472 23.3773 1.43699
-6.98058 -8.21762 0.592913
14.3555 19.6579 1.33434
-26.528 20.4273 1.85281
14.1833 23.0986 1.57003
-7.15568 -9.22419 0.667278
6.7805 -13.4368 0.864101
9.81213 12.3423 0.933581
14.5114 19.2802 1.51331
14.7271 26.2105 1.85168
10.0666 28.2311 1.90668
-7.33969 -10.0178 0.794598
9.32055 21.2406 1.55732
11.3358 9.97143 1.07639
11.3518 12.0042 1.16661
13.5458 15.6524 1.48171
8.14924 -12.562 1.05719
10.6857 8.91987 1.02442
12.7532 14.304 1.43428
-14.499 8.55029 1.27372
-11.1872 2.10752 0.861775
12.2802 15.9853 1.56474
11.4102 18.1844 1.66753
10.0629 -6.88653 0.952184
-7.70375 -8.14948 0.897352
12.6345 11.4369 1.39038
11.7431 11.4882 1.364
-7.03086 -6.18612 0.761253
-7.08442 -6.92745 0.822131
11.3543 11.8521 1.41563
10.5505 9.29403 1.27845
-11.4643 2.9356 1.08818
-7.65052 -7.12579 0.939536
11.5466 8.90947 1.39676
9.10596 12.8768 1.51469
7.09143 13.0485 1.45579
8.31221 12.9238 1.54122
-6.76753 -6.74381 0.949924
7.84439 -6.52047 0.998498
9.57444 11.9923 1.53822
9.84198 10.0537 1.45331
-6.90353 -5.41925 0.913627
9.53052 9.07527 1.4032
8.10428 11.0183 1.43396
6.66346 12.9205 1.54905
9.51058 8.29902 1.33632
9.09202 10.1266 1.48276
5.60403 12.3443 1.46768
-6.41096 -7.55031 1.0706
6.60417 11.2401 1.43453
5.15692 12.9212 1.53498
-6.84495 -3.99218 0.875406
-6.71797 -6.0971 0.999834
3.91387 -7.75668 0.961927
5.43194 -6.08567 0.916603
9.28333 7.47332 1.33965
8.97736 9.55383 1.47857
7.82845 11.1501 1.52313
6.69602 10.5674 1.42678
-6.89889 -4.58241 0.939646
4.69856 -7.66616 1.03902
-10.7166 7.18421 1.49836
-7.10882 -2.13881 0.864339
8.94855 6.04504 1.28498
5.80513 11.848 1.55936
4.90265 11.3377 1.45694
4.76696 -5.85518 0.88877
4.10521 -7.87109 1.07955
8.29124 3.84033 1.14548
10.8838 5.42865 1.495
4.4798 12.4639 1.64859
-6.17505 -5.40267 1.00667
-9.17973 1.30852 1.15635
8.18716 7.488 1.40437
-6.45519 -5.33499 1.05958
7.71996 8.10833 1.43951
-6.90561 -3.58271 1.00774
4.96104 -5.95801 1.00103
5.01674 -5.42004 0.963054
8.33426 6.857 1.4298
7.87177 7.78376 1.47303
-7.22392 -1.72887 1.00133
-7.05053 -2.21556 0.990806
-6.50338 -4.38491 1.04237
4.82333 -6.07994 1.03284
8.32219 6.30729 1.42046
-6.86892 -4.22979 1.08736
-6.06404 -4.45579 1.01244
4.94339 -5.53049 1.01866
7.39591 -3.51284 1.13969
8.31143 4.2197 1.3241
8.27334 4.54625 1.33964
-6.95874 -2.91503 1.07924
7.46277 -3.72468 1.19106
7.00417 -3.0496 1.07771
4.93414 -5.78078 1.09718
8.16984 -1.72871 1.20946
-6.97815 -3.26667 1.14323
7.33517 5.5272 1.37958
5.69705 7.35535 1.4053
7.93794 3.88965 1.35081
7.85838 4.16748 1.35251
5.37608 7.71968 1.4303
5.01723 8.57022 1.50047
3.4417 9.41401 1.51205
-7.02753 -2.83453 1.15573
7.66283 -2.78767 1.24911
7.82617 -2.2303 1.25594
7.77611 -2.01174 1.2412
7.4173 4.17774 1.37279
7.02098 4.721 1.39037
6.69585 4.88021 1.37781
5.33554 6.39372 1.38587
-7.228 -1.365 1.21853
4.93923 7.25348 1.46461
4.67372 7.15322 1.4344
-7.24356 -0.806887 1.22102
2.86692 -5.93179 1.11073
6.65946 4.0637 1.33302
6.46035 5.18945 1.40731
3.78601 7.8351 1.4604
-6.39557 -2.30665 1.15403
-6.30094 -2.68867 1.16885
3.77244 -5.2404 1.09942
-6.99424 -1.80112 1.26268
4.23466 -4.64148 1.10423
6.63001 3.49121 1.35328
5.02041 5.55303 1.36818
3.6325 -5.36099 1.17936
3.32269 6.66254 1.38794
6.46507 3.03372 1.3568
6.40002 2.7024 1.32643
-1.64977 -5.7101 1.14124
-2.17218 -5.76679 1.20171
6.22847 2.36795 1.33197
3.93926 -4.58068 1.20176
-3.00999 5.61991 1.3606
-3.63375 5.22774 1.38867
4.20924 -2.92797 1.20529
-4.28786 3.93863 1.41957
4.58699 -2.18723 1.23341
4.47829 -1.26919 1.15743
3.71015 -2.9367 1.23266
3.68 -2.58562 1.19327
3.42702 -2.97959 1.22562
-2.31987 -3.61491 1.2069
-2.49794 -2.92572 1.1972
1.87464 -2.49469 1.13289
1.93622 -2.65278 1.19758
-2.04416 2.8064 1.31675
-2.0706 -1.46319 1.19709
-1.82337 -1.82947 1.30223
-1.97514 -1.17132 1.20963
9.64807 -9.02499 -9.35198
9.21246 -8.89975 -7.63375
2.44635 -20.0738 -10.7395
3.66695 -9.28757 -4.50282
26.2273 32.5825 -14.0438
2.06686 20.4532 -6.09399
9.48394 -8.74995 -1.61317
8.73677 -8.60872 -1.22997
8.88633 -8.7646 -0.925356
19.0451 -13.4848 -1.27638
43.0069 -11.5514 -2.30605
-31.7297 -13.4194 0.34774
10.0079 6.88791 1.2901
-3.50811 5.33832 1.37311
7.9617 -8.21979 -10.2667
7.82285 -8.24578 -10.0065
8.35193 -8.44177 -9.83524
6.82001 -11.7762 -11.1815
7.95263 -8.21221 -9.04375
7.99229 -8.69019 -9.07427
6.19952 -14.1175 -11.6018
5.8499 -14.1367 -11.2037
9.05861 -8.80629 -9.2626
7.60885 -9.18373 -8.64468
7.83703 -9.08733 -8.57949
7.19553 -10.6625 -9.15398
10.1933 -9.27991 -9.66404
6.40694 -11.0439 -8.72459
8.14734 -9.04703 -8.16481
7.31732 -9.30102 -7.89976
7.93719 -9.17807 -7.97832
5.02253 -15.9353 -10.779
-0.522438 14.354 -9.21946
7.28229 -10.758 -8.33437
7.58842 -9.11229 -7.58793
10.9589 -9.77889 -9.32558
7.03368 -10.894 -8.08325
8.17078 -8.57783 -7.36028
0.113671 14.3645 -8.75367
7.7438 -8.70964 -7.02224
11.4496 -9.72057 -9.06416
8.95441 -8.88328 -7.45499
6.55909 -12.8099 -8.49067
5.5016 -13.95 -8.81354
7.03151 -11.0651 -7.52631
5.10342 -12.8158 -7.74683
3.15859 -19.304 -10.9685
6.59474 -11.0677 -7.22012
7.83481 -9.03125 -6.70518
12.1447 -10.1729 -8.86021
9.67243 -9.47544 -7.4257
13.2263 -10.6032 -9.14448
15.0129 10.2823 -9.77511
14.9943 7.36712 -8.92703
13.8221 7.62051 -8.34717
11.379 -9.82019 -7.72379
-0.0619985 15.1702 -7.67271
2.3642 -19.4882 -9.91722
10.6451 -9.54317 -7.19295
7.32738 -9.25492 -5.92253
14.0639 -11.155 -9.03961
17.9753 -12.8535 -10.7524
18.5514 5.72809 -9.4333
2.66162 -19.5535 -9.58362
12.8135 -10.5858 -8.03685
15.3432 -11.682 -9.356
7.28448 -10.7389 -6.25046
14.9602 7.33339 -7.75319
7.0721 -10.8799 -6.04879
6.20858 -10.6056 -5.69212
9.98547 -2.50561 -4.73298
17.3061 -12.6453 -9.84936
-11.8527 17.015 -9.45233
3.53805 -9.02421 -4.3915
-10.2705 16.7921 -8.84666
15.9396 7.20926 -7.82755
-11.3031 17.1973 -8.87632
-7.07098 6.85823 -4.2428
-6.48839 6.47256 -3.9016
1.19664 -15.4355 -6.58165
19.8458 20.5606 -11.9919
16.1667 -12.2186 -8.52179
15.1133 7.42711 -7.03671
-10.0837 -1.10036 -4.21235
19.8184 21.5724 -12.0279
14.0564 7.76645 -6.5362
16.3542 7.36607 -7.20553
14.9616 7.69868 -6.74913
1.48595 -17.9084 -7.01772
18.6117 5.7426 -7.53803
19.3475 21.59 -11.2118
0.769698 16.2659 -6.25591
0.710371 -24.1813 -9.20088
16.8511 -12.4643 -7.84095
14.1171 7.88292 -5.84458
0.53699 -22.6567 -7.98764
-4.07584 13.7101 -5.02003
-10.6638 16.3894 -6.84448
-0.866116 -22.9399 -8.06958
-15.0998 18.6342 -8.2954
-8.95682 16.1807 -6.34752
-5.04959 14.3863 -5.14091
1.2725 17.5937 -5.87728
-5.37645 14.3277 -5.04587
38.304 -19.6813 -14.2186
12.4457 -10.2947 -5.20566
8.00389 -9.17019 -3.90028
7.39009 -8.7778 -3.55219
-4.26489 14.3586 -4.5082
11.5102 -9.76219 -4.55593
15.0593 9.4783 -5.09549
13.6163 -10.6323 -4.95746
-5.54374 14.7816 -4.4443
-13.5326 18.1621 -6.39226
15.6148 10.5544 -5.19077
-9.67508 16.259 -5.02885
-27.2861 21.1334 -9.01283
-24.036 20.191 -8.12064
-7.18932 15.262 -4.31446
-7.98574 15.4953 -4.2515
-26.243 20.7101 -8.14676
-3.31203 13.5545 -3.34191
-11.8108 17.1368 -4.97461
3.10181 -9.52658 -2.36966
14.7222 7.85329 -3.93855
-33.5905 -26.3703 -10.0141
5.38147 -11.6038 -3.01406
48.9858 -11.8146 -11.712
-7.32797 -35.8415 -8.40596
-9.79927 16.435 -4.37456
15.0239 7.36163 -3.78985
-30.3755 22.0842 -8.33739
-12.4889 -44.693 -10.1907
3.71856 -9.39507 -2.22567
42.2545 -10.7066 -9.41736
-35.0894 -23.0464 -8.94747
-14.8932 18.4808 -4.9292
14.601 7.79843 -3.43762
-32.1777 -24.3485 -8.3065
9.27732 -9.1841 -2.70751
42.9702 -10.924 -9.09565
45.6751 -9.68656 -9.42386
-28.7211 21.5568 -7.08319
-21.3652 -34.7289 -8.01543
-33.4273 -24.1507 -7.79697
-34.8907 -23.0231 -7.80633
-14.8766 18.4931 -4.31086
15.2746 7.48965 -2.99716
-5.31458 14.1821 -2.66571
-18.6963 20.005 -4.84114
-22.3309 -53.1696 -10.0551
-22.6415 -36.5247 -7.41564
-34.2426 23.1989 -7.01594
9.11001 -8.96028 -2.16882
-31.405 22.8767 -6.3233
-32.2877 -24.2595 -6.44914
-20.5542 -54.7031 -9.33243
42.3339 -10.7484 -6.96762
-44.9476 26.5475 -8.22598
-37.3389 -23.3765 -6.83101
6.42512 -10.8444 -1.96948
-29.4394 -26.2427 -5.95823
-30.8193 -25.2872 -5.97539
-20.6072 -50.7691 -8.13896
6.45998 -12.3729 -2.08482
-33.3427 -23.9796 -5.87818
-31.3184 -24.654 -5.65616
-32.4983 23.2668 -5.58996
-13.1309 17.7282 -3.00307
-33.0989 -24.7455 -5.5956
-30.431 -26.1804 -5.44894
-31.9951 -19.898 -4.94744
-33.9867 -23.4274 -5.44486
-33.7419 22.886 -5.13767
-30.8584 22.9672 -4.70391
-41.1246 24.291 -5.87062
12.9208 -10.4469 -1.94882
9.68963 -9.07227 -1.52674
10.5304 -9.21283 -1.54139
-13.1717 17.8089 -2.33331
15.0636 -11.5836 -2.02897
-31.15 -24.6349 -4.02741
