ply
format ascii 1.0 
element vertex 1872
comment /media/mkaihara/Seagate Backup Plus Drive/model_iterations/model_97.ply
property float32 x 
property float32 y 
property float32 z 
end_header 
-27.4103 22.2458 -2.0013
-29.2206 -14.3861 -1.8821
-16.2247 -42.2678 -2.52576
16.7672 -12.5112 -1.17237
-27.3758 -16.4738 -1.71998
42.0596 -9.3687 -2.21658
-9.43355 -12.6047 -0.799288
-15.8057 -42.0639 -2.23872
5.67293 -12.3811 -0.67689
-14.4086 18.2656 -1.13453
-15.5919 -49.0071 -2.52629
14.7904 7.75947 -0.804417
-16.7405 -42.9096 -2.18958
-15.0401 -48.9151 -2.41527
18.5637 -13.171 -1.09127
-17.7702 -51.5344 -2.54345
36.3672 -8.93197 -1.75515
-29.1206 -14.8908 -1.46345
-25.1981 -57.7385 -2.79443
-16.9403 -41.6809 -2.00336
9.61505 -9.07314 -0.589563
12.5303 -10.2845 -0.727787
43.6557 -9.98888 -1.99211
-14.4451 -43.9388 -1.96923
-33.3204 23.5546 -1.6989
-54.8396 29.7831 -2.48849
-34.3862 23.6641 -1.53107
-19.4482 -50.859 -2.04431
-35.0062 -22.044 -1.47875
9.70193 -9.02893 -0.487404
6.5745 -10.7806 -0.438294
-13.3969 -39.9374 -1.39491
7.41046 -13.0072 -0.51148
18.46 -13.0747 -0.764366
-27.5722 -60.3875 -2.18657
-13.6764 -38.8 -1.33346
20.7934 23.9819 -1.01866
-23.4742 20.8398 -0.988202
-21.54 -55.154 -1.83684
20.8387 -14.2106 -0.767085
-27.8528 -14.3333 -0.949467
-13.3897 -42.8521 -1.33536
-24.4529 20.7775 -0.921198
-24.4889 -56.3586 -1.74863
-18.0992 -48.9852 -1.50704
-34.8561 -21.2379 -1.12894
-9.82967 -12.8965 -0.463174
-23.6646 -55.8074 -1.71167
17.8848 -13.3238 -0.567968
29.471 49.1809 -1.48436
-30.5869 23.3373 -0.988549
-31.7659 23.2342 -0.972725
-27.4561 -13.1925 -0.746398
9.52355 -8.96202 -0.316622
-21.1935 -34.1364 -0.937221
-40.8074 14.155 -0.943738
21.0372 -14.0761 -0.537715
18.2891 -13.1854 -0.42324
12.7398 -10.4661 -0.274821
-33.525 10.6021 -0.58065
-28.5343 -13.5879 -0.500244
-37.5258 -21.3705 -0.655981
-18.6108 -45.6229 -0.762874
-8.04146 16.9113 -0.254266
-32.9372 -24.6051 -0.570087
-34.3059 -23.3866 -0.531403
17.1652 -12.8068 -0.260013
18.0792 -13.0168 -0.282688
28.6011 -17.6362 -0.44876
-22.16 -56.7564 -0.739911
-30.7748 23.4628 -0.412092
-28.7065 -61.2535 -0.721019
-19.0926 -43.7912 -0.511933
-54.5066 29.8712 -0.516152
-34.7868 -61.3652 -0.650699
-20.7149 -54.3272 -0.553042
37.0505 -8.95091 -0.350641
-14.5213 18.4312 -0.164453
-37.0433 -82.4919 -0.620022
-18.3918 -44.6087 -0.329168
9.53075 -8.9681 -0.0408214
14.689 7.73274 -0.0280596
-29.6712 -13.2364 -0.0586615
-11.7557 -17.1158 0.0251645
-12.9784 -19.5345 0.0444845
-19.1569 -43.9742 0.197346
9.39787 -8.94749 0.059078
-33.3489 23.601 0.213091
-22.5593 -56.9522 0.295672
-30.4859 -14.149 0.201927
16.6998 -12.1847 0.115416
-13.2358 -20.2939 0.157896
14.6043 -11.3763 0.145548
-54.1622 19.4054 0.510155
7.03731 -12.0915 0.117358
15.871 -11.7605 0.167545
-36.9242 -22.3439 0.452762
37.7258 -7.75388 0.400773
-35.7431 -22.3993 0.480494
-12.8391 -35.4609 0.439471
-13.323 -35.8267 0.462493
-11.4299 -32.9127 0.42332
-9.81948 -30.3818 0.385841
24.832 50.2803 0.731457
9.54253 -8.97551 0.169297
-12.9104 -20.0057 0.323971
-11.1249 -33.7706 0.486364
8.53143 -8.47524 0.182254
6.23873 -12.7632 0.206817
7.1077 -10.9525 0.199233
9.29972 -9.01536 0.187
7.99261 -9.0689 0.193263
9.67716 -8.96035 0.217173
37.2133 -7.97283 0.624197
-24.3175 20.8536 0.574621
-33.6313 -22.6272 0.697441
-34.9812 -25.6655 0.759746
12.8263 -10.5367 0.271871
13.1339 -10.5934 0.316104
-9.95615 -12.6234 0.303464
6.78548 -11.1206 0.25396
7.94769 -9.34055 0.241094
25.3366 52.1298 1.16262
6.93441 -10.8996 0.259652
9.13532 -8.64363 0.267129
11.4558 -9.84648 0.330941
17.1195 -7.64657 0.37735
7.16747 -10.8746 0.294716
-12.9169 -19.8289 0.565094
7.60864 -9.26332 0.273007
7.79118 -9.31735 0.281918
-26.1451 21.9744 0.888032
-29.209 -9.3668 0.769953
9.57065 -8.9049 0.336235
17.3264 -12.6572 0.540824
18.1462 -13.0663 0.555979
-23.4035 20.4901 0.811258
-28.2886 22.3568 0.942193
-29.2206 -8.7701 0.798927
-33.5592 -17.8938 1.03294
-13.4883 -20.368 0.649038
14.6383 -11.3738 0.494526
22.5282 -3.27778 0.640589
-12.3089 -19.1931 0.659388
24.7204 -4.68298 0.732219
15.989 24.813 0.885211
-28.3718 -20.9011 1.04265
7.17778 -11.2434 0.400476
6.923 -10.6313 0.386359
14.4128 23.4787 0.846318
-7.6394 -8.82748 0.357
12.9337 -10.583 0.510239
-7.3369 -9.53582 0.368505
-28.8411 -8.14057 0.997543
-11.9882 -17.5242 0.710808
7.83005 -9.30051 0.402246
15.9683 10.9098 0.692841
10.7906 -9.39581 0.519731
11.8108 -9.97891 0.56335
21.867 44.0331 1.84716
-7.46392 -8.14884 0.413085
9.59749 -8.90923 0.488855
22.5953 -3.17237 0.875905
25.3963 52.4981 2.25896
-7.46734 -9.91145 0.485379
10.366 -9.45421 0.550325
12.6329 -10.4335 0.66193
21.3709 -2.61919 0.877773
-29.4894 -17.8905 1.41035
8.69384 -8.65472 0.506976
-6.93717 -8.48233 0.471054
9.38491 -8.87782 0.540057
12.4999 14.3492 0.840745
-29.1867 -8.56581 1.33697
14.4612 18.8358 1.0676
14.6511 25.226 1.30031
20.786 40.8738 2.02865
6.11035 -13.6139 0.665445
10.7746 -9.45257 0.648212
18.3362 -1.62727 0.84218
18.761 35.7214 1.89296
14.5846 25.6968 1.38586
-11.2429 2.78864 0.558238
-7.26212 -9.57236 0.579443
9.11711 -8.93598 0.604613
11.3256 -8.68913 0.668462
19.9339 -2.28431 0.966531
11.4963 11.7162 0.815402
15.4141 37.0694 1.97413
7.71774 -9.40619 0.598887
10.1226 -9.21931 0.678011
14.2258 24.1228 1.40274
19.3569 37.5366 2.14426
20.8103 -2.59237 1.06635
-7.42238 -8.52735 0.586572
9.33305 -8.88608 0.671033
16.3249 23.9393 1.52256
16.0273 29.0556 1.73236
12.9055 -10.6374 0.888599
10.4253 12.1872 0.858012
13.9566 18.9449 1.26436
11.0024 -9.54023 0.787437
14.7301 19.1919 1.33453
-26.7718 20.5221 1.84458
-6.98264 -8.19212 0.595562
10.1231 12.2387 0.889708
-7.2813 -9.39968 0.665959
9.86213 12.2855 0.913917
-28.243 19.884 1.96253
6.05027 -12.7777 0.809531
11.0474 11.9424 0.93528
-6.89414 -6.80398 0.561886
11.137 11.8758 0.958869
-6.8234 -8.4316 0.649229
6.1966 -12.456 0.812991
14.3694 19.1187 1.43838
13.7979 22.5593 1.57779
12.9459 29.9185 1.95673
-6.18704 6.58976 0.55558
-8.18885 -7.75926 0.682466
-7.13314 -8.18302 0.666765
5.67244 -12.3363 0.821162
-7.49679 -6.90219 0.634073
6.95691 -11.0842 0.809255
6.94357 -10.4939 0.785413
11.2628 -9.72208 0.918902
12.0412 -10.0729 0.972866
16.0679 7.11615 1.11981
14.6159 18.9339 1.51355
-7.2508 -6.31912 0.623962
10.2019 -9.3176 0.891692
-7.39285 -6.27182 0.6361
11.3369 11.9628 1.12314
9.29823 20.9321 1.55971
-7.29397 -9.68202 0.809913
11.49 12.4619 1.16297
-6.96602 -4.46415 0.569302
-6.76789 -8.21987 0.726205
-6.70921 -4.44001 0.555137
9.22361 -8.81834 0.888394
9.94851 -7.80526 0.890755
12.5114 15.7687 1.45558
9.76113 -8.2428 0.934235
11.263 16.8408 1.52322
11.1811 17.8258 1.57199
9.39626 17.8839 1.52349
8.8048 19.0282 1.57695
7.11358 21.2011 1.68106
10.5558 18.2199 1.60426
9.96701 -7.56205 0.956621
-7.04296 -7.20438 0.772135
-17.3 -6.27487 1.43923
9.42971 -7.64468 0.951625
9.13237 18.2399 1.60999
-6.38887 -4.26596 0.609265
-6.84628 -8.23985 0.849359
4.83031 -5.72801 0.595743
8.80278 19.3664 1.68727
7.57373 18.5177 1.60856
5.02286 -5.78901 0.617523
12.6352 11.4014 1.37914
11.6424 11.6947 1.35133
6.69897 -9.34539 0.934717
12.0959 11.5694 1.37597
6.49163 19.0565 1.64773
-6.36501 -4.3939 0.630552
-7.18374 -9.50768 0.978114
11.4105 11.9543 1.36743
10.376 9.07718 1.17398
-5.05967 -11.5437 1.06461
6.11541 -6.03562 0.750027
9.17933 -7.15097 1.0008
-6.80822 -6.70571 0.812021
10.303 12.21 1.39472
8.76212 -7.30107 0.991455
10.6989 12.0605 1.41104
-7.32731 -7.78322 0.937261
8.16051 -7.2649 0.970091
10.0801 12.3208 1.43114
-7.08806 -7.75986 0.931975
-6.95566 -8.36157 0.976217
10.4699 12.1705 1.45786
10.3599 13.3636 1.532
-7.13535 -8.34983 1.0006
11.101 10.7227 1.4197
-6.32286 -4.2368 0.700101
-6.87928 -8.61608 1.00884
-6.33687 -4.40027 0.711372
10.9897 8.48099 1.30273
10.5436 9.24298 1.30743
6.36116 15.1106 1.54191
10.3933 11.1812 1.44457
-11.289 2.89283 1.10168
6.14697 -5.95506 0.815949
7.9798 -6.61529 0.995603
10.644 9.1147 1.36044
9.40798 12.3789 1.50553
9.59237 12.31 1.53757
7.56506 12.0985 1.41742
7.79824 13.0362 1.51206
11.1339 7.99523 1.39702
7.03743 12.5227 1.44969
8.9581 11.2263 1.46141
6.88741 13.3337 1.53582
5.7627 13.6929 1.52499
9.1027 10.3775 1.42675
8.92027 12.1525 1.56629
11.2996 7.59842 1.42055
9.16147 9.90775 1.40502
4.96909 -5.81467 0.821144
-6.85752 -4.66399 0.875071
5.47438 13.6385 1.55972
-7.07161 -4.51468 0.895003
8.83324 10.584 1.48019
-6.78015 -6.78986 1.02658
5.90106 -5.82454 0.895643
9.61075 8.46168 1.38027
8.87946 9.27426 1.38102
9.16456 10.2163 1.48806
4.6868 13.5828 1.55053
4.22773 -8.04043 0.984099
6.38797 10.6869 1.37006
-6.81262 -3.93138 0.86608
6.26053 11.7384 1.476
-6.90693 -3.86964 0.87738
9.64174 7.15404 1.34264
6.58572 11.2395 1.45078
9.73725 6.98145 1.34606
5.35729 11.4204 1.42622
5.35807 11.9138 1.47534
4.62609 12.0384 1.45905
9.76916 6.63984 1.34624
-6.904 -4.57169 0.948615
7.38959 -6.21566 1.10068
-7.34782 -0.787276 0.847787
-6.285 -5.39927 0.954525
5.24529 -5.56392 0.882351
8.80915 7.83148 1.37326
4.41372 -7.17606 0.976004
10.3545 5.12613 1.3531
8.89317 7.73654 1.38565
5.19684 -5.60768 0.903274
8.53824 7.85931 1.37702
8.82658 8.97951 1.47317
-7.06199 -5.66246 1.0713
10.0868 4.72314 1.32705
-6.9308 -3.85855 0.956126
9.08601 6.10794 1.32788
5.13902 11.2644 1.50075
-6.90527 -3.07093 0.918631
-6.88953 -3.25722 0.921939
4.87818 -5.94918 0.939051
5.96599 -6.12092 1.04072
9.32068 5.59066 1.34361
8.40542 7.17599 1.36649
-6.96296 -4.31833 1.00964
-6.8942 -4.54317 1.01793
8.1927 8.51666 1.46614
4.96226 11.1595 1.51636
-6.56238 -5.62819 1.07619
3.70558 -7.5679 1.05015
8.44224 7.68725 1.4287
6.07065 -5.61071 1.03642
9.11315 6.02557 1.38452
-6.14467 -5.42202 1.03435
8.4962 6.57268 1.36989
8.03186 7.45722 1.39421
-7.11473 -1.78636 0.938719
-7.02648 -2.31027 0.945075
-6.45684 -5.32813 1.06837
8.78015 5.62902 1.33709
8.09418 7.98544 1.46547
-7.27878 -1.25586 0.94764
-6.91017 -4.12629 1.04089
7.38794 6.18447 1.24789
8.02547 6.99482 1.38047
7.90878 8.06395 1.46364
-6.92244 -2.83115 0.974117
-6.9237 -2.97128 0.974488
4.49654 9.95739 1.43566
8.95573 4.09171 1.29604
-7.26214 -1.60935 0.978017
6.8299 -4.25313 1.06934
4.92585 -5.94076 1.02318
-7.34854 -1.11948 0.995515
-7.0269 -2.20331 0.985572
-7.06415 -2.27272 0.991866
-6.00299 -4.40415 0.995367
5.18303 -6.55801 1.11405
6.90036 -4.17001 1.08544
8.01895 7.12177 1.45292
-7.16497 -1.72149 0.991165
-7.0957 -1.95931 0.990557
8.74932 4.83033 1.35741
8.28445 5.83963 1.3781
-6.93314 -3.62538 1.06652
8.82569 4.14213 1.33726
3.29419 10.3527 1.48695
-7.32777 -1.20239 1.01704
-6.0183 -4.44752 1.02958
-5.99878 -4.54647 1.03082
7.13701 -3.92813 1.11972
8.02217 6.44587 1.42326
5.3036 8.96395 1.44215
-6.39196 -4.32805 1.05865
4.9314 -5.52412 1.0287
7.17449 -3.82397 1.13149
7.54673 -3.68004 1.16176
3.56987 9.90303 1.46551
3.3831 10.179 1.4951
-7.38461 -1.08437 1.04255
-7.08642 -2.0074 1.02689
4.97096 -5.2862 1.0144
7.23591 -3.73203 1.14382
7.3517 -3.66659 1.16521
7.85825 -3.35045 1.21446
-7.1679 -1.87816 1.05433
-7.01999 -2.95085 1.104
-6.01609 -4.37939 1.07061
7.89261 -2.77786 1.22422
8.1948 4.59946 1.37684
4.94743 8.47523 1.43819
8.33188 4.48676 1.39861
7.81834 -2.33714 1.20291
7.10903 5.65914 1.36069
2.9212 9.32349 1.46045
-7.10636 -2.02305 1.10791
7.47409 -3.10564 1.22015
8.19177 4.52721 1.41874
5.74563 7.3892 1.42126
5.25187 7.5766 1.40468
5.08642 7.88038 1.42457
5.03922 7.9866 1.42915
7.32515 -3.16607 1.21885
7.66897 -2.75239 1.24079
-6.76713 -1.68552 1.051
7.82027 -2.25354 1.24804
7.20022 5.40006 1.38202
-7.11597 -1.95583 1.14577
-6.93114 -2.79041 1.16182
6.78167 5.50072 1.36966
-7.37027 -1.09795 1.16451
-7.15707 -1.82741 1.15744
-7.05862 -2.07105 1.15316
-7.13357 -1.87579 1.15808
-6.90613 -2.93897 1.17876
4.77551 7.40457 1.40115
3.44712 -6.03337 1.10955
-7.28996 -1.30194 1.18691
3.52918 -5.70943 1.08128
3.56615 -5.61491 1.07069
7.04965 4.75191 1.38537
4.63028 7.32828 1.41068
-7.08346 -2.02703 1.20133
-7.10567 -1.95039 1.20971
6.94525 4.81266 1.39744
3.78732 7.86773 1.44544
6.05079 -3.31794 1.14952
6.61417 4.85891 1.3684
4.63366 7.12175 1.41717
3.83742 -5.30192 1.1
7.08697 4.4131 1.40574
7.46077 2.85285 1.34991
6.3003 5.26677 1.39176
-7.2936 -1.25822 1.26103
6.73751 4.07346 1.35213
-6.45975 -2.77579 1.20021
5.5086 -3.62909 1.13314
5.68951 -3.51778 1.14845
2.72997 7.77947 1.42502
-7.38804 -1.04171 1.29418
5.33319 -3.78298 1.13976
-6.31957 -2.26276 1.16454
-6.27972 -2.41995 1.17895
4.28194 -4.66552 1.10734
4.49462 -4.47777 1.11287
4.59215 -4.44944 1.12173
-6.81263 -1.73552 1.23904
4.31076 6.46725 1.38634
-7.17412 -0.930155 1.29379
-6.15203 -2.26065 1.16805
6.62622 3.68457 1.35911
6.08551 4.35144 1.35696
3.61013 -5.32953 1.1706
5.12936 5.66492 1.39774
2.49575 7.14122 1.42064
6.47453 3.04721 1.35297
-1.70545 -5.77964 1.1409
6.42328 -1.38529 1.24671
6.26422 2.77393 1.31899
6.21063 2.37853 1.32684
-4.47368 3.95903 1.40558
4.31701 3.52772 1.33336
4.20345 3.28621 1.32077
4.66489 -1.67762 1.24471
4.81794 -1.38071 1.25371
-2.16059 4.84273 1.32616
3.729 -2.95452 1.22295
3.67504 -2.55085 1.19415
3.40902 -2.96375 1.22655
3.9969 2.56464 1.32697
-2.59261 -3.53184 1.25054
-2.32386 -3.56744 1.21571
3.74885 2.05446 1.29952
3.72575 1.97704 1.29902
-2.85568 3.50247 1.39527
-2.29409 -2.41705 1.18684
1.95914 -2.78615 1.21485
-2.13088 2.77797 1.33111
-2.03538 2.76592 1.33726
2.25394 -1.87219 1.22678
2.38297 -1.4999 1.22353
-2.0198 1.88144 1.30022
-2.06238 -1.44171 1.2281
1.45275 -2.07417 1.24779
-1.99055 -1.08685 1.2143
-1.92335 -0.70714 1.22009
-1.92512 -0.702946 1.2457
-1.95469 -0.344138 1.22938
-1.89146 -0.56429 1.23011
-1.89111 -0.530524 1.23523
8.20286 -8.68143 -7.45012
12.0718 -10.2417 -8.76157
-8.88721 15.8672 -7.05873
20.2412 24.6471 -11.455
-8.82774 -2.5281 -2.58753
-35.0225 -23.3951 -7.7799
-34.6029 -22.6294 -6.10014
-34.3345 -23.3332 -6.16443
-31.6188 -20.2783 -2.82459
9.25312 -8.81335 -0.390553
-7.87396 16.9724 -0.461572
-29.7802 -11.5239 0.735906
-6.93699 -8.29087 0.461855
16.3787 23.519 1.55731
11.236 15.8019 1.60376
-6.70798 -6.68095 0.88546
4.15901 12.0676 1.47068
8.66282 9.02354 1.46313
7.96322 -8.75409 -10.368
8.82084 -8.529 -10.4844
6.949 -11.9244 -11.502
6.86491 -11.3383 -10.8846
8.14302 -8.25529 -9.52195
7.0148 -12.0177 -11.3157
7.05827 -10.9614 -10.4454
7.99284 -8.36806 -9.19341
6.72027 -11.2732 -10.2786
6.43842 -11.6856 -10.2033
7.7487 -8.84092 -8.96248
6.19856 -14.302 -11.7965
8.28814 -8.69013 -9.0902
6.29332 -11.8977 -10.1658
6.14154 -12.0774 -10.104
7.48212 -9.43405 -8.99067
7.90062 -9.04617 -8.91721
10.4452 -9.42995 -10.4665
6.11517 -14.1042 -11.3633
6.09785 -13.6622 -11.0004
6.1252 -12.5655 -10.2822
9.18088 -8.81095 -9.33504
9.26853 -9.05723 -9.4521
5.85918 -12.4942 -10.0253
9.34437 -8.97414 -9.24649
6.85248 -11.1117 -9.26551
5.61041 -12.9594 -9.99556
9.67246 -9.06297 -9.39408
7.60004 -9.33338 -8.46287
9.97646 -9.16775 -9.51909
10.8939 -9.47327 -10.1305
11.4125 -9.6748 -10.0483
8.37414 -8.59732 -7.94609
7.42193 -9.28785 -7.85582
8.15674 -8.70709 -7.88635
7.61855 -9.34053 -7.88626
7.82716 -9.39059 -7.83544
8.30988 -8.52452 -7.61044
0.362303 15.8808 -10.1344
7.51829 -9.31268 -7.61694
10.8849 -9.58465 -9.22184
7.21527 -10.6866 -8.1614
8.14504 -8.48692 -7.41861
4.61021 -15.3997 -10.1102
8.70315 -8.69049 -7.60981
7.91175 -9.02164 -7.40186
4.04607 -18.0136 -11.3731
8.18767 -8.61708 -7.26704
4.08541 -17.3093 -10.8524
0.148066 14.8874 -9.05812
6.64543 -11.2478 -7.95442
7.73346 -9.25735 -7.31928
10.1019 -9.29066 -8.32824
6.8116 -11.2371 -7.88904
8.04993 -9.19256 -7.33494
11.2391 -9.67124 -8.86538
5.39511 -13.8442 -8.81276
7.72537 -9.25488 -7.14965
9.33499 -9.01821 -7.69138
6.89276 -11.1006 -7.73392
7.97315 -9.11648 -7.10679
9.73352 -9.16952 -7.79356
14.7834 7.3869 -9.59676
8.65365 -8.81723 -7.13901
6.9236 -10.9504 -7.44621
2.63792 -11.2051 -6.62081
7.8497 -9.06005 -6.86591
9.58583 -9.12189 -7.51698
10.7682 -9.47376 -8.09122
3.28043 -20.6125 -11.7378
6.7927 -10.9693 -7.2335
10.0841 -9.27111 -7.67159
12.2997 -10.3206 -9.00457
9.22395 -8.99161 -7.19825
4.60995 -14.2771 -8.36471
7.99208 -9.20293 -6.76979
14.7051 7.51784 -9.06589
9.67779 -9.0887 -7.29177
0.838884 17.4595 -9.54443
2.74295 -19.875 -10.9401
11.1021 -9.6209 -7.97679
4.22596 -14.399 -8.12375
14.6189 7.64479 -8.88489
14.9953 10.3528 -9.78223
13.9579 7.70011 -8.51652
10.9224 -9.59319 -7.73082
13.216 -10.7624 -9.06703
3.0454 -19.3499 -10.2975
11.3245 -9.79804 -7.61996
2.16912 -20.3987 -10.354
10.2348 -9.31821 -6.96046
14.2141 -11.243 -9.09987
13.7501 -11.1217 -8.85399
10.9766 -9.62772 -7.27453
7.49616 -9.32252 -5.92438
3.56115 -8.46373 -4.52542
-8.72577 -1.91586 -4.39251
2.22538 -20.1917 -9.96335
4.52937 -9.29438 -5.05668
0.405671 13.6511 -6.68467
7.59509 -9.25473 -5.84242
-8.58278 16.3822 -8.95854
-9.22907 -2.43981 -4.59985
14.927 -11.5273 -9.06391
19.2672 5.51266 -9.58305
-10.35 -2.5625 -5.04343
1.90971 -20.5726 -9.82457
17.0715 16.0419 -11.0933
7.56611 -11.1861 -6.37265
19.9125 5.37469 -9.71224
13.9734 -11.0632 -8.28858
2.9239 -17.3071 -8.16215
19.244 5.69381 -9.27053
17.7444 -12.9317 -10.1429
9.84091 -2.48564 -4.68953
20.1653 5.11107 -9.59736
17.1944 16.1683 -10.8742
1.81118 -20.2523 -9.30562
9.6496 -9.02338 -6.04979
-9.23939 -1.67704 -4.28277
9.43067 -3.46038 -4.57507
6.69726 -11.2905 -5.97147
9.88799 -2.61172 -4.63865
19.1371 5.83544 -9.00645
17.5675 17.4244 -11.1214
9.34717 -3.07903 -4.42958
15.3531 -11.8142 -8.6943
7.01961 -11.5337 -6.03965
7.13537 -10.8928 -5.80466
9.53637 -3.39655 -4.51106
-10.1197 16.5889 -8.65239
17.5537 -12.8111 -9.65756
19.4217 5.59481 -8.95766
16.0189 7.26576 -7.7882
17.6717 17.8486 -11.1063
16.342 -12.154 -8.97686
-11.4028 17.3412 -9.12379
-6.63595 15.1684 -7.26052
-5.26122 4.93511 -3.14362
20.014 5.4341 -9.01545
9.53534 -3.39684 -4.36833
18.0575 18.3014 -11.0485
15.743 -12.1152 -8.54864
14.7877 7.39359 -7.05511
3.83399 -9.29126 -4.27066
-11.3225 17.2222 -8.72683
6.92803 -10.8812 -5.43969
-13.6654 3.34909 -5.92823
0.743373 -22.4414 -9.46212
15.7329 -11.9127 -8.25348
-5.1932 5.71904 -3.23273
0.999515 -22.3074 -9.36031
1.23138 -20.7996 -8.72906
14.1009 7.56254 -6.69165
18.3786 19.152 -11.0887
3.77886 -8.94585 -4.04992
14.6993 7.69185 -6.90486
17.7564 18.9632 -10.7791
-9.54439 -1.09541 -3.96594
4.0048 -8.49741 -3.84882
13.9679 7.71248 -6.54916
6.8275 -10.9609 -5.27983
-13.702 2.55964 -5.70249
-8.07418 15.6442 -7.15545
19.0616 20.7116 -11.4016
15.0001 7.20739 -6.70437
-5.33758 14.5809 -6.2266
13.8914 -10.9825 -6.93645
1.52756 19.1585 -7.46311
-8.87485 16.0304 -7.12174
18.8857 5.75945 -7.64959
-1.76265 13.3699 -5.22387
5.28736 -9.37943 -4.1525
-2.40024 13.5998 -5.30483
19.3736 22.4106 -11.357
4.65583 -8.50705 -3.68304
19.3085 5.53918 -7.64316
0.879558 -26.6858 -10.1463
14.8341 -11.4313 -7.04844
19.8626 5.38114 -7.70146
9.42158 -3.43259 -3.74884
0.534868 -22.8239 -8.50718
3.24169 -10.7726 -4.20324
19.9605 23.2214 -11.3696
0.910539 -8.73122 -3.25539
13.9666 -11.0609 -6.5699
20.2671 5.15469 -7.68852
17.7221 17.511 -9.10302
-13.1106 2.29688 -4.83935
20.5925 24.5898 -11.6306
2.28242 -13.2352 -4.83894
12.9823 -10.4986 -6.00838
0.796266 15.3976 -5.51581
-8.22081 -2.80538 -3.10705
0.410404 -21.9649 -7.8526
-4.27254 14.0274 -5.217
0.639024 -22.0157 -7.82668
15.7749 -11.9143 -7.00726
-16.0106 18.51 -8.62631
5.91764 -11.3184 -4.49105
-11.2105 16.9186 -7.09
0.0928698 -18.5991 -6.53755
14.2019 -11.2554 -6.33682
20.2218 5.3256 -7.29851
0.658645 -23.1513 -7.99823
-5.09047 14.7817 -5.35792
3.63624 -8.44133 -3.16394
4.87058 -9.02228 -3.51361
-14.7641 18.3305 -8.05772
2.27333 -10.8797 -3.80913
-9.03883 16.3984 -6.38417
3.01771 -13.6556 -4.76865
-15.2482 18.7161 -8.18529
20.0408 5.44878 -6.98009
21.7431 26.8967 -11.5571
35.6426 -20.1206 -13.6792
-5.39097 14.3021 -5.07772
1.90515 20.618 -6.86895
1.26748 -10.2511 -3.41531
-5.33641 14.6976 -5.07999
-12.8116 17.54 -7.04747
18.4466 -13.1448 -7.35637
3.55863 -8.67013 -3.00487
6.20784 -10.0937 -3.79787
2.31288 -11.0068 -3.57925
-4.63684 -34.816 -11.1622
-1.15099 -24.0861 -7.67482
14.9265 10.2799 -5.71891
-13.448 17.8958 -7.07685
-18.3332 19.7745 -8.47784
6.94342 -11.0658 -4.03919
1.38827 -21.9739 -6.81097
-2.61002 -27.7831 -8.56456
7.08314 32.6992 -10.2072
0.771193 14.9856 -4.55696
-11.3367 17.1059 -6.18652
-2.74203 -26.9107 -8.14493
-14.6087 18.2659 -6.97998
-5.38423 -35.2927 -10.6288
0.842086 -25.2366 -7.54944
-5.48733 15.096 -4.77936
2.06922 20.5611 -6.08709
-21.684 20.219 -8.74809
18.1129 5.7639 -5.59448
-4.36525 14.6673 -4.50084
-8.06827 15.6545 -5.16827
4.25044 -9.13194 -2.96065
4.62705 -11.5945 -3.65053
-12.6854 2.23473 -3.70212
-33.8752 -47.9838 -16.8997
-15.477 18.6194 -6.96127
6.9387 -11.0514 -3.75711
2.56209 -9.54033 -2.80687
12.8861 -10.4305 -4.71827
-8.47189 -2.46556 -2.50194
20.7893 26.8104 -9.61032
-8.60018 -2.26667 -2.51325
-2.59742 -26.4928 -7.469
-13.095 2.00666 -3.68936
4.37801 -11.3045 -3.36501
-9.48062 16.3054 -5.17942
-13.2979 17.7357 -6.08971
-5.49074 14.6573 -4.27943
-8.71826 -42.3295 -11.8228
-21.8839 20.422 -8.04774
-9.90879 16.4319 -5.14348
-27.2399 20.9253 -9.13889
11.3618 11.4351 -4.25255
4.31693 -11.2699 -3.19743
46.4572 -13.5051 -12.8175
-8.42825 -39.7682 -10.6829
4.08376 -8.64521 -2.5177
11.1355 -9.90457 -3.89889
-14.7211 18.4326 -6.13492
6.52323 -10.403 -3.17841
3.17447 -9.63563 -2.62285
-30.9142 -45.2768 -14.1553
-4.45701 -29.2285 -7.64805
3.5349 -10.3546 -2.82147
4.06241 -9.37395 -2.62605
15.5304 -11.6777 -4.95827
-7.29295 15.5386 -4.34603
-32.3447 -43.1356 -13.6707
4.30226 -11.1201 -3.01801
4.25072 -7.69639 -2.23773
6.52013 -10.6356 -3.11145
44.1944 -13.3617 -11.5121
-28.8381 21.7573 -8.93189
-11.7431 17.2533 -5.1461
-28.2426 -41.1992 -12.2804
-10.1646 -40.0042 -10.1795
-24.9541 20.9595 -8.00916
4.34197 -10.3132 -2.74951
-12.2861 17.5991 -5.2051
-7.99016 15.5695 -4.21916
10.2464 -9.24236 -3.30422
39.7896 -13.2172 -10.0338
15.0379 7.52055 -4.00225
-6.4761 -37.08 -8.96496
3.961 -9.07705 -2.3468
46.3337 -12.4008 -11.3846
-12.5429 -46.1784 -11.3337
3.846 -11.0311 -2.75367
4.90098 -8.68012 -2.34514
-13.0149 17.7367 -5.12078
10.9735 -9.61663 -3.33508
-6.32387 -32.0636 -7.45572
-27.6818 21.3802 -7.92924
41.005 -8.96743 -9.52591
-31.1175 22.593 -8.62219
-36.0045 -23.5946 -9.64478
40.2138 -12.4314 -9.4514
5.44404 -9.45602 -2.43628
-12.4745 2.84642 -2.80753
40.0852 -11.7468 -9.22974
42.0238 -11.9906 -9.61525
-5.48494 14.3933 -3.36912
13.3348 -10.7303 -3.76778
37.614 -12.0879 -8.68622
-23.8312 20.7703 -6.85769
-31.0843 -76.6335 -17.9415
4.30067 -9.67988 -2.29717
4.5306 -9.16303 -2.20806
-14.8484 18.4999 -5.06678
-31.5697 22.9316 -8.33231
-32.4714 23.0438 -8.51205
-29.7535 -78.938 -18.0791
-10.8895 17.0163 -4.2847
-8.66307 -36.7706 -8.0318
3.18389 -9.66601 -2.17033
3.95703 -9.80663 -2.25497
45.1388 -10.4653 -9.89183
14.8712 7.44871 -3.52565
-15.4363 19.0025 -5.18422
5.15461 -9.03842 -2.18617
26.061 37.7054 -9.5762
14.9089 7.80254 -3.49314
-30.5982 -23.6311 -8.01962
-11.6593 17.179 -4.21995
-15.9047 18.8049 -5.01471
-35.9291 24.1182 -8.79369
43.8138 -9.55661 -9.14545
-13.6938 -44.0615 -9.37585
4.12678 -9.71304 -2.14734
11.5632 -9.61214 -3.0596
-12.2159 17.531 -4.26622
-20.7783 -59.6318 -12.6182
-13.3444 -41.4515 -8.62004
4.06077 -9.89952 -2.11873
-34.6483 -23.6921 -8.27399
-27.2335 21.3739 -6.81409
-33.6621 -24.079 -8.06727
-7.02384 15.5222 -3.30814
-27.7404 -65.1796 -13.7573
-34.0666 -22.6791 -7.88605
3.42892 -9.34351 -1.92206
45.2217 -10.4776 -8.91433
-12.9753 17.7159 -4.19868
3.98107 -9.32603 -1.9353
-37.0124 -22.4823 -8.19717
-21.7139 -35.2736 -7.87675
-16.1105 -46.484 -9.30709
37.4455 -12.3524 -7.45461
-36.7156 24.6592 -8.27752
-34.2134 -23.6285 -7.81059
-33.1501 -24.2539 -7.71001
-22.1182 -54.7947 -11.1168
-17.4451 -47.3845 -9.36476
3.81502 -9.19454 -1.83881
42.0084 -11.322 -8.07987
5.74469 -9.69102 -2.06487
-25.4964 -57.8133 -11.5665
-21.1682 -52.5396 -10.2436
-14.8183 18.4715 -4.19964
-31.5805 -25.4704 -7.21132
-20.6059 -27.458 -6.13857
-40.234 25.3881 -8.39422
-27.2453 21.3928 -6.02961
-34.776 23.797 -7.31674
3.90045 -10.0268 -1.86576
4.76439 -8.59907 -1.70855
13.9328 7.48225 -2.7272
14.0034 8.03573 -2.76472
-31.4204 22.8485 -6.66043
41.6923 -11.7956 -7.37731
41.4989 -10.7478 -7.29816
-31.7375 -25.2055 -6.87482
-21.4338 20.413 -4.97083
-21.1373 -52.5382 -9.56722
14.7834 7.40938 -2.77292
-32.3099 22.8735 -6.61289
-24.4901 -58.3875 -10.4608
42.983 -11.5792 -7.23615
-10.5345 16.7245 -3.19036
-21.4438 -53.1981 -9.14656
-35.4414 -24.4654 -6.78582
-23.1681 20.3552 -4.82948
-24.6019 21.0017 -5.01364
-40.9489 24.7931 -7.418
-11.417 17.088 -3.17326
3.46475 -9.50888 -1.56536
3.85896 -10.2048 -1.6895
-7.76626 15.7526 -2.68354
-31.659 23.0423 -5.98585
-32.2448 -24.9049 -6.19511
-28.3675 -26.5345 -5.88416
41.6822 -10.836 -6.54694
44.2693 -9.64466 -6.90321
-6.66725 14.8513 -2.43674
9.81268 -5.14357 -1.64436
-34.0073 -24.5279 -6.24383
10.1643 -9.13881 -2.03717
44.4048 -10.2725 -6.76922
-37.2401 -24.7902 -6.58371
-32.0049 -26.3989 -6.06858
-13.0847 -43.3532 -6.66199
16.8269 -12.1743 -3.04268
-25.8374 21.2727 -4.86397
-25.6512 -57.4738 -9.0683
-7.76124 15.5457 -2.48537
-12.9272 17.6257 -3.11696
6.01417 -11.4901 -1.85348
-13.6432 18.2356 -3.19963
-35.3902 23.9068 -6.0045
6.7383 -11.0067 -1.80404
37.1657 -12.2653 -5.50518
-31.6246 -25.3408 -5.65547
-33.6568 24.1874 -5.74177
-21.3099 -51.3598 -7.67917
44.5523 -9.9668 -6.29586
-7.00671 15.4965 -2.32502
-23.6483 -61.7181 -8.97734
7.7334 -9.35883 -1.62944
-14.2415 18.1843 -3.11411
13.1625 -10.498 -2.27836
-22.6046 20.5616 -4.10925
41.6022 -10.7562 -5.70532
44.2833 -9.6998 -6.0009
-22.9872 20.2289 -4.00426
-33.1862 -24.8327 -5.41359
-15.148 18.5494 -3.09695
-34.6824 23.1486 -5.41357
-38.8864 -16.4194 -5.44978
6.99665 -10.4055 -1.60904
10.7175 8.77456 -1.77808
-34.3152 -23.6478 -5.33285
-32.0391 23.3892 -5.01797
-36.1195 -22.5389 -5.33612
41.4733 -10.7257 -5.36147
6.77669 -10.3382 -1.54482
-7.8011 15.6041 -2.16083
-25.4562 21.375 -4.07039
-34.0501 23.9974 -5.13856
6.27177 -12.0286 -1.65289
44.2372 -9.43785 -5.54089
14.9224 7.81793 -2.02509
-18.5017 -44.8101 -5.84516
7.0661 -10.5018 -1.52427
-20.7313 9.18782 -2.68385
-14.7942 -44.7511 -5.54134
-32.3306 -24.9263 -4.77326
-31.8098 -25.4397 -4.76613
41.5512 -11.1303 -5.05635
11.1945 -9.64044 -1.71179
-30.4422 23.0826 -4.39542
6.62266 -10.7908 -1.44967
7.47248 -9.20003 -1.35591
11.5442 -9.69105 -1.71217
9.4323 -4.60149 -1.18845
14.9015 7.65746 -1.88786
-10.5319 16.7667 -2.23506
-32.8107 23.9749 -4.55244
38.4372 -12.653 -4.53861
9.33205 -8.99923 -1.43445
-11.2563 16.8821 -2.20617
6.76455 -12.7356 -1.56239
44.3759 -9.64443 -4.92362
10.7145 8.80468 -1.49421
16.6818 -12.3917 -2.2307
41.742 -10.826 -4.62132
9.59293 -8.95429 -1.39046
8.36058 -8.44551 -1.24507
-31.3615 -25.0965 -4.18229
-31.3932 -62.9685 -7.33948
14.8989 7.47198 -1.70263
-32.2678 -24.8806 -4.18044
-13.0758 17.8251 -2.24502
-12.9879 17.4007 -2.15855
10.1782 -9.0619 -1.3352
-21.6605 -55.0092 -5.79554
6.29056 -12.0467 -1.31564
16.5531 -12.1105 -1.97188
41.6317 -11.187 -4.13278
-31.9805 -64.6446 -6.85568
-21.673 -56.8761 -5.7799
-23.7086 20.7375 -2.94464
45.0565 -10.0232 -4.31186
9.68989 -8.9624 -1.22203
39.2488 -12.9471 -3.85186
-15.2738 18.7232 -2.18841
-30.022 -13.6879 -3.00743
-33.6577 -65.613 -6.7968
15.7766 -11.8085 -1.793
8.61543 -8.70617 -1.10929
12.839 -10.5979 -1.44996
44.6476 -10.3484 -3.92671
9.37671 -9.00379 -1.09293
10.9162 -9.61311 -1.22284
-34.8159 23.9097 -3.5145
16.7517 -12.216 -1.71759
-17.4656 -45.4486 -3.89963
14.6132 -11.4266 -1.47955
-11.9999 -33.594 -2.81555
-30.3734 23.0945 -2.95068
-33.7293 23.841 -3.1885
-23.5232 -53.7331 -4.52824
-52.3768 28.5056 -4.51524
-21.749 20.4691 -2.17255
-33.9597 24.0208 -3.01444
16.2911 -12.1726 -1.48803
41.6549 -11.1468 -3.14212
-41.2116 -77.976 -6.36479
13.912 -11.0071 -1.26986
-16.0149 -42.4832 -3.13354
10.7315 -9.58391 -0.985975
-23.7333 20.7807 -2.13041
12.8174 -10.5762 -1.11264
17.8471 -12.9444 -1.47021
15.9565 -12.0692 -1.32164
-15.1016 -41.8705 -2.87924
43.3765 -11.2812 -2.80213
-33.2124 -67.2936 -4.57947
35.4951 -8.61109 -2.24201
42.5735 -9.74432 -2.68181
6.01826 -13.0092 -0.857012
30.5664 -20.2256 -2.19394
-10.0175 16.7228 -1.14618
-16.0044 -41.7486 -2.54597
16.5193 -12.3456 -1.15826
-9.73351 -12.6179 -0.873268
14.8886 7.63839 -0.904542
13.8399 -10.9557 -0.945474
-12.9977 17.6138 -1.14342
-16.9279 -41.9571 -2.40292
14.783 7.77333 -0.818388
-16.765 -42.8534 -2.25799
-14.3857 18.2338 -1.11066
9.53922 -8.99799 -0.601615
-24.884 -57.0809 -2.81793
12.4024 -10.1957 -0.744556
-16.5289 -46.0759 -2.17353
-17.7077 -43.6281 -2.01603
6.82252 -12.5977 -0.635852
-14.3595 -43.772 -1.96254
-53.8438 29.282 -2.48229
18.2241 -13.0927 -0.911044
16.7077 -12.4187 -0.811071
-43.6391 -84.6995 -3.59511
-18.8518 -49.4357 -1.94894
-34.2603 23.5399 -1.51985
42.1306 -10.8555 -1.56716
-35.9999 -71.6102 -2.68209
-26.8378 -58.8149 -2.17712
19.8899 23.0037 -1.00912
-21.7928 20.4218 -0.972764
8.06859 -14.2404 -0.549991
9.39614 -8.97004 -0.421237
11.2599 -9.91263 -0.487824
18.4771 -13.0647 -0.744068
34.4882 -13.0078 -1.22374
21.626 26.1781 -1.08809
-27.6576 -13.8729 -0.969679
-23.279 20.7299 -0.949585
-32.2683 22.8539 -1.23353
-25.9445 -59.6472 -2.01508
-14.1858 -40.131 -1.31142
-22.3292 -56.9585 -1.85291
-17.1531 -46.4884 -1.42009
-34.4839 -20.9084 -1.07396
11.4087 -9.67842 -0.400974
16.2505 -12.0868 -0.534188
-41.9028 25.9223 -1.29875
-30.8396 23.4659 -0.958165
-31.3615 22.984 -0.918633
9.54172 -8.98241 -0.303719
-42.006 14.5183 -0.981646
-32.3767 -54.215 -1.42272
21.1175 -14.1234 -0.558824
30.1815 -18.3011 -0.797231
14.1692 3.91581 -0.29976
26.6437 46.5585 -0.984908
23.3825 -10.8858 -0.454575
46.5492 -10.7187 -0.889089
-31.0375 -22.3046 -0.696869
-30.0486 -29.5137 -0.667947
-19.5769 -48.0366 -0.864439
12.6694 -10.4184 -0.270085
18.4051 -13.2993 -0.347356
-29.5771 -13.1463 -0.424694
-33.3054 -24.925 -0.578747
-34.8077 -70.1696 -1.05845
-28.7787 -61.2502 -0.92816
-34.4146 -23.5033 -0.544012
-30.8605 23.4782 -0.455825
16.9014 -12.6216 -0.250761
29.0262 -17.9977 -0.402435
-31.3153 22.9898 -0.43183
-19.6281 -45.0159 -0.526067
-12.3268 -37.1021 -0.394296
-34.5506 -60.8772 -0.645713
-14.5607 18.4698 -0.180056
-26.9707 -13.5978 -0.243672
-15.2612 18.6031 -0.164077
-22.9246 20.4737 -0.157552
-21.3381 20.0143 -0.132491
-10.6189 -13.6516 -0.0607242
14.6514 7.69673 -0.0198178
11.0696 -9.73378 -0.00790933
-34.9499 -19.1428 0.060983
-11.6138 -34.5163 0.117918
16.8626 -12.2511 0.0902224
-19.3338 -44.3866 0.214404
18.6648 -13.1507 0.121
7.14521 -12.2824 0.10358
25.8174 -10.5923 0.171363
-56.5326 20.186 0.57357
16.1618 -11.9775 0.191848
37.0863 -7.57157 0.356862
-29.3656 -8.28043 0.357243
-36.8071 -22.2161 0.474285
-11.585 -33.1925 0.376434
-13.0174 -36.0715 0.455836
-10.5156 -32.3224 0.40717
6.29854 -12.8742 0.182874
7.18867 -11.0745 0.173506
-28.683 22.5152 0.559281
11.2734 -9.8455 0.224892
-24.5252 20.9733 0.533517
10.8632 -9.69952 0.228447
12.9179 -10.6344 0.263461
36.0529 -7.71576 0.613117
-35.0538 -23.4855 0.767557
-31.8015 22.7381 0.768663
6.11208 -12.7701 0.274648
6.99809 -11.0129 0.251299
8.00506 -9.39336 0.24092
26.493 54.4753 1.31839
7.70874 -9.41893 0.275092
10.0988 -9.14686 0.328613
-29.0999 -9.3312 0.736447
-23.7001 20.6865 0.852104
-28.069 22.1323 0.960401
-29.2293 -8.77657 0.804559
9.16498 -8.87147 0.344477
9.59743 -8.92006 0.357061
-26.0372 21.9444 0.926222
25.2045 -5.09888 0.715803
12.9276 -10.6052 0.497965
14.5768 23.7465 0.860028
6.1598 -12.7073 0.444335
7.42887 -11.5803 0.431679
-28.7457 -8.1072 0.980324
-12.7299 -19.491 0.766787
-28.424 -8.8839 1.02998
15.9932 10.9466 0.700593
-30.1899 -18.7076 1.24152
15.475 26.8813 1.10733
-30.8059 -16.8037 1.30053
23.3879 -4.22325 0.858519
-28.1677 -20.0333 1.28084
-7.31595 -7.9769 0.408595
9.02706 -8.80267 0.468594
12.3173 13.4739 0.704102
25.0809 51.7397 2.1782
23.9697 51.0337 2.12375
-11.6091 -9.1891 0.583945
8.70087 -8.64665 0.485165
-26.118 21.5149 1.37483
21.708 -2.94198 0.887403
-29.1376 -17.6982 1.39672
9.38749 -8.90112 0.530321
12.3352 14.2066 0.809668
6.54668 -12.398 0.595328
14.6649 19.0547 1.05732
20.3984 28.1755 1.52375
-9.55134 -13.8877 0.740798
-10.0512 -15.7196 0.828124
7.57101 -10.9118 0.58507
8.60222 -8.6914 0.552531
24.0271 -3.68071 1.09737
-30.1757 -8.79363 1.43504
6.71818 -11.0445 0.594737
-8.30058 -8.16874 0.548221
20.6759 41.7158 2.22789
-28.8961 -17.8589 1.60581
-9.82615 -13.783 0.805609
9.63186 -8.93663 0.618749
14.9015 41.41 2.13071
-30.5971 -13.5523 1.59748
-6.78156 -8.26772 0.526292
14.1448 32.894 1.82735
-30.0694 -11.7752 1.62088
-7.61319 -7.00058 0.522964
-6.71682 -7.61423 0.513777
15.7755 28.5773 1.69521
10.4454 12.2139 0.868693
14.0229 19.0828 1.27169
9.31777 -8.89944 0.690274
14.6067 19.0052 1.3237
15.0118 23.1856 1.52113
-27.9779 19.6993 1.87671
-6.99321 -8.21853 0.598553
-26.9029 20.6425 1.88652
6.06178 -12.799 0.792359
-7.12993 -9.18859 0.663342
9.8556 12.3102 0.927572
14.6192 24.6314 1.67358
6.42799 -12.9101 0.829975
13.5928 22.1762 1.53655
-8.28731 -8.1461 0.700309
11.4285 11.5073 0.967279
14.4546 19.2247 1.44528
-7.42622 -10.053 0.777364
6.98197 -11.1263 0.800462
11.2167 -9.67499 0.897902
5.84538 -10.7155 0.75741
-7.21345 -6.66746 0.614001
14.2476 20.2111 1.56479
16.0289 7.11504 1.13871
-7.05372 -6.16289 0.614829
6.42763 -13.3725 0.988806
9.20497 20.7923 1.53403
10.307 12.4231 1.10365
13.3529 17.9551 1.5608
12.1823 20.1981 1.63226
11.2329 11.8659 1.14697
6.57686 -9.80831 0.836244
11.3821 11.645 1.17852
9.77545 -6.90049 0.851325
12.236 11.8455 1.25087
9.89026 -8.35216 0.948249
-6.21003 6.73056 0.684313
10.3463 9.11019 1.03564
11.7388 17.5514 1.58882
11.29 17.9871 1.60025
-6.9655 -7.72086 0.806493
10.6685 18.4136 1.63288
9.47875 -8.9242 1.00603
-6.4277 -4.30701 0.610494
9.01836 18.068 1.61372
10.047 -6.87507 0.974705
12.3322 11.4419 1.35997
9.56619 18.5736 1.68232
-7.2927 -9.67316 0.986823
6.69628 -9.35016 0.935803
12.1198 11.5942 1.37437
12.0227 11.8239 1.40035
11.3045 11.8157 1.35385
-5.07517 -11.5834 1.06376
10.1948 12.7549 1.38941
-6.97742 -6.09716 0.798339
-6.83423 -6.71282 0.809372
-5.23623 -11.4843 1.07332
-7.3232 -7.77088 0.919695
9.25481 -7.23269 1.01475
-7.14332 -8.08347 0.9442
-7.03792 -7.71343 0.918471
9.28142 12.3888 1.37246
-6.97483 -8.3995 0.97554
10.724 8.99811 1.27586
10.3376 13.3143 1.52299
10.4338 9.16354 1.27122
7.61011 13.814 1.45066
-6.51794 -8.16061 0.957077
-6.92761 -9.05067 1.0521
11.0903 10.6963 1.42172
11.1539 9.10038 1.34711
10.763 10.6982 1.42258
6.37929 14.7416 1.50932
-11.4933 2.94445 1.11321
-6.37255 -4.17828 0.714186
-6.82213 -6.3091 0.861928
9.31683 13.1394 1.55384
-6.07915 6.60576 0.884729
7.94126 -6.59327 1.00587
7.82872 13.0535 1.51194
-7.0896 -7.64016 1.0502
9.20773 11.5132 1.48698
6.91871 12.2844 1.43082
6.96963 12.84 1.48934
9.45238 9.01538 1.35185
5.77008 13.7551 1.54592
9.03608 12.2897 1.59035
-6.11694 -4.46387 0.794018
5.8703 13.4887 1.54944
6.12953 13.4262 1.55158
-6.98433 -4.43659 0.88532
8.69279 8.94121 1.32948
9.05015 10.0821 1.47346
7.25021 10.8864 1.42145
5.75487 11.3349 1.38201
-6.31504 -7.42905 1.06593
10.198 6.4092 1.33269
8.92103 8.07426 1.32638
7.22838 11.5542 1.50487
6.76669 11.5007 1.47522
5.28683 11.7397 1.43238
4.80116 11.934 1.43901
4.62437 13.4484 1.56432
9.79663 7.00463 1.34476
8.68131 9.22811 1.41576
5.3142 11.3706 1.41329
-6.85807 -6.73983 1.07046
6.79419 10.6047 1.41871
4.24785 12.9579 1.54095
9.72645 -3.18724 1.14117
-6.11445 -5.42318 0.946502
7.27515 -6.10812 1.07825
10.3486 5.67806 1.35383
-7.39765 -0.987963 0.85566
-6.26821 -5.36543 0.950002
5.24155 -5.54974 0.87942
5.00123 11.4712 1.45355
-6.89615 -4.56791 0.958853
4.44702 -7.25121 0.983681
10.3445 5.11738 1.35432
8.81563 7.82428 1.3837
-6.0109 -4.37468 0.866727
-6.4977 -5.28315 0.989606
4.08517 -7.85272 1.05267
4.96109 -5.84368 0.919605
10.1077 4.72626 1.3376
8.45004 8.20522 1.42662
5.20803 11.3459 1.52377
8.98557 6.22476 1.33837
7.94593 8.26942 1.43658
-6.5024 -5.75796 1.08148
3.70177 -7.56324 1.05461
8.61649 6.64365 1.36818
-6.47984 -5.35438 1.06415
9.03231 5.97439 1.38259
8.12472 7.08931 1.37571
8.05347 7.45134 1.40089
5.7692 -5.33824 1.00906
-6.9858 -4.45198 1.06367
8.03808 7.93627 1.4651
-7.37378 -1.04469 0.962726
-6.93626 -2.83177 0.978837
8.92973 4.08008 1.28571
8.34575 6.58412 1.39547
4.99272 -6.02116 1.02809
4.91078 -6.18533 1.04575
6.85912 -4.27576 1.07581
-7.14815 -1.72182 0.986151
-7.02342 -2.22437 0.985409
-6.03479 -4.42928 1.00111
8.08057 6.61381 1.41559
8.56518 4.41652 1.31386
8.58234 5.13766 1.36621
7.97143 7.08746 1.45182
-6.82091 -3.74037 1.05667
8.81647 4.13842 1.33312
8.21485 5.79802 1.3769
-6.40887 -4.33646 1.05922
-5.96663 -4.53208 1.02362
5.30729 8.94342 1.43628
3.59328 9.94026 1.46754
-7.38396 -1.09536 1.03426
-6.91702 -3.93437 1.10474
4.94437 -5.53846 1.02599
5.22307 -5.39289 1.04191
7.45076 -3.53093 1.15298
3.33858 10.0119 1.47846
8.35856 4.57464 1.34787
7.36276 -3.67201 1.16709
7.57363 -3.329 1.17939
7.74751 -3.29956 1.1948
8.90014 2.8024 1.343
4.82946 -5.63034 1.06616
7.34164 -2.84837 1.1464
-6.97132 -3.30626 1.12505
7.90289 -2.77425 1.22109
8.64401 -1.81572 1.29645
4.963 8.49714 1.45237
2.91325 9.31105 1.45101
7.71751 -1.88434 1.17074
7.18831 5.72467 1.36911
3.41157 9.43747 1.48304
3.1432 9.66235 1.50547
-7.38635 -1.04564 1.10665
-7.08813 -2.02697 1.09919
6.90512 6.25076 1.40616
-6.27288 -2.27522 1.00186
-7.25512 -1.37814 1.11531
7.89926 4.79337 1.40762
5.66848 7.30409 1.40271
5.25244 7.5732 1.40255
5.01529 7.94776 1.42069
6.75048 -3.22136 1.13108
7.23487 -3.11978 1.20649
7.62249 -2.75057 1.23479
-7.33289 -0.734565 1.126
-7.11095 -1.95824 1.1389
6.77995 -3.08867 1.1521
3.7502 -5.78712 1.06626
-7.06639 -2.07992 1.15534
-7.36186 -1.09523 1.16925
7.32528 4.75131 1.37895
-7.21308 -1.44641 1.17101
-7.28656 -1.30377 1.18826
-7.11104 -2.02288 1.2028
7.03562 4.74014 1.38475
-7.11478 -1.94918 1.21235
6.97512 4.8411 1.41022
6.58307 4.82852 1.36234
5.17492 6.20538 1.34591
4.63845 7.1187 1.41882
3.78661 7.85901 1.44977
-7.26405 -1.37632 1.23477
2.79439 -5.78087 1.08227
7.10908 4.40819 1.40909
6.47999 5.21127 1.40276
3.87443 -5.3663 1.11583
3.93779 -5.0224 1.08027
-7.28744 -1.25502 1.25501
-6.60893 -2.62947 1.2073
7.38943 2.83738 1.34246
7.00041 3.87478 1.36344
-6.42412 -2.75723 1.1899
6.74525 4.08085 1.35331
5.6791 -3.51754 1.1497
-7.4121 -1.04185 1.29501
-6.36671 -2.28397 1.1634
5.53245 -3.64602 1.142
5.31682 -3.7725 1.14261
3.56616 7.10078 1.39746
-6.81176 -1.7383 1.23518
4.48031 -4.46771 1.11339
-7.10683 -0.916509 1.27711
4.72484 -4.45739 1.14939
4.299 6.44828 1.38271
6.56059 3.4604 1.3394
6.59896 3.66766 1.35618
-6.4522 -1.50307 1.19214
3.61024 -5.32832 1.1707
5.04924 5.58132 1.37794
-6.16418 -2.18648 1.19924
3.41514 -5.16154 1.15087
3.36009 6.7157 1.40459
-1.69619 -5.77707 1.14395
6.42305 2.7227 1.32751
-2.1418 -5.72401 1.17517
6.28772 2.78651 1.32396
-2.78649 -5.37474 1.18666
-3.54909 5.39017 1.39951
4.45301 3.87794 1.34746
4.15269 -2.87981 1.17733
4.6286 -2.18625 1.23675
4.18533 3.28053 1.31705
3.71008 -2.93232 1.22456
4.00755 2.5676 1.32945
-1.44128 -4.11296 1.22069
-2.31932 -3.5772 1.21204
3.85051 2.35847 1.30796
-2.87348 3.54203 1.36862
-2.47914 -2.91489 1.18917
-2.37658 -2.93593 1.19406
1.84643 -2.81671 1.18382
1.86937 -2.79474 1.21382
1.99535 -2.5304 1.19996
-2.04947 2.81636 1.32586
2.80463 -0.555834 1.25919
2.78361 -0.336897 1.24076
-2.08801 -1.61832 1.21285
-2.07589 -1.4506 1.23801
-1.86075 -1.79471 1.28308
-1.99362 -1.13092 1.20459
-1.98518 -1.06992 1.23146
-1.94512 -0.880037 1.2318
-1.92963 -0.708176 1.22221
-1.92852 -0.701287 1.24944
-1.90506 -0.469554 1.22242
-1.87055 -0.345598 1.21971
-1.85533 -0.401045 1.22638
2.37862 -19.7117 -10.0189
-7.62321 -9.0002 0.466469
8.00534 -8.78581 -10.4512
8.25198 -8.61731 -10.4887
8.20371 -8.27859 -9.87201
6.94757 -11.9403 -11.3942
8.50212 -8.9589 -9.72559
7.83883 -8.92439 -9.12238
5.84295 -12.7841 -10.7177
9.40941 -8.81766 -9.72679
6.14001 -14.0792 -11.5636
8.27395 -8.66524 -9.00823
8.00505 -9.15465 -9.09439
7.28112 -9.23223 -8.76053
5.90191 -14.1348 -11.1766
7.70599 -9.29135 -8.7107
7.84331 -9.10277 -8.65584
7.11802 -10.5653 -9.07057
6.80934 -11.0562 -9.20576
10.0305 -9.17219 -9.54645
6.52921 -11.1585 -8.85131
8.02055 -8.61458 -7.83819
7.34861 -9.26598 -7.85947
8.50165 -8.66683 -8.07012
7.70677 -9.45646 -8.01483
6.47607 -12.7538 -9.341
7.91981 -9.16545 -7.90077
4.99799 -16.0289 -10.7996
-0.471051 13.9457 -8.92204
7.71496 -9.22952 -7.71418
7.3217 -10.8442 -8.33164
8.36315 -8.55124 -7.62061
10.8477 -9.59643 -9.18707
8.97313 -8.8031 -7.88396
11.7301 -10.0029 -9.66202
8.05852 -8.52091 -7.21566
4.0397 -16.8423 -10.6156
4.24585 -15.3702 -9.79151
7.83073 -9.34269 -7.30595
3.9511 -15.6282 -9.61286
11.4461 -9.79924 -9.02507
6.85159 -11.0573 -7.72453
7.76019 -8.80627 -6.95347
5.47939 -13.9791 -8.87185
6.47721 -12.6857 -8.33644
8.34776 -8.57998 -6.97645
9.66631 -9.06113 -7.72593
2.78732 -11.7835 -6.94135
5.46684 -13.8697 -8.44202
9.57313 -9.08494 -7.46108
6.60632 -11.0518 -7.25042
3.352 -20.7369 -11.7726
8.86177 -8.92215 -7.04976
12.1514 -10.195 -8.88677
6.81184 -10.9877 -7.20261
4.67562 -14.5916 -8.46877
6.21046 -12.6001 -7.72838
0.897983 18.5458 -10.1057
14.5522 7.68918 -8.94068
4.19732 -14.224 -8.01043
14.662 -11.6025 -10.0797
14.9036 7.40567 -8.86275
13.9473 7.68422 -8.4591
4.7593 -14.8324 -8.27753
12.0437 -10.1173 -8.27809
1.81495 -20.5247 -10.6006
11.3802 -9.8214 -7.70188
2.08243 -20.2452 -10.3276
0.00758241 14.2787 -7.16623
-7.36187 15.3075 -8.51538
10.5638 -9.57313 -7.16388
7.49927 -9.40642 -5.99404
-8.58718 16.2837 -8.90011
11.6026 -9.7444 -7.33422
10.465 -9.55812 -6.80616
14.7184 -11.2842 -8.94633
16.5752 15.7003 -10.8434
7.46549 -11.0347 -6.34823
14.9371 7.38021 -7.8156
13.8714 -10.9844 -8.27041
-12.08 17.301 -9.67102
15.7619 -11.9434 -9.03545
9.75757 -2.44645 -4.62047
-9.13515 -1.66076 -4.2226
18.5551 17.9041 -11.6311
3.90908 -9.08968 -4.49124
-10.3166 16.8565 -8.87817
-5.36616 4.46292 -3.13972
6.84127 -11.2636 -5.93343
9.40554 -9.06529 -5.76183
15.9334 7.26839 -7.72459
-6.69292 15.2062 -7.25944
1.49936 -18.7537 -8.13745
-11.295 17.1885 -8.85866
9.56464 -3.36426 -4.34244
7.00073 -11.0197 -5.51962
15.7478 -11.9046 -8.26447
14.5747 7.70423 -6.91321
18.5791 19.3286 -11.2013
1.02132 -22.6963 -9.45821
-4.56283 13.9656 -6.05578
-9.96409 -1.11446 -4.15556
14.0168 7.73949 -6.53596
20.2296 22.004 -12.1796
-13.132 2.46103 -5.44322
15.0366 7.14412 -6.73123
-5.26458 14.4344 -6.18211
3.63377 -8.79759 -3.78898
13.8798 -10.9595 -6.91211
19.1106 21.3869 -11.1222
18.702 5.76696 -7.58767
1.53593 19.1623 -7.45118
-8.82129 15.8983 -7.0124
11.364 -10.0199 -5.8281
19.0382 22.0707 -11.2238
0.684304 15.3426 -5.87984
-1.66597 12.8117 -4.97142
2.71259 -12.2431 -4.81152
-8.7928 -1.25581 -3.37632
0.704147 -23.7798 -8.97645
15.1061 -11.5766 -7.17849
9.47398 -3.45689 -3.80399
-7.9085 -3.51312 -3.17408
1.09722 -10.4753 -3.87355
7.01153 -11.2105 -4.83603
14.1219 7.88495 -5.83776
-8.31269 -2.85405 -3.16061
0.790374 15.2445 -5.4414
-3.98791 13.4957 -4.98144
5.72493 -10.9637 -4.35322
15.7509 -11.9037 -6.99356
18.9712 5.85922 -6.98425
2.09528 20.4246 -7.19642
21.3531 25.8126 -11.638
-15.0571 18.5885 -8.2142
2.96358 -13.3077 -4.69327
-8.98923 16.2419 -6.34721
18.3584 -13.003 -7.71175
-5.08479 14.6169 -5.26545
1.36454 -22.3568 -7.42199
1.75239 19.4985 -6.46461
1.44853 -10.3245 -3.44564
38.6098 -19.7368 -14.2327
6.15692 -10.0281 -3.76709
17.4582 -12.3272 -6.8461
2.10816 20.5434 -6.56964
-13.511 18.0396 -7.10926
1.45835 -22.8786 -7.14239
-4.34197 14.8729 -4.81761
-11.0789 16.7887 -6.09936
-2.79669 -28.4387 -8.67966
3.06003 -9.4573 -3.02124
0.797989 -24.4722 -7.36279
18.9862 -13.4764 -6.9099
17.5045 5.53768 -5.38625
-7.97568 15.4433 -5.06315
4.21946 -10.4713 -3.28152
3.61226 -10.5447 -3.17288
4.23015 -10.9173 -3.28723
-13.4739 18.0112 -6.25988
-9.39691 16.0661 -5.06649
-13.3051 1.99449 -3.68917
-17.1391 19.6926 -7.0915
26.0475 -17.1477 -8.45163
-4.00157 -28.5227 -7.7225
3.77765 -9.13313 -2.64471
-9.91574 16.4856 -5.12367
46.5801 -13.6006 -12.869
10.4982 -9.36335 -3.72409
-6.52559 15.1134 -4.30364
-14.5929 18.2974 -6.14424
-8.19209 -38.7496 -10.3143
4.94688 -9.54995 -2.78426
6.54042 -10.4678 -3.18484
-7.3005 15.4977 -4.35783
-10.6801 16.6366 -5.05422
-10.1515 -40.2225 -10.314
-9.29345 -40.114 -10.0522
10.902 -9.61047 -3.57412
-8.06391 15.6536 -4.27274
-11.8715 17.2567 -5.07305
14.53 7.67509 -3.89937
4.03927 -9.23601 -2.38614
15.1308 7.49339 -3.97835
3.74027 -8.89345 -2.26826
-6.65696 -33.1589 -7.82989
5.61157 -9.85879 -2.62967
44.142 -10.6822 -10.5571
-12.9694 17.6674 -5.04735
14.7853 7.57194 -3.75738
43.207 -9.3467 -10.0152
-9.91366 16.5153 -4.31403
3.70504 -9.22955 -2.16413
42.384 -10.873 -9.55132
15.042 7.46225 -3.59497
-10.7743 16.8201 -4.28098
-22.3276 -35.1008 -8.93609
4.80758 -9.72423 -2.34069
44.4249 -10.4019 -9.76321
-14.982 18.5629 -5.02095
-32.672 -24.1148 -8.60661
41.1445 -13.7669 -9.18007
14.7679 7.80356 -3.48266
-36.1273 24.4311 -8.9193
-8.58272 -35.1028 -7.31619
3.93693 -11.4634 -2.43706
43.9651 -9.48563 -9.14906
11.7311 -9.71043 -3.05453
42.4051 -10.9163 -8.72683
-27.3834 20.6643 -6.81049
6.12268 -10.248 -2.37722
45.2879 -10.5903 -9.08504
-12.9634 17.6884 -4.24005
-27.268 21.3696 -6.7332
15.9282 12.0481 -3.8162
-6.98307 15.3745 -3.24417
-33.5931 -24.2981 -7.93509
-32.078 -25.1192 -7.82927
-36.3567 24.2265 -8.22805
-34.094 -22.4905 -7.71794
17.9183 5.63339 -3.50532
-34.6171 -20.8869 -7.54994
-15.5094 -44.7135 -8.81485
3.7597 -9.793 -1.97557
-25.5901 -63.7074 -12.766
-17.3056 -46.6199 -9.09415
3.96605 -9.61318 -1.8761
13.0125 -10.168 -2.97869
44.7868 -9.96626 -8.24263
-14.9484 18.5403 -4.25709
-27.4259 21.5105 -6.1547
15.002 7.94121 -2.95577
-30.7373 -26.7853 -7.10571
42.2643 -10.8257 -7.49163
-8.05032 15.5097 -2.96215
-9.91059 18.2535 -3.51091
44.0716 -10.3744 -7.65718
-31.2698 22.7769 -6.51382
-30.6812 -23.6044 -6.46959
-21.1219 20.1961 -4.86308
-32.9277 23.2543 -6.72577
15.8349 -11.8149 -3.23825
-10.482 16.6422 -3.13064
-44.2973 26.0659 -8.15477
-32.0899 -24.1072 -6.42502
-33.9609 -23.4251 -6.49746
3.42511 -9.47309 -1.57566
-24.1369 20.6189 -4.90336
16.8133 -11.8858 -3.19012
-11.3327 16.9616 -3.1006
45.4178 -10.6442 -7.08138
-23.7198 -54.9683 -9.04475
-29.9995 22.4989 -5.60757
-39.1499 24.4108 -6.84846
-32.1201 -24.9328 -6.06587
44.0794 -9.44592 -6.71332
-34.2595 -24.7768 -6.17736
-51.1615 28.5655 -8.42564
-36.0955 -24.0762 -6.24505
6.69693 -12.8519 -2.10502
-7.06633 15.5808 -2.37789
-13.3119 17.9704 -3.11276
-32.7639 23.5885 -5.64348
-25.557 -56.9161 -8.60204
-16.7157 -48.8648 -7.10134
36.2997 -12.0718 -5.24735
-23.5461 20.6913 -4.17137
-32.7584 -24.5324 -5.34281
-31.0959 -25.5101 -5.31736
-34.4162 -23.7026 -5.35256
7.4261 -9.40602 -1.54992
42.3162 -10.8319 -5.60582
-34.1375 23.2298 -5.24997
-30.1304 -16.0778 -4.35306
6.03122 -7.81081 -1.26069
44.2098 -10.391 -5.75862
-31.6609 23.2689 -4.9033
14.4343 -11.2455 -2.24854
-30.5583 23.0157 -4.62813
-33.2184 23.4822 -4.89809
-10.5222 16.7356 -2.285
-31.9645 -22.9893 -4.63202
12.9369 -10.4632 -1.94818
35.4226 -11.7052 -4.31763
6.32374 -10.3125 -1.39079
11.1545 -9.66609 -1.66333
16.3514 -12.1743 -2.2978
-11.2407 16.8553 -2.24411
6.72778 -12.5355 -1.55955
11.5587 -9.65261 -1.66806
42.1578 -10.8104 -4.77908
-39.8476 24.8453 -5.03982
44.2682 -10.3441 -4.89567
14.8417 -11.3967 -1.99131
-13.1613 17.7812 -2.27286
14.689 7.77469 -1.66044
13.9392 -10.9962 -1.774
-14.2278 18.1968 -2.24086
6.37161 -12.2105 -1.32631
9.37813 -8.89552 -1.24961
16.9159 -12.369 -2.04576
-29.202 -13.9542 -3.0487
-15.2219 18.6401 -2.24377
-38.9042 -75.7922 -7.92978
-34.466 -21.567 -3.59987
16.0475 -12.0249 -1.80505
38.0521 -12.6612 -3.59012
11.0733 -9.84327 -1.2247
42.551 -10.8754 -3.66383
-16.7118 -43.4883 -3.74206
-42.1902 -82.4971 -7.21791
17.5059 -12.7564 -1.71124
-30.7698 23.2873 -2.95137
7.42729 -9.14907 -0.9124
-33.5127 23.7225 -3.04977
-17.0853 -42.2661 -3.40714
-38.5488 -72.5393 -5.84219
-37.4963 -75.099 -5.75044
12.5195 -10.4189 -1.09669
16.9691 -12.3593 -1.41963
-40.3164 25.098 -3.10461
42.7978 -10.9571 -2.90068
-28.993 -13.6333 -1.91847
-42.5475 -82.1998 -5.6059
14.4375 -11.2554 -1.10346
30.7734 -20.272 -2.01473
30.7578 -19.3854 -1.9882
15.2568 7.535 -0.882587
14.6988 7.79418 -0.855117
-13.0882 17.8605 -1.12359
-25.6707 -56.6478 -3.19588
-44.6479 -84.1466 -4.65272
9.62689 -9.06661 -0.661667
13.3907 -10.6489 -0.840667
15.8569 10.0874 -0.887495
16.141 11.3134 -0.917332
6.79461 -12.4618 -0.675312
-20.1804 -5.95457 -0.903155
-30.9444 -55.1459 -2.79061
10.1715 -13.732 -0.69887
17.9361 -12.9345 -0.904203
42.0389 -10.7383 -1.72732
-9.44181 -12.488 -0.603945
43.5265 -10.1923 -1.75853
21.8086 26.2184 -1.1624
-33.395 22.8285 -1.40133
-37.0665 -20.7853 -1.38327
-18.8476 -46.9722 -1.62695
16.3865 -12.2252 -0.667458
