ply
format ascii 1.0 
element vertex 1874
comment /media/mkaihara/Seagate Backup Plus Drive/model_iterations/model_10.ply
property float32 x 
property float32 y 
property float32 z 
end_header 
10.6715 5.28311 1.39229
9.21289 8.0147 1.43347
5.36331 -5.78692 0.929669
8.8462 8.14281 1.42475
9.18671 9.34604 1.53136
-6.86837 -5.50717 1.04263
10.3812 4.86107 1.36359
-6.77779 -3.77323 0.935082
9.36453 6.29523 1.36653
5.46173 11.9721 1.59454
-6.76516 -3.00846 0.899795
-6.74729 -3.18982 0.902767
5.04806 -6.15577 0.969
6.17169 -6.33148 1.07395
9.59728 5.7566 1.3814
8.68485 7.4146 1.41001
-6.80085 -4.21767 0.986367
-6.72984 -4.43473 0.993979
8.5092 8.84574 1.52102
5.27427 11.8617 1.61139
-6.38597 -5.47687 1.04801
3.91251 -7.98765 1.10454
8.73996 7.95839 1.47723
6.26026 -5.78548 1.06626
9.39067 6.20913 1.42466
-5.98601 -5.28202 1.00832
8.76168 6.7781 1.41078
8.30478 7.71066 1.43978
-6.9819 -1.75284 0.920613
-6.89167 -2.26578 0.926522
-6.29072 -5.19102 1.04153
9.03285 5.79107 1.37357
8.38801 8.27535 1.51693
-7.14413 -1.23245 0.929376
-6.75326 -4.03246 1.01745
7.59765 6.3601 1.28151
8.28401 7.22018 1.42313
8.19749 8.35837 1.51538
-6.78498 -2.77477 0.954524
-6.78447 -2.91138 0.954686
4.74304 10.5037 1.5141
9.18423 4.19618 1.32706
-7.12569 -1.57894 0.959017
7.00431 -4.36148 1.09434
5.09254 -6.14087 1.05495
-7.21226 -1.09855 0.976284
-6.89326 -2.16124 0.966385
-6.92854 -2.22892 0.972406
-5.86909 -4.30581 0.973477
5.37893 -6.80477 1.15309
7.07513 -4.27536 1.11063
8.28133 7.35481 1.49872
-7.03104 -1.68914 0.972048
-6.96209 -1.92225 0.971389
8.98286 4.95932 1.39166
8.52116 6.00654 1.4156
-6.78418 -3.54735 1.04365
9.04956 4.24725 1.36917
3.52056 11.0658 1.59015
-7.19178 -1.1799 0.997422
-5.88329 -4.34766 1.00683
-5.86241 -4.44304 1.00777
7.31403 -4.0253 1.1452
8.26435 6.64051 1.46445
5.53526 9.35565 1.50435
-6.2485 -4.23085 1.03518
5.08471 -5.69512 1.05791
7.3506 -3.91759 1.15698
7.73338 -3.77081 1.18822
3.78629 10.5047 1.55494
3.60603 10.8512 1.59452
-7.24731 -1.06403 1.02239
-6.95273 -1.96935 1.00702
5.11749 -5.44136 1.04162
7.41197 -3.82258 1.16936
7.53052 -3.75553 1.19126
8.05028 -3.4321 1.24186
-7.03261 -1.84253 1.0339
-6.87777 -2.89089 1.08148
-5.88235 -4.28193 1.04717
8.07466 -2.84171 1.25023
8.4002 4.7148 1.40947
5.15109 8.82429 1.49674
8.54069 4.59926 1.43177
7.98962 -2.38812 1.22708
7.29649 5.80837 1.39493
3.09803 9.89009 1.55012
-6.97199 -1.98463 1.08649
7.64591 -3.17681 1.24594
8.39533 4.63979 1.45213
5.93632 7.63451 1.46733
5.43418 7.83969 1.45252
5.27381 8.17084 1.47626
5.22884 8.28727 1.48217
7.49213 -3.23799 1.24436
7.84174 -2.81419 1.2665
-6.6474 -1.65557 1.0318
7.99093 -2.30252 1.27307
7.3844 5.53823 1.41571
-6.98193 -1.91882 1.1237
-6.79434 -2.73518 1.13869
6.95391 5.64044 1.40288
-7.23362 -1.07742 1.14215
-7.02273 -1.79293 1.13519
-6.92545 -2.03181 1.13096
-6.99967 -1.84041 1.13583
-6.76826 -2.88014 1.15509
4.93975 7.65935 1.44862
3.58037 -6.26417 1.14855
-7.155 -1.27767 1.16424
3.65468 -5.91061 1.11611
3.68917 -5.80686 1.10411
7.21457 4.86312 1.41612
4.78838 7.57865 1.45821
-6.94994 -1.98865 1.17824
-6.97213 -1.91356 1.1865
7.10795 4.92544 1.42856
3.94114 8.1877 1.50417
6.17661 -3.38661 1.17112
6.76622 4.97067 1.39829
4.78578 7.35569 1.46305
3.95592 -5.4643 1.13068
7.24661 4.51256 1.43575
7.61064 2.91022 1.37519
6.4512 5.39295 1.42366
-7.1589 -1.23481 1.23703
6.87911 4.15912 1.3789
-6.33833 -2.72347 1.17747
5.62466 -3.70515 1.15462
5.80817 -3.59075 1.17004
2.85525 8.13809 1.49148
-7.25125 -1.02224 1.26944
5.44742 -3.86354 1.16173
-6.20839 -2.2228 1.14368
-6.16794 -2.37671 1.15765
4.39133 -4.7838 1.13276
4.60397 -4.58594 1.13719
4.70305 -4.55615 1.14608
-6.69082 -1.70432 1.21634
4.43693 6.65667 1.42632
-7.0454 -0.913293 1.26975
-6.04574 -2.22142 1.1475
6.75785 3.75782 1.38447
6.21127 4.4414 1.38353
3.72272 -5.49394 1.20354
5.25581 5.80462 1.43116
2.59836 7.43669 1.48028
6.5925 3.10279 1.37596
-1.64136 -5.56642 1.10137
6.53068 -1.40812 1.26547
6.3723 2.82186 1.34009
6.31304 2.41783 1.34703
-4.39462 3.88837 1.37731
4.38395 3.58245 1.35295
4.26474 3.33415 1.33892
4.72667 -1.69949 1.25905
4.88013 -1.39818 1.26781
-2.11388 4.73278 1.29143
3.78754 -3.00015 1.23951
3.72536 -2.58502 1.20803
3.46072 -3.00774 1.24241
4.04565 2.59596 1.34199
-2.54735 -3.47047 1.22968
-2.28254 -3.50458 1.19521
3.78836 2.07616 1.31199
3.76423 1.99751 1.31121
-2.81847 3.45493 1.37296
-2.26597 -2.38743 1.17258
1.98259 -2.81676 1.22593
-2.11313 2.75239 1.31588
-2.01933 2.74141 1.32245
2.27268 -1.88653 1.23434
2.40051 -1.51004 1.23017
-2.00831 1.86936 1.28948
-2.04502 -1.42936 1.21742
1.4626 -2.08524 1.25281
-1.97609 -1.07871 1.20486
-1.91148 -0.702523 1.21162
-1.91326 -0.698364 1.23708
-1.94397 -0.342057 1.22137
-1.8805 -0.56078 1.22192
-1.88029 -0.527255 1.22706
8.47438 -8.96295 -7.68698
12.6221 -10.7045 -9.15153
-8.2705 14.753 -6.5544
22.1158 26.9445 -12.5401
-8.61661 -2.46756 -2.52668
-21.1679 -53.6937 -12.63
-31.2144 -20.8512 -6.93479
-30.9234 -20.2229 -5.45135
-30.6383 -20.821 -5.50078
-28.5704 -18.3232 -2.55067
-29.0475 -56.0885 -4.09294
9.72276 -9.26085 -0.410838
-6.96865 15.0217 -0.40927
-27.4929 -10.6386 0.681545
-6.67169 -7.97384 0.445048
18.3539 26.3562 1.74057
12.1046 17.0239 1.72515
-6.50389 -6.47804 0.859399
4.48576 13.0171 1.5865
9.01948 9.3951 1.52149
8.17479 -8.97834 -10.6295
8.35022 -8.25347 -10.1622
9.06515 -8.75819 -10.7624
7.12751 -12.2095 -11.7726
7.04231 -11.6123 -11.1433
8.36503 -8.47359 -9.76983
7.18609 -12.2891 -11.5677
7.24683 -11.2375 -10.7041
8.21642 -8.59528 -9.43883
8.31725 -8.32313 -9.29652
6.90061 -11.5569 -10.5327
6.60919 -11.974 -10.4505
7.96882 -9.08388 -9.20447
6.3553 -14.6272 -12.0603
8.53507 -8.94211 -9.34928
6.45952 -12.1887 -10.41
6.29614 -12.3563 -10.3333
7.70909 -9.7108 -9.24918
8.12668 -9.29635 -9.15974
10.8278 -9.76987 -10.838
6.25088 -14.3802 -11.5825
6.2171 -13.8937 -11.1848
6.28139 -12.8584 -10.5177
9.48204 -9.0942 -9.63017
9.57325 -9.34866 -9.7514
6.01009 -12.7878 -10.2565
9.65176 -9.26319 -9.53969
7.06746 -11.444 -9.53694
5.75088 -13.2514 -10.2165
10.0147 -9.3784 -9.71552
7.83029 -9.60701 -8.70627
10.334 -9.49098 -9.84934
11.288 -9.81013 -10.4861
9.74934 -9.36516 -9.36349
11.8625 -10.0512 -10.4338
8.63639 -8.86033 -8.18492
7.66057 -9.578 -8.09604
8.42382 -8.98619 -8.13413
12.6143 -10.8064 -10.8616
7.86599 -9.63555 -8.13024
-8.78365 -1.95687 -5.86722
8.08184 -9.68782 -8.07859
8.57917 -8.79512 -7.84747
0.338638 15.7376 -10.0445
7.76753 -9.6133 -7.85758
11.311 -9.95474 -9.57261
7.47253 -11.0553 -8.43678
8.40989 -8.75732 -7.65033
4.69506 -15.6225 -10.2541
8.97259 -8.9529 -7.83615
9.15756 -8.93994 -7.9019
10.6841 -9.82315 -9.0261
8.17084 -9.30995 -7.63374
4.10322 -18.1716 -11.4712
8.45441 -8.89189 -7.49438
4.12153 -17.3729 -10.8924
0.127494 14.7418 -8.97073
6.87887 -11.6267 -8.21637
7.98555 -9.55104 -7.54691
10.5128 -9.66484 -8.65738
7.0483 -11.6117 -8.14633
8.32439 -9.49897 -7.57455
11.7093 -10.0717 -9.22673
5.5495 -14.2019 -9.03582
7.98661 -9.56026 -7.38068
9.67021 -9.33678 -7.95838
7.13966 -11.4835 -7.99479
8.24461 -9.41997 -7.33861
10.1054 -9.51518 -8.08215
15.3484 7.67124 -9.97264
8.96812 -9.13288 -7.38941
7.16964 -11.3254 -7.69559
2.70264 -11.4268 -6.74766
8.12154 -9.36722 -7.09378
7.65157 -9.10361 -6.74534
9.95803 -9.47177 -7.79993
11.197 -9.84634 -8.4046
0.112602 15.1903 -8.56903
3.26534 -20.36 -11.5971
7.0262 -11.3313 -7.46708
10.4838 -9.63432 -7.96691
12.8857 -10.8089 -9.42394
9.56654 -9.32078 -7.45691
4.74672 -14.6521 -8.57939
8.28745 -9.53706 -7.01016
6.25642 -12.6949 -7.78377
15.2717 7.80951 -9.42412
10.0548 -9.43859 -7.56736
0.812506 17.3734 -9.50016
2.71914 -19.5285 -10.7534
11.5666 -10.0192 -8.3019
4.3758 -14.8567 -8.37543
15.1785 7.93961 -9.23391
15.6422 10.8033 -10.2163
14.4803 7.99039 -8.84424
11.3863 -9.99674 -8.0507
13.8803 -11.2999 -9.5133
3.02125 -19.0462 -10.1397
11.8219 -10.2246 -7.94643
2.15294 -20.0181 -10.1643
10.6798 -9.72043 -7.25516
14.9454 -11.817 -9.55877
14.4885 -11.7159 -9.32016
11.4719 -10.0592 -7.59476
7.78755 -9.67876 -6.14532
3.66333 -8.68882 -4.64168
-8.52013 -1.87056 -4.29009
2.18952 -19.6482 -9.70056
4.65049 -9.52501 -5.1789
0.386394 13.5888 -6.65668
7.88797 -9.60563 -6.05873
-8.07369 15.3887 -8.40702
-8.9968 -2.37831 -4.48536
10.5504 -9.64668 -6.91445
15.7741 -12.1785 -9.56918
20.1851 5.77613 -10.0461
-10.0628 -2.49136 -4.90466
1.89538 -20.1561 -9.62911
18.0806 16.9983 -11.7667
1.98589 -16.6529 -7.91195
7.8986 -11.667 -6.64027
20.8945 5.64044 -10.1975
14.696 -11.6314 -8.70882
2.99465 -17.6037 -8.29843
20.172 5.96907 -9.7241
18.8917 -13.7643 -10.7889
10.091 -2.54881 -4.80873
21.1695 5.36624 -10.0814
18.2242 17.1447 -11.5429
1.78513 -19.6949 -9.05436
10.0372 -9.38208 -6.28589
-9.01311 -1.63582 -4.1788
9.67737 -3.55077 -4.69396
7.00909 -11.804 -6.23604
10.1424 -2.6789 -4.75793
21.0173 20.3331 -13.1936
20.0613 6.11789 -9.44793
18.7075 18.5638 -11.8618
9.58435 -3.15711 -4.54152
16.282 -12.5268 -9.21158
7.35212 -12.0679 -6.31245
7.44624 -11.3568 -6.0459
9.78745 -3.48587 -4.62914
-9.5027 15.56 -8.10853
18.703 -13.647 -10.2806
20.3664 5.86762 -9.39968
16.7009 7.57636 -8.12741
18.8359 19.0337 -11.8571
12.7948 -10.7939 -7.35524
17.3399 -12.8931 -9.51632
-10.5819 16.0805 -8.45102
-6.24465 14.2499 -6.81265
-5.13847 4.81887 -3.06761
21.0148 5.70646 -9.47244
9.78678 -3.48629 -4.4829
19.2915 19.5613 -11.8227
16.696 -12.8456 -9.0576
15.3757 7.68918 -7.34325
3.97633 -9.61801 -4.41571
-10.5336 16.0091 -8.10361
7.24372 -11.3667 -5.67626
-13.1623 3.22582 -5.70841
0.734824 -21.4364 -9.0452
16.6351 -12.5917 -8.71874
-5.05702 5.56733 -3.14454
0.978336 -21.2813 -8.9369
1.2259 -20.2996 -8.52243
14.6428 7.85492 -6.95643
19.6968 20.5354 -11.9039
3.91382 -9.24842 -4.18218
15.2848 8.00001 -7.18759
18.9908 20.2918 -11.5482
-9.30735 -1.06802 -3.8681
4.12632 -8.74029 -3.95538
14.5065 8.01166 -6.80938
7.14699 -11.4634 -5.51564
-13.2096 2.46771 -5.49645
-7.54263 14.5976 -6.66822
20.5589 22.349 -12.3185
15.6069 7.50027 -6.98281
9.99531 -8.92352 -5.41789
-5.03853 13.7333 -5.85739
19.2647 21.5605 -11.343
14.6778 -11.6023 -7.32215
4.12298 -9.50399 -4.05958
1.53346 19.5212 -7.6125
-8.26278 14.9107 -6.61577
19.7865 6.03491 -8.0205
-1.70868 12.8432 -5.01396
5.5097 -9.76407 -4.31755
-2.31354 13.0242 -5.07588
21.0209 24.3281 -12.3453
3.48636 24.6028 -9.466
4.82771 -8.81131 -3.8105
20.2511 5.8102 -8.02217
0.829761 -24.3435 -9.26883
15.7212 -12.113 -7.46298
20.8525 5.64999 -8.09103
9.67109 -3.52341 -3.84776
0.511564 -20.8551 -7.78626
3.4008 -11.2695 -4.39042
21.7181 25.2789 -12.3936
0.905999 -8.58776 -3.20497
14.754 -11.6822 -6.93373
21.297 5.4172 -8.0848
6.66191 -10.5798 -4.57021
18.9594 18.7402 -9.75489
-12.6599 2.2181 -4.67225
22.521 26.9066 -12.744
2.35949 -13.5931 -4.9657
13.6798 -11.0608 -6.32518
0.781156 15.4752 -5.54831
-8.03077 -2.74046 -3.03654
0.401303 -20.2879 -7.26374
-4.01627 13.1502 -4.88327
0.621342 -20.6048 -7.33377
16.7736 -12.6668 -7.44407
-14.6724 16.9579 -7.89444
6.17995 -11.8039 -4.67873
4.85075 -11.7526 -4.51276
-10.3507 15.6126 -6.53433
0.104874 -17.3167 -6.09638
15.012 -11.8949 -6.69194
21.2483 5.59661 -7.67455
0.635213 -21.4793 -7.43015
-9.2369 -1.18512 -3.18286
-4.7472 13.756 -4.97795
3.78502 -8.77367 -3.28388
5.07331 -9.38802 -3.6515
-13.5367 16.8011 -7.37694
2.33686 -11.125 -3.89222
-8.35302 15.1424 -5.88664
3.19222 -14.3809 -5.01421
-13.9772 17.1499 -7.49214
21.0591 5.7262 -7.34032
24.1385 29.8725 -12.8558
40.1261 -22.6489 -15.3888
-5.0183 13.2914 -4.71067
1.93108 21.1617 -7.05906
1.27753 -10.2328 -3.40978
20.4681 -14.8771 -8.39722
35.9621 -22.6054 -13.9597
-4.97245 13.6696 -4.71693
-11.7779 16.1186 -6.46834
19.8136 -14.1182 -7.89468
3.68336 -8.95684 -3.1009
6.50585 -10.5702 -3.97213
12.9332 -10.5399 -5.35535
2.36463 -11.1925 -3.63787
-3.91455 -29.5504 -9.49119
-1.00571 -21.4514 -6.84863
15.648 10.7784 -6.00397
1.98924 20.0127 -6.39098
-12.3483 16.4263 -6.488
-16.6678 17.9746 -7.69801
3.18538 -10.2534 -3.37947
13.9438 -10.9944 -5.58301
7.33079 -11.6757 -4.2559
1.32514 -20.5885 -6.38905
-2.2499 -24.1485 -7.45906
7.63206 35.3879 -11.0648
0.754842 15.0309 -4.57484
-10.4125 15.7051 -5.67207
-2.34683 -23.1934 -7.03554
-13.3708 16.7137 -6.37932
-4.57149 -30.1028 -9.08076
0.780404 -22.6353 -6.78333
-5.06923 13.9226 -4.39966
2.10003 21.1069 -6.25713
-19.6525 18.3219 -7.92002
18.9595 6.03387 -5.86136
-4.06074 13.6089 -4.16868
-7.44466 14.4337 -4.75757
4.46224 -9.57671 -3.09979
4.89275 -12.2396 -3.84749
20.9928 -15.0037 -7.60079
-12.2646 2.16085 -3.57899
-27.8239 -39.4185 -13.8942
5.44064 -14.4964 -4.45005
-14.1489 17.0174 -6.3552
7.36009 -11.7171 -3.97718
2.66741 -9.8985 -2.9084
13.5838 -10.9935 -4.9692
-8.27595 -2.40842 -2.44514
22.9878 29.6609 -10.6496
-8.40095 -2.21404 -2.45603
-2.18386 -22.4218 -6.33785
-12.6521 1.93901 -3.56432
53.1816 -17.1056 -15.5401
4.65759 -12.0079 -3.56769
-8.71157 14.9754 -4.74961
-12.1788 16.2389 -5.56878
-5.06272 13.4954 -3.93246
-7.03773 -34.2532 -9.5847
10.1741 -9.27247 -3.74286
-19.7893 18.4653 -7.26987
-9.10185 15.0872 -4.71547
-24.4758 18.8007 -8.20441
47.6157 -15.6599 -13.2871
11.8912 11.9709 -4.45978
4.60553 -12.0055 -3.39938
52.9581 -15.3948 -14.6074
-6.70591 -31.6969 -8.53341
2.58987 -9.48176 -2.55844
4.31433 -9.12731 -2.65278
11.7156 -10.4193 -4.09795
-13.4287 16.8111 -5.58847
6.86966 -10.9487 -3.34061
-25.4104 -34.7208 -11.1307
3.34999 -10.1471 -2.75697
-25.5038 -37.3562 -11.689
-3.65491 -24.0348 -6.30632
3.75552 -10.9804 -2.986
4.29627 -9.90338 -2.76906
16.5459 -12.4408 -5.27796
-6.67147 14.2049 -3.96532
-26.9536 -35.9482 -11.4014
4.58994 -11.8467 -3.20881
4.46802 -8.08772 -2.34706
6.91588 -11.2763 -3.29354
50.137 -15.1586 -13.0567
-25.7783 19.4479 -7.97747
-10.7461 15.7841 -4.70141
-23.7606 -34.6663 -10.3411
-8.14934 -32.1114 -8.18734
-22.4536 18.8582 -7.2
4.60605 -10.9273 -2.90779
-7.58958 -32.8119 -8.27267
-11.2385 16.094 -4.75368
-7.3379 14.2901 -3.86586
10.7441 -9.69011 -3.46143
44.612 -14.8188 -11.2466
15.6766 7.84096 -4.17808
-5.18143 -29.7418 -7.20733
4.17835 -9.56508 -2.46848
52.7456 -14.117 -12.9576
-24.5341 -36.6489 -10.4598
-9.78533 -36.0627 -8.86778
4.47519 -9.57186 -2.51475
-22.8159 -33.1051 -9.43311
4.18763 -11.9973 -2.98646
5.16739 -9.14862 -2.46735
-11.8888 16.1987 -4.67073
3.43144 -10.1164 -2.45141
44.5066 -10.5635 -10.6112
-6.27002 -29.6098 -7.01863
11.5353 -10.1079 -3.50258
-5.22569 -26.5496 -6.18703
-24.8253 19.1728 -7.10511
-9.39712 -33.8455 -7.9543
45.8324 -10.0235 -10.6466
-27.6842 20.0992 -7.66477
-32.0275 -20.9883 -8.58115
-4.71334 -22.4849 -5.13272
45.0983 -13.9413 -10.5969
5.75434 -9.9908 -2.56971
-12.0621 2.75256 -2.71462
44.9216 -13.1646 -10.3413
47.3015 -13.4965 -10.8207
31.8577 44.8776 -12.0788
-5.00747 13.1271 -3.06573
14.1348 -11.3738 -3.99035
41.8802 -13.4588 -9.66907
-21.4614 18.7041 -6.17015
-21.8118 -53.7883 -12.6107
4.58915 -10.322 -2.44421
13.4274 -11.0708 -3.81052
4.81513 -9.73418 -2.34084
-13.5129 16.8339 -4.60503
-28.0139 20.3483 -7.38803
-28.7529 20.4048 -7.53147
-20.4064 -54.1545 -12.422
-19.6707 -53.8861 -12.2745
-9.93509 15.5214 -3.90248
-6.96953 -29.6183 -6.48318
3.4227 -10.3759 -2.3237
4.25153 -10.5284 -2.41494
51.1211 -11.8528 -11.2018
15.5008 7.76496 -3.68049
-14.0266 17.2648 -4.70471
5.44995 -9.5532 -2.30659
30.5908 44.2768 -11.2692
44.8113 -14.8521 -9.84313
-35.7381 23.4766 -8.95815
-24.9323 -24.3997 -7.24604
15.5569 8.14239 -3.65065
-27.4008 -21.1617 -7.18354
-23.1198 -59.2919 -13.1929
44.713 -12.033 -9.57548
-10.6328 15.6641 -3.8424
-14.4603 17.0954 -4.55379
-31.5607 21.1861 -7.71888
49.3922 -10.7738 -10.3093
-10.66 -34.3129 -7.31543
4.42089 -10.3981 -2.29342
4.57395 -10.4122 -2.31239
12.1843 -10.1284 -3.22125
-11.1353 15.9778 -3.883
-15.301 -43.9277 -9.31029
-7.0968 -27.4786 -5.68951
-6.52899 -26.6926 -5.51954
-10.6613 -33.1343 -6.90223
4.35674 -10.6126 -2.266
-30.8711 -21.1092 -7.37322
-24.4056 19.1541 -6.10167
-30.0002 -21.4595 -7.191
-6.38759 14.108 -3.00067
-20.4247 -48.0006 -10.1443
-30.4567 -20.2758 -7.05141
3.69281 -10.0537 -2.06262
51.232 -11.8704 -10.0985
-11.8155 16.1306 -3.81803
4.26879 -9.99467 -2.06899
-32.9749 -20.0298 -7.3036
-18.5127 -30.075 -6.72167
-12.5288 -36.1598 -7.25205
41.7384 -13.7686 -8.30741
-32.1717 21.6077 -7.24792
-30.5077 -21.0691 -6.96563
-29.5475 -21.618 -6.87334
-16.8622 -41.7826 -8.48857
-13.6231 -37.0135 -7.32625
4.06548 -9.79003 -1.95364
47.2826 -12.7438 -9.09326
6.10156 -10.2906 -2.18875
-19.2961 -43.7591 -8.76568
-16.3478 -40.5859 -7.92336
-13.4533 16.7693 -3.80817
-28.098 -22.6616 -6.41738
-18.2552 -24.3266 -5.4419
-19.7668 -51.6598 -9.82789
-35.0374 22.1092 -7.30512
-24.396 19.1556 -5.39497
-22.7761 -19.8096 -5.26877
-30.642 20.9682 -6.44247
4.21286 -10.8216 -2.0085
5.04675 -9.10701 -1.80606
14.5066 7.79105 -2.84471
14.6012 8.37943 -2.88818
-27.8926 20.2829 -5.90839
14.5156 -11.6511 -3.16375
46.9414 -13.281 -8.30515
46.6109 -12.0721 -8.19665
49.2183 -11.4234 -8.65428
-28.2563 -22.4407 -6.12175
-16.4386 -26.902 -5.3698
-19.3298 18.409 -4.47897
-16.2109 -40.2998 -7.34837
15.4132 7.72576 -2.8962
-28.6654 20.2931 -5.86293
7.05466 -11.7459 -2.29989
17.1835 -12.7957 -3.52956
-18.4598 -44.0187 -7.89584
42.9955 -13.5577 -7.34732
48.5438 -13.0777 -8.17166
-9.58849 15.2209 -2.89932
-16.3849 -40.6537 -6.9987
-31.4845 -21.7337 -6.02841
-20.8896 18.3532 -4.35115
-23.332 -14.6272 -4.34905
-22.104 18.8693 -4.50121
-35.7103 21.6214 -6.46504
-10.3894 15.5486 -2.88354
3.76668 -10.3311 -1.69575
4.20656 -11.1173 -1.83534
-7.01439 14.225 -2.41843
-28.0682 20.4289 -5.30336
-28.7185 -22.1811 -5.51802
-25.2175 -23.5882 -5.2318
-17.4556 -40.5767 -6.73485
46.8629 -12.1832 -7.36047
50.0111 -10.896 -7.79897
-6.03303 13.4345 -2.19951
-25.294 -22.4974 -5.03375
10.1346 -5.31221 -1.69849
-30.2605 -21.8253 -5.55602
-19.8383 -50.1721 -8.00981
9.71662 -9.32469 -2.00255
10.686 -9.60786 -2.14006
50.2317 -11.6208 -7.65772
-32.9882 -21.9597 -5.8318
-28.3833 -23.4116 -5.38228
-10.1711 -33.712 -5.18915
18.0216 -13.0385 -3.2564
-23.1662 19.0736 -4.35805
-36.1092 22.2698 -6.1859
-19.4835 -43.6599 -6.8955
-7.02719 14.0727 -2.24563
-11.7567 16.0291 -2.83135
6.51599 -12.4463 -2.00333
7.41498 -11.5106 -1.94961
-12.3737 16.5383 -2.89855
-31.1447 21.0393 -5.28094
-26.0408 -24.1136 -5.00067
7.23224 -11.8123 -1.93254
41.4458 -13.6782 -6.13838
-28.1476 -22.5545 -5.03383
-29.6532 21.3105 -5.05554
-26.4929 -22.4227 -4.83166
-16.4608 -39.6779 -5.93894
50.4038 -11.2763 -7.12331
-14.7998 2.77037 -2.07253
-6.30573 13.9428 -2.08742
-17.2709 -45.0802 -6.56495
8.15223 -9.86511 -1.71568
9.63335 -9.48356 -1.86321
-12.9316 16.5115 -2.82471
13.9597 -11.1342 -2.41467
-20.3568 18.5172 -3.69798
46.7777 -12.0948 -6.41528
50.0472 -10.9627 -6.78272
-7.32933 14.2768 -2.06834
-20.7382 18.2499 -3.61007
-29.5335 -22.0992 -4.81746
-13.741 16.8264 -2.80659
-30.6371 20.4488 -4.7794
-34.9624 -14.7622 -4.89875
-29.352 -15.7176 -4.27891
7.46355 -11.0992 -1.7136
9.24092 -9.49998 -1.73385
11.1316 9.11496 -1.85205
-30.5987 -21.0864 -4.75476
-28.356 20.7007 -4.43848
-32.2189 -20.1046 -4.75908
-25.6148 -52.3545 -7.28302
46.6102 -12.0545 -6.02589
7.2361 -11.0386 -1.64678
-7.04671 14.0935 -1.94807
-22.8162 19.1587 -3.64601
-30.0171 21.1553 -4.52732
6.82196 -13.0811 -1.79363
49.9778 -10.663 -6.26093
15.5831 8.16467 -2.11961
-14.6859 -35.5721 -4.6446
7.54284 -11.2098 -1.62448
-19.4741 8.63101 -2.52066
-11.468 -34.6965 -4.30193
-35.0859 -14.0102 -4.45398
-28.794 -22.1995 -4.25054
-28.2993 -22.632 -4.23963
46.7456 -12.5221 -5.68883
11.8063 -10.1674 -1.80419
-27.0066 20.478 -3.89719
7.10332 -11.573 -1.55207
7.87464 -9.69466 -1.42733
-19.1501 -46.0305 -5.6175
12.1826 -10.2271 -1.80575
9.72424 -4.74399 -1.22586
15.5556 7.99413 -1.97545
-9.55197 15.2065 -2.02456
-28.9651 21.1651 -4.01669
-14.4199 2.05945 -1.59536
43.0514 -14.1724 -5.08325
9.8087 -9.45891 -1.50668
-10.2247 15.3351 -2.00179
7.39704 -13.9241 -1.70449
50.1813 -10.9066 -5.56893
11.1401 9.15528 -1.55856
17.895 -13.293 -2.39141
46.9727 -12.1831 -5.20111
10.0814 -9.4104 -1.46037
8.7623 -8.85131 -1.30407
-27.9463 -22.3633 -3.72599
-23.4857 -47.1091 -5.49326
-24.7992 -51.5717 -5.84752
15.5512 7.79953 -1.78172
-28.7437 -22.1629 -3.72288
-11.8608 16.169 -2.03463
-11.8102 15.8233 -1.96124
10.7026 -9.52882 -1.40326
-16.2878 -41.3678 -4.36143
6.88577 -13.1862 -1.43683
9.93903 -9.38351 -1.29237
-47.5184 26.4683 -5.25058
17.7372 -12.977 -2.11176
46.873 -12.5958 -4.65388
-23.7418 -47.9927 -5.09111
-16.0826 -42.2083 -4.29236
-21.3249 18.6531 -2.64743
51.0825 -11.3642 -4.88995
10.1847 -9.4202 -1.28379
44.0708 -14.5381 -4.32526
-13.8283 16.9517 -1.98008
-27.5786 -12.5736 -2.76163
-25.0063 -48.7494 -5.05074
16.8715 -12.6283 -1.91642
-26.0919 -47.8013 -4.94551
9.04571 -9.1411 -1.16404
-32.9369 -18.6801 -3.31519
13.6232 -11.2454 -1.53773
50.5957 -11.7275 -4.45127
9.85938 -9.46739 -1.14864
11.5146 -10.1401 -1.28928
-30.6624 21.0579 -3.09413
17.9603 -13.0974 -1.84063
-13.6579 -35.5419 -3.05096
15.5861 -12.1874 -1.5773
-31.4591 -61.478 -5.48395
-9.88246 -27.6686 -2.32048
-26.9457 20.4889 -2.61693
-29.7624 21.0375 -2.81265
-18.0009 -41.1204 -3.46567
8.00899 -9.80054 -1.00956
-44.4808 24.209 -3.83306
-19.5905 18.4383 -1.95654
-29.9267 21.1688 -2.65577
17.4659 -13.0507 -1.59465
46.9179 -12.5556 -3.5404
-29.3246 -55.4864 -4.52722
14.8065 -11.7152 -1.351
-25.7607 -15.9836 -2.08703
-12.6687 -33.6082 -2.47938
8.38226 -15.427 -1.1713
11.3215 -10.111 -1.03988
-21.3381 18.6842 -1.9152
13.6029 -11.2247 -1.18046
19.223 -13.9424 -1.58292
-18.3857 -42.3623 -3.05147
17.0963 -12.9316 -1.41552
-11.9178 -33.0448 -2.27258
49.0896 -12.7674 -3.17277
-24.3797 -49.3983 -3.35931
39.19 -9.50778 -2.47711
47.9615 -10.978 -3.02313
6.71928 -14.5247 -0.954511
34.5372 -22.8536 -2.47747
-9.05063 15.1094 -1.03517
-12.7458 -33.2505 -2.02704
17.7294 -13.2502 -1.24278
-9.1753 -11.8942 -0.823117
15.5525 7.97929 -0.94904
14.7258 -11.6572 -1.00588
-11.7944 15.9841 -1.0378
-13.5191 -33.509 -1.9179
15.443 8.12071 -0.859069
-13.3009 -34.0002 -1.79
-13.0411 16.5304 -1.00728
10.0316 -9.46262 -0.63283
-18.7367 -42.9805 -2.11881
13.1361 -10.7991 -0.788691
-12.7523 -35.549 -1.67507
-14.0351 -34.5801 -1.59572
7.51015 -13.8687 -0.698755
-11.1078 -33.863 -1.51657
-45.5525 24.7739 -2.09997
19.665 -14.1282 -0.983065
17.9467 -13.34 -0.87129
-30.0947 -58.4107 -2.47302
-14.4256 -37.8295 -1.48836
-30.2432 20.7806 -1.34232
47.5066 -12.2411 -1.76927
-25.991 -51.7005 -1.93059
-20.1739 -44.2116 -1.63203
22.1229 25.5875 -1.13091
-19.6353 18.4009 -0.877542
8.95794 -15.8111 -0.609648
9.88295 -9.43501 -0.443472
11.9052 -10.4811 -0.516137
19.9412 -14.1002 -0.803233
38.3361 -14.4594 -1.36153
24.4624 29.6128 -1.24036
-25.5126 -12.7966 -0.892758
-20.9402 18.6481 -0.855321
-28.6141 20.2666 -1.09476
-19.2967 -44.3638 -1.494
-11.2995 -31.969 -1.04194
-9.31389 -28.0403 -0.863178
-16.6597 -42.5002 -1.37818
-13.2514 -35.9148 -1.09353
-30.9782 -18.7824 -0.961905
12.0478 -10.2208 -0.423943
17.4223 -12.9587 -0.573111
-36.3894 22.5123 -1.12871
-27.3159 20.7856 -0.849912
-28.2044 20.0419 -0.885648
-27.8172 20.3874 -0.816046
10.0362 -9.44807 -0.320047
-37.4869 12.957 -0.87629
-18.1885 -29.2472 -0.805424
-25.5484 -42.7829 -1.11687
22.9684 -15.3616 -0.608264
33.8387 -20.5193 -0.894124
14.693 4.06069 -0.313905
-44.0864 15.8947 -0.914877
34.1697 59.7184 -1.27963
25.2364 -11.7492 -0.491846
53.0931 -12.2259 -1.0169
-27.9366 -20.0764 -0.624211
-26.4105 -25.94 -0.58318
-15.2485 -37.4179 -0.668295
13.4383 -11.051 -0.287149
-24.1756 -11.4353 -0.40863
19.8853 -14.3693 -0.375888
-27.2319 -12.1036 -0.389045
-29.6563 -22.1939 -0.511762
-25.2188 -50.8387 -0.758889
-21.5035 -45.767 -0.686578
-30.7278 -20.9853 -0.482255
-27.3348 20.7968 -0.405461
18.1781 -13.5753 -0.270404
32.4389 -20.1141 -0.450396
-27.7898 20.4023 -0.384919
-34.3508 -19.1936 -0.43936
-15.5929 -35.7623 -0.412576
-9.90862 -29.8277 -0.312765
-26.4344 -46.5783 -0.486359
-13.1849 16.7257 -0.165072
-24.9398 -12.5739 -0.223363
-13.822 16.8499 -0.150652
-20.6645 18.4559 -0.144091
-19.27 18.0753 -0.121751
-27.9029 -13.219 -0.100118
-9.96745 -12.814 -0.055707
15.3058 8.04072 -0.0243728
11.6931 -10.2822 -0.00933311
-31.5452 -17.2783 0.0582903
-9.43342 -28.0371 0.100837
18.1064 -13.1551 0.0957581
-15.3953 -35.3453 0.177343
20.152 -14.1987 0.129496
7.80253 -13.4129 0.112093
27.97 -11.4754 0.183791
-48.6173 17.3604 0.492398
17.3198 -12.836 0.204373
41.0809 -8.38737 0.392209
-27.2481 -7.68307 0.333001
-32.8734 -19.8416 0.427591
-9.51702 -27.2684 0.314685
-46.9638 25.7396 0.653878
-10.5908 -29.3494 0.376866
-8.62573 -26.5154 0.339431
6.99982 -14.3083 0.201863
7.73727 -11.9201 0.185551
-25.5607 20.0651 0.495646
11.9175 -10.4082 0.236451
-22.0407 18.8495 0.476654
11.4725 -10.2437 0.239973
13.7194 -11.2944 0.278498
39.8239 -8.52282 0.674154
-31.2803 -20.9571 0.689241
-28.237 20.1904 0.679735
6.79917 -14.2062 0.303797
7.53584 -11.8596 0.269204
8.45847 -9.92561 0.253228
8.35527 -8.67449 0.286535
36.9091 75.9009 1.82288
8.15139 -9.95994 0.289489
10.6322 -9.63014 0.344523
-26.9914 -8.6549 0.684846
-21.3392 18.6266 0.764015
-25.0592 19.7599 0.854261
-27.1207 -8.14322 0.74821
9.63493 -9.32647 0.360654
10.0923 -9.38013 0.373966
-23.291 19.6307 0.825277
26.9876 -5.45974 0.763737
13.7281 -11.262 0.527198
16.4227 26.7548 0.963377
-31.1466 22.0855 1.14611
6.83895 -14.1088 0.491021
8.02625 -12.5119 0.464584
-26.7195 -7.53553 0.912822
-11.6191 -17.7904 0.703382
-26.413 -8.25512 0.958844
16.9033 11.5695 0.736652
-27.465 -17.0191 1.13312
17.7616 30.8558 1.26517
-28.1025 -15.3287 1.18976
24.8988 -4.49615 0.911253
-25.605 -18.2107 1.16822
-7.04649 -7.68303 0.394259
9.48551 -9.24976 0.490729
13.0964 14.3262 0.744853
34.3184 70.8023 2.97009
33.0678 70.4068 2.91957
-11.1054 -8.79026 0.559719
9.13609 -9.07919 0.507725
-23.4103 19.2852 1.22863
22.9724 -3.11327 0.936357
-26.6124 -16.1644 1.27922
9.86925 -9.35796 0.555796
13.1677 15.1654 0.860558
7.19207 -13.6202 0.651449
16.049 20.8532 1.15269
23.4078 32.3333 1.7426
-8.95059 -13.0147 0.696607
-9.32747 -14.5882 0.771432
8.1089 -11.6868 0.624578
9.03692 -9.1307 0.578629
25.6084 -3.92307 1.1667
-27.9531 -8.14582 1.33122
7.24737 -11.9145 0.639259
-7.98746 -7.86049 0.528423
26.369 53.2059 2.83434
-26.3902 -16.3101 1.47025
-9.21846 -12.9311 0.758232
10.1273 -9.39633 0.648724
19.9588 55.4694 2.84805
-28.1313 -12.4602 1.47161
-6.5221 -7.95143 0.507091
17.3534 40.3565 2.23693
-27.7483 -10.8662 1.49827
-7.36385 -6.77127 0.506424
-6.48078 -7.34671 0.496484
18.4005 33.3329 1.97236
22.5806 32.0524 2.08218
11.0396 12.9089 0.914944
15.3549 20.8957 1.38847
9.79639 -9.35659 0.723755
15.9786 20.7904 1.44401
16.8535 26.0303 1.70343
-25.2285 17.764 1.68858
-6.72791 -7.90673 0.576843
-24.1983 18.5679 1.69287
6.72756 -14.2038 0.875875
-6.8281 -8.79975 0.636577
10.4252 13.0217 0.978165
16.5966 27.9637 1.89581
7.10756 -14.274 0.91429
15.2061 24.8085 1.71504
-7.97551 -7.83949 0.674987
12.0352 12.1186 1.01552
15.835 21.061 1.57947
-7.08021 -9.58461 0.742822
7.51728 -11.9789 0.859085
11.8428 -10.215 0.945872
6.32294 -11.5906 0.816263
-6.98821 -6.45927 0.595427
15.6916 22.2604 1.71967
16.7807 7.44883 1.18899
-6.84631 -5.98158 0.59723
7.13511 -14.8422 1.09358
10.3932 23.4765 1.7295
10.9005 13.1389 1.16433
14.5346 19.5443 1.69561
13.4823 22.3541 1.8033
11.8532 12.5212 1.2074
7.00548 -10.4474 0.887973
12.0035 12.2807 1.23999
10.1695 -7.17847 0.88355
12.9199 12.5075 1.31784
10.3671 -8.75488 0.991704
-6.00158 6.50474 0.658512
10.7854 9.49693 1.07693
12.7748 19.1008 1.72615
12.3363 19.6544 1.74576
-6.71601 -7.44419 0.778712
11.7149 20.22 1.79045
9.96571 -9.3826 1.05531
11.0291 14.8052 1.44479
-6.2821 -4.20931 0.596669
9.94283 19.9206 1.77707
10.4565 -7.15515 1.01222
12.9973 12.0591 1.43048
9.82649 10.8532 1.14181
10.5627 20.5089 1.85542
-6.96802 -9.24267 0.944746
7.0908 -9.90048 0.988091
12.7796 12.2255 1.44641
12.6856 12.4761 1.4748
11.9263 12.4658 1.42564
-4.7585 -10.862 1.00055
10.8067 13.5207 1.47034
-6.77444 -5.91968 0.77574
-6.62255 -6.50505 0.785113
-4.92084 -10.7942 1.01175
-7.06253 -7.49434 0.888159
9.64051 -7.53397 1.05472
-6.87903 -7.78448 0.910606
-6.78942 -7.4412 0.887249
9.82312 13.1122 1.45029
-6.70639 -8.07637 0.939487
11.1816 9.38214 1.32783
10.9927 14.1581 1.61715
10.8798 9.55542 1.32312
8.16423 14.82 1.55458
-6.27184 -7.85259 0.9224
-6.63876 -8.67347 1.01003
11.643 11.2294 1.49007
11.6401 9.49714 1.40335
11.299 11.231 1.491
6.93895 16.0354 1.64066
-11.1503 2.85676 1.0784
-6.23103 -4.08533 0.698361
-6.62272 -6.12489 0.837474
9.90588 13.9703 1.65004
-5.88151 6.39091 0.852822
8.23816 -6.8395 1.04111
8.3451 13.9148 1.61003
-6.84106 -7.37238 1.01471
9.70241 12.1318 1.56483
7.35357 13.0568 1.51931
7.43924 13.7054 1.58834
9.84542 9.39028 1.40589
6.24504 14.8879 1.67253
9.56659 13.0112 1.68186
-5.97781 -4.3622 0.776142
6.33396 14.5546 1.67112
6.59794 14.4528 1.6693
-6.81889 -4.33137 0.864549
9.04551 9.30417 1.38139
9.46911 10.5489 1.53969
7.63032 11.4571 1.49441
6.101 12.017 1.4641
-6.09934 -7.17549 1.0309
10.5394 6.62377 1.37505
9.25289 8.37468 1.37365
7.63839 12.2098 1.58882
7.15789 12.1657 1.55921
5.63715 12.5181 1.52662
5.14344 12.7856 1.54127
5.03927 14.6561 1.70486
10.1348 7.24645 1.38899
9.04719 9.61708 1.47349
5.64819 12.0855 1.50136
-6.64442 -6.52995 1.03819
7.14355 11.15 1.49026
4.61946 14.0934 1.67625
9.99879 -3.27625 1.1709
-5.95486 -5.28149 0.922415
7.52342 -6.3161 1.11257
10.6771 5.85837 1.39456
-7.2601 -0.969426 0.838939
-6.10677 -5.22722 0.926112
5.40609 -5.7235 0.904554
5.32952 12.2246 1.5485
-6.73132 -4.45862 0.936223
4.65875 -7.59508 1.02714
10.6606 5.27381 1.39348
9.13482 8.1076 1.43182
-5.87726 -4.27733 0.847667
-6.33131 -5.14784 0.964827
4.32133 -8.30486 1.10944
5.12915 -6.0411 0.948086
10.4029 4.86436 1.37446
8.76568 8.5118 1.47804
5.53678 12.0626 1.61951
9.26242 6.41662 1.37757
8.24339 8.57903 1.48863
-6.32586 -5.6017 1.05291
3.90792 -7.9815 1.10907
8.88841 6.85339 1.40941
-6.31194 -5.21558 1.03723
9.30505 6.15484 1.42233
8.3899 7.32074 1.41878
8.327 7.70448 1.44667
5.94259 -5.49837 1.03686
-6.82068 -4.34666 1.03884
8.32783 8.22237 1.51619
-7.23694 -1.02513 0.944069
-6.79835 -2.7753 0.959128
9.15682 4.18391 1.31636
8.60541 6.789 1.43702
5.165 -6.22808 1.0607
5.08751 -6.40704 1.08041
7.03515 -4.38522 1.10112
-7.01479 -1.68953 0.967163
-6.8897 -2.18185 0.96621
-5.89971 -4.33006 0.979027
8.33022 6.81816 1.45753
8.7826 4.52868 1.34523
8.81537 5.2772 1.40136
8.23048 7.31783 1.49727
-6.67381 -3.65958 1.03396
9.03982 4.24332 1.36489
8.44781 5.96249 1.41408
7.84545 5.9718 1.3421
-6.2643 -4.23854 1.03563
-5.83156 -4.42941 1.00083
5.53822 9.33271 1.49797
3.81213 10.5469 1.5575
-7.24662 -1.07482 1.01425
-6.7633 -3.8468 1.08036
5.0988 -5.71074 1.05527
5.37916 -5.55338 1.07037
7.63075 -3.61601 1.17857
3.55342 10.6577 1.57449
8.57061 4.69072 1.38014
7.54215 -3.76122 1.19324
7.7533 -3.40772 1.20511
7.93319 -3.37837 1.22117
9.1082 2.868 1.37236
4.98353 -5.80915 1.09729
7.50361 -2.91101 1.1695
-6.826 -3.23718 1.10157
8.08528 -2.83806 1.24705
8.84379 -1.85753 1.3242
5.16783 8.84802 1.51168
3.08931 9.87599 1.53994
7.87847 -1.92343 1.19302
7.38018 5.87748 1.404
3.60827 9.98268 1.56925
3.33894 10.2659 1.60038
-7.24928 -1.02606 1.08533
-6.95431 -1.98853 1.07797
7.10068 6.42778 1.44445
-6.16271 -2.2351 0.983848
-7.12077 -1.35245 1.09397
8.09668 4.91322 1.44099
5.85446 7.54377 1.44763
5.43463 7.83598 1.45027
5.20291 8.24523 1.47308
6.89636 -3.29062 1.1533
7.39809 -3.18994 1.23144
7.79338 -2.81202 1.26024
-7.19913 -0.720994 1.10457
-6.97704 -1.9212 1.11696
6.92555 -3.15474 1.1746
3.88062 -5.98646 1.09991
-6.93288 -2.04045 1.13307
-7.22553 -1.07478 1.14684
7.49994 4.86465 1.41012
-7.07994 -1.41955 1.14874
-7.1517 -1.27947 1.16557
-6.97662 -1.98447 1.17961
7.19977 4.85078 1.41541
-6.98095 -1.91234 1.18907
7.13961 4.95528 1.44186
6.73347 4.93889 1.3919
5.31489 6.37337 1.38124
4.79058 7.3523 1.4647
3.94014 8.1781 1.50859
-7.12959 -1.35067 1.21125
2.90621 -6.00875 1.1212
7.26955 4.50773 1.43924
6.63574 5.33653 1.43499
3.99512 -5.53203 1.14728
4.04888 -5.16281 1.10766
-7.15296 -1.23169 1.23114
-6.48445 -2.57977 1.18433
7.53626 2.89385 1.36731
7.14777 3.95639 1.39044
-6.30405 -2.70555 1.16747
6.88725 4.16681 1.38015
5.79745 -3.59044 1.17129
-7.27449 -1.02233 1.27019
-6.25381 -2.24331 1.1424
5.64928 -3.7226 1.16372
5.43019 -3.85245 1.16452
3.69246 7.3527 1.44694
-6.68999 -1.70706 1.21255
4.58903 -4.57534 1.13765
-6.98046 -0.900038 1.25357
4.83875 -4.5641 1.17437
4.42437 6.63648 1.42243
6.68679 3.52702 1.36351
6.7294 3.74021 1.38134
-6.34363 -1.47761 1.17143
3.72241 -5.49203 1.20351
5.17164 5.71667 1.41029
-6.05835 -2.14877 1.17826
3.51695 -5.31332 1.18161
3.47151 6.9389 1.45127
-1.6326 -5.56462 1.10443
6.53547 2.77043 1.34905
-2.07067 -5.53658 1.13886
6.39669 2.83487 1.34524
-2.70808 -5.22448 1.15516
-3.46294 5.25708 1.36071
4.52815 3.94341 1.36913
4.21869 -2.92494 1.19358
4.69555 -2.21746 1.25236
4.24613 3.32823 1.33509
3.76771 -2.9771 1.24094
4.05654 2.59903 1.34454
-1.40754 -4.02018 1.19486
-2.27787 -3.51383 1.19151
3.89444 2.38543 1.3217
-2.83585 3.49366 1.34659
-2.44308 -2.87256 1.17241
-2.34255 -2.8942 1.17757
1.86915 -2.84838 1.19482
1.89176 -2.82524 1.22479
2.01687 -2.55545 1.20969
-2.03296 2.79091 1.31091
2.82319 -0.559148 1.26565
2.80126 -0.338727 1.24684
-2.06911 -1.60348 1.20166
-2.05833 -1.43812 1.22721
-1.84299 -1.77748 1.27094
-1.97889 -1.12231 1.1951
-1.97088 -1.06197 1.22196
-1.93222 -0.873943 1.22284
-1.91769 -0.703545 1.21371
-1.91663 -0.696712 1.2408
-1.89435 -0.46669 1.21439
-1.8606 -0.343561 1.21196
-1.84533 -0.39867 1.21856
2.36013 -19.3625 -9.84493
-7.30613 -8.62567 0.448084
8.22309 -9.01668 -10.7214
8.46075 -8.82694 -10.7407
8.41451 -8.48389 -10.1137
7.13219 -12.2366 -11.6722
8.75219 -9.21477 -9.999
8.05649 -9.16356 -9.3629
5.98627 -13.0675 -10.9509
9.70759 -9.0909 -10.0238
6.28687 -14.3799 -11.8067
8.51856 -8.91444 -9.26295
8.24378 -9.4193 -9.35268
7.49337 -9.49185 -9.00204
6.05402 -14.4619 -11.4307
7.94157 -9.56665 -8.96386
8.07848 -9.36738 -8.90289
7.32449 -10.8572 -9.31666
7.01334 -11.3707 -9.46251
10.3933 -9.49871 -9.8808
6.72833 -11.4811 -9.10191
8.26564 -8.8711 -8.06736
7.58315 -9.55314 -8.09787
8.76933 -8.93343 -8.31411
7.96524 -9.76544 -8.27122
6.68298 -13.1365 -9.61565
8.17793 -9.45664 -8.14683
5.08247 -16.2384 -10.939
-0.483673 13.7911 -8.82406
7.96441 -9.51992 -7.95205
7.57656 -11.2086 -8.60575
8.63728 -8.826 -7.86081
11.2735 -9.96813 -9.53754
9.26864 -9.08702 -8.1341
12.2404 -10.4339 -10.0719
8.3317 -8.80463 -7.45083
4.07859 -16.9189 -10.6637
4.3206 -15.575 -9.91969
0.0928128 14.1123 -8.57368
8.10286 -9.66001 -7.54885
3.99695 -15.7347 -9.67779
11.9387 -10.2169 -9.40367
7.09638 -11.4377 -7.98435
7.99987 -9.07081 -7.15853
5.63933 -14.3487 -9.10161
6.69617 -13.0905 -8.59699
8.62529 -8.85967 -7.1996
10.0311 -9.39852 -8.00852
2.86005 -12.0354 -7.08513
5.68634 -14.3923 -8.75248
9.94499 -9.43362 -7.74207
6.84044 -11.428 -7.49163
3.31519 -20.3521 -11.5589
9.1798 -9.23712 -7.29399
12.7066 -10.6568 -9.28334
7.05353 -11.3628 -7.44313
4.81708 -14.9828 -8.69074
6.43913 -13.0404 -7.99234
0.877135 18.5958 -10.1383
15.1025 7.98235 -9.28781
4.32488 -14.6031 -8.21872
15.457 -12.2277 -10.6159
15.4801 7.69417 -9.21423
14.4638 7.97106 -8.7813
4.88518 -15.1723 -8.46334
12.5838 -10.5668 -8.64057
1.79809 -20.0612 -10.3655
11.8838 -10.2522 -8.03436
2.06644 -19.8559 -10.1327
14.6483 -11.6243 -9.45124
-0.0107447 14.1506 -7.10364
-6.94149 14.411 -8.00795
11.0174 -9.98049 -7.4634
7.79839 -9.77561 -6.22353
18.3401 5.70797 -9.37448
-8.06432 15.2716 -8.33828
12.149 -10.2008 -7.67189
10.9152 -9.96561 -7.09124
15.5307 -11.9039 -9.43124
17.5118 16.596 -11.4736
7.80721 -11.5302 -6.62637
15.5316 7.67553 -8.13462
14.5823 -11.5434 -8.68594
-11.219 16.0564 -8.96578
16.6778 -12.6338 -9.5516
10.0035 -2.50812 -4.73697
-8.91363 -1.62033 -4.12113
19.8464 19.1577 -12.4597
4.05193 -9.40527 -4.64178
-9.61935 15.7024 -8.26134
-5.24906 4.36473 -3.06894
7.16572 -11.7864 -6.20175
9.78621 -9.42838 -5.98823
16.6047 7.57597 -8.05761
-6.28618 14.259 -6.79862
1.5068 -18.5682 -8.058
-10.4872 15.947 -8.20962
9.81707 -3.45295 -4.45648
-9.16423 -1.71088 -4.00369
7.33382 -11.5341 -5.77067
16.656 -12.5874 -8.7331
15.1507 8.01054 -7.19418
19.9171 20.7305 -12.028
0.998556 -21.63 -9.02112
-4.34806 13.2704 -5.74846
-9.70661 -1.08549 -4.0488
14.5607 8.04152 -6.79724
21.9846 23.9226 -13.2589
-12.6767 2.37585 -5.25349
15.648 7.43577 -7.0121
-4.96617 13.5862 -5.81137
3.7834 -9.14473 -3.93292
12.9409 -10.7213 -6.57845
14.6569 -11.571 -7.29217
20.5934 23.059 -12.0066
19.5864 6.04045 -7.95256
1.5378 19.4748 -7.58019
-8.21121 14.7851 -6.51288
11.9021 -10.4911 -6.09773
20.6047 23.8992 -12.1697
0.66673 15.3789 -5.89805
-1.61971 12.3412 -4.78521
2.76301 -12.4057 -4.87382
-8.59118 -1.2269 -3.29971
3.43276 24.1725 -9.26754
0.681978 -22.1831 -8.38339
16.0246 -12.2788 -7.60791
9.7268 -3.54908 -3.90511
-13.6153 16.7782 -8.04659
-7.72225 -3.43042 -3.10094
1.09161 -10.3021 -3.81244
7.36451 -11.765 -5.06916
14.686 8.20144 -6.07825
-8.11857 -2.78735 -3.08813
0.77471 15.3082 -5.46868
-3.74682 12.6449 -4.65965
6.01467 -11.5058 -4.5623
16.7384 -12.6481 -7.42529
19.8902 6.14372 -7.32847
2.18262 21.4925 -7.58688
23.6127 28.5555 -12.8943
-9.14409 -1.32466 -3.15779
-13.8093 17.0418 -7.52245
3.089 -13.8055 -4.86359
-8.3114 15.0057 -5.85559
19.6816 -13.939 -8.26043
-4.76069 13.6558 -4.9118
14.6313 -11.7884 -6.30034
1.30017 -20.898 -6.94614
1.76816 19.9316 -6.61627
1.46021 -10.319 -3.44428
43.7682 -22.3723 -16.1239
-3.06185 -22.6803 -7.39086
6.44631 -10.4911 -3.93618
18.6575 -13.173 -7.31023
2.13273 21.0198 -6.73014
-12.4052 16.5568 -6.5172
1.36411 -21.0108 -6.56942
-4.05518 13.8515 -4.47954
-10.193 15.4399 -5.60161
-2.37136 -24.2898 -7.43017
3.20638 -9.88611 -3.15314
0.745497 -22.1088 -6.66304
19.073 11.0247 -6.52159
20.4482 -14.5136 -7.43558
18.2935 5.78783 -5.63429
-7.37043 14.2605 -4.66798
4.45055 -11.0276 -3.45011
3.82684 -11.1491 -3.34845
4.49211 -11.5756 -3.47893
-12.3232 16.4686 -5.7165
-8.63603 14.7587 -4.64687
-12.8504 1.92649 -3.56284
-15.5819 17.8997 -6.43885
28.6621 -18.8673 -9.29236
-3.2808 -23.4591 -6.36973
3.97674 -9.60203 -2.77555
-9.11391 15.1455 -4.70024
33.3094 -15.8295 -9.83897
53.0949 -15.5024 -14.6651
11.0195 -9.82734 -3.90522
-5.99006 13.8602 -3.93909
-13.34 16.7226 -5.60886
-6.60341 -31.2954 -8.34742
5.22643 -10.0829 -2.93447
6.90352 -11.0429 -3.35497
-6.68052 14.1722 -3.9774
-9.80658 15.2704 -4.63258
-8.07494 -32.0297 -8.23035
50.4863 -12.7936 -12.9186
-7.28157 -31.4643 -7.90312
11.4709 -10.1114 -3.75703
-7.40275 14.3617 -3.91345
-10.8628 15.7863 -4.63447
15.1469 8.00164 -4.07084
-24.9371 -37.4938 -10.758
4.26635 -9.74521 -2.51304
15.7692 7.81074 -4.15201
3.95822 -9.40247 -2.39323
-5.48037 -27.353 -6.4728
5.93137 -10.4151 -2.77351
49.8479 -12.0632 -11.9201
-11.8513 16.141 -4.60537
15.4137 7.8946 -3.92285
48.5953 -10.5127 -11.2634
-9.07105 15.1066 -3.93999
-26.1423 -64.2466 -15.0845
3.96387 -9.86657 -2.30786
47.6909 -12.2348 -10.7458
15.6878 7.78337 -3.7549
-9.84582 15.3669 -3.90537
-19.1026 -30.0333 -7.65272
-19.5915 -54.1406 -12.4942
-14.8586 -46.452 -10.5212
5.117 -10.3446 -2.485
9.86692 -9.32764 -2.86088
50.2075 -11.7562 -11.033
-13.6318 16.8881 -4.56257
-29.1541 -21.5183 -7.68179
46.3456 -15.5068 -10.3377
15.4063 8.14165 -3.63893
-31.7237 21.453 -7.82634
-6.84818 -28.0278 -5.85535
4.26179 -12.391 -2.6278
49.5765 -10.6967 -10.3163
7.88258 -8.97407 -2.35009
12.3724 -10.2413 -3.2188
47.7344 -12.2886 -9.82247
-24.6018 18.5648 -6.114
-31.3669 -19.8461 -7.33921
6.52202 -10.9139 -2.52707
51.3291 -12.0034 -10.2962
-11.8089 16.1114 -3.85705
-24.4348 19.1489 -6.02884
-17.5511 -41.3552 -8.69458
16.8264 12.729 -4.03921
-6.34325 13.9588 -2.93929
-29.9239 -21.6441 -7.06964
-28.5555 -22.3608 -6.97114
-31.941 21.284 -7.2236
-30.4943 -20.1158 -6.90395
18.7645 5.89972 -3.67549
-31.0597 -18.7403 -6.77466
-12.1482 -35.0323 -6.9179
4.05657 -10.558 -2.12431
-18.7636 -46.7221 -9.3752
-13.5591 -36.5364 -7.13795
4.25253 -10.3001 -2.00543
13.7512 -10.7448 -3.14538
50.661 -11.2738 -9.32352
-13.5729 16.8335 -3.8607
-24.5496 19.2544 -5.50505
15.6615 8.29119 -3.09117
-27.2648 -23.7595 -6.30445
-16.5069 17.8055 -4.17702
47.5774 -12.1871 -8.43287
-7.33245 14.1227 -2.69241
-8.90436 16.396 -3.14812
49.8018 -11.7237 -8.65257
-27.7862 20.239 -5.78406
-27.4821 -21.1432 -5.79587
-17.8249 -30.1041 -5.87887
-19.0588 18.2235 -4.38425
-29.1419 20.5806 -5.94839
16.8997 -12.6089 -3.4534
-9.54905 15.159 -2.84757
-38.3133 22.5447 -7.04879
-28.6535 -21.5255 -5.73756
-30.3104 -20.9069 -5.79929
3.71141 -10.2571 -1.7013
-21.7298 18.5625 -4.41106
-13.0158 -14.605 -3.02474
17.9981 -12.7237 -3.41257
-10.3225 15.4482 -2.82027
51.5424 -12.08 -8.03638
-25.2594 -22.4921 -5.08205
-18.0865 -41.9176 -6.90513
-26.6867 20.0146 -4.98498
-34.2592 21.3614 -5.98928
-28.6087 -22.207 -5.4031
49.7542 -10.6623 -7.57812
-30.4542 -22.0246 -5.49127
-43.5173 24.2976 -7.16246
-32.0738 -21.3934 -5.54899
7.3255 -14.0552 -2.29685
-32.8487 -19.0916 -5.37624
-6.34797 13.9941 -2.13101
-12.0855 16.3143 -2.82271
-28.9636 20.8526 -4.98571
-24.8072 -21.274 -4.50635
-19.4059 -43.2207 -6.53846
-12.7465 -37.2682 -5.42385
40.3627 -13.4232 -5.83402
-21.1879 18.6192 -3.75103
-29.1941 -21.8629 -4.76122
-27.6782 -22.7062 -4.73296
-30.68 -21.1292 -4.77095
7.84102 -9.93117 -1.63451
47.675 -12.2041 -6.31604
-30.1584 20.5225 -4.63538
-27.5348 -14.6926 -3.97755
6.31754 -8.18161 -1.31913
50.0162 -11.7561 -6.51553
-28.0453 20.6119 -4.34078
18.8195 -13.6517 -2.90291
15.3726 -11.9766 -2.39309
-14.739 16.8614 -2.67664
-27.105 20.4153 -4.10273
-29.3528 20.75 -4.32569
-9.54416 15.1799 -2.06996
-28.6382 -20.5967 -4.14938
-18.0302 -43.4092 -5.47219
13.7108 -11.0892 -2.06339
39.2966 -12.9855 -4.78966
6.76968 -11.0392 -1.48622
11.7672 -10.1971 -1.75357
17.5205 -13.0449 -2.4605
-10.2163 15.3192 -2.03733
7.34765 -13.6886 -1.69934
12.1994 -10.1879 -1.75949
47.4855 -12.177 -5.3837
-34.7843 21.6888 -4.39726
50.1014 -11.7076 -5.54176
15.8249 -12.1518 -2.12194
-11.9425 16.1349 -2.06059
15.3332 8.11615 -1.73788
-15.8788 -40.269 -4.38758
14.829 -11.6984 -1.88614
-12.9091 16.5105 -2.03167
6.97672 -13.3694 -1.44894
9.85295 -9.346 -1.31214
18.1525 -13.2734 -2.19406
-26.8554 -12.8327 -2.80276
-13.7891 16.8859 -2.03125
-27.8184 -54.1973 -5.67125
-30.9005 -19.3356 -3.22594
17.1837 -12.8764 -1.9318
42.5757 -14.1665 -4.01718
11.6968 -10.3976 -1.29303
48.0026 -12.2691 -4.13443
-13.2089 -34.3755 -2.95929
-29.3709 -57.432 -5.02388
18.841 -13.7296 -1.84084
-27.2675 20.6374 -2.6147
7.84499 -9.66413 -0.962937
-29.5756 20.9363 -2.69077
-13.6369 -33.7365 -2.72023
-19.2249 -43.9783 -3.46877
-27.9878 -52.6673 -4.23991
-26.7298 -53.5363 -4.09754
13.2742 -11.0472 -1.16243
18.2137 -13.2659 -1.52319
-35.1523 21.884 -2.70634
48.3348 -12.3751 -3.27751
-26.6946 -12.5523 -1.76501
-29.733 -57.4446 -3.91434
15.3882 -11.9967 -1.17583
34.7833 -22.914 -2.27598
34.6296 -21.826 -2.23742
15.9436 7.87456 -0.926454
15.353 8.14139 -0.897342
-11.8588 16.1837 -1.01831
-19.468 -42.9613 -2.42122
-11.1852 -30.4455 -1.607
-25.2183 -14.5645 -1.38035
-31.0133 -58.4503 -3.22695
10.1303 -9.54104 -0.696344
14.2222 -11.3103 -0.892876
16.6914 10.6187 -0.938993
17.0704 11.965 -0.975287
7.46462 -13.6917 -0.740635
-19.1403 -5.64743 -0.856193
-24.189 -43.1088 -2.17759
11.0795 -14.9585 -0.760406
19.3342 -13.943 -0.974684
47.3876 -12.105 -1.94916
-8.90396 -11.7765 -0.569177
49.1996 -11.5211 -1.99002
24.6461 29.6315 -1.3233
-29.5773 20.2195 -1.24188
-33.187 -18.6097 -1.23564
-14.734 -36.7229 -1.2685
17.5761 -13.1129 -0.716158
19.0745 -13.4241 -0.732144
14.859 4.02492 -0.456999
-19.9302 -45.7979 -1.49337
-20.8988 18.6172 -0.800254
-10.0891 -30.5943 -0.863939
47.7707 -10.1482 -1.36895
-37.2543 23.1729 -1.18613
-48.0868 17.2916 -1.22322
-20.1705 -33.6383 -0.852009
48.6796 -11.3041 -1.07824
-27.9914 21.155 -0.701945
-28.4141 9.03798 -0.623321
40.5758 71.0481 -1.52091
-27.442 20.2537 -0.653912
13.7114 -11.2351 -0.308068
-31.5194 -19.6151 -0.572121
-23.7246 -47.7128 -0.786846
18.6906 -13.4794 -0.335875
-14.8692 1.87515 -0.194282
-10.2878 -31.1042 -0.419253
-13.1503 16.6944 -0.218065
-16.2893 -37.4369 -0.438858
33.5672 -21.0247 -0.358615
-20.8953 18.6439 -0.191299
-9.40323 -12.0686 -0.0451101
7.5828 -12.6495 -0.026381
15.1666 7.93161 -0.00286437
-32.3829 -19.9963 0.206736
-20.2294 -34.5748 0.301002
-46.5016 25.4746 0.541476
7.2605 -12.8828 0.151884
8.41674 -9.56996 0.126123
-37.1684 -19.7606 0.467087
-9.6833 -27.424 0.329067
11.6758 -10.1781 0.20167
-21.2926 18.1941 0.367015
-11.4436 -17.7561 0.309735
-28.3431 20.1695 0.618273
-31.9671 -21.4313 0.693224
-31.3858 -23.1862 0.685573
11.1738 -10.0414 0.243718
8.22054 -10.1332 0.278931
8.30802 -9.69711 0.274068
-60.8508 21.0717 1.50604
19.3934 -14.078 0.581674
-27.0018 -8.11191 0.756707
-25.5163 20.0105 0.932246
-53.8342 20.3849 1.56881
12.1961 -10.4493 0.436403
18.1284 -7.85823 0.560514
-22.8972 19.4203 0.89198
-7.60402 -8.91683 0.374052
13.368 14.5342 0.698723
-25.657 -18.2532 1.09118
6.76796 -13.9451 0.542933
9.32946 -9.18041 0.445593
25.9714 -4.6022 0.879266
19.815 18.9232 0.98496
15.3063 26.4974 1.14625
-79.8362 28.4925 3.11407
-50.2585 16.5204 1.90496
25.7765 -5.0074 0.991908
-23.3609 19.0838 1.13824
9.82683 -9.34852 0.52261
23.534 -3.24226 0.894675
12.8623 14.8974 0.80233
15.8807 20.5195 1.05855
-28.7166 -15.8016 1.31856
7.11224 -13.4847 0.623321
21.936 50.7079 2.30046
8.16219 -11.7619 0.601477
-7.3215 -7.20714 0.454753
-7.89214 -10.9191 0.603811
-27.6846 -10.9594 1.42099
17.1323 11.1218 1.01462
-7.49865 -6.97711 0.491369
16.799 26.0993 1.59981
-6.71988 -7.91068 0.571749
15.6817 21.4743 1.45358
-24.0038 18.4842 1.67286
15.8364 25.7914 1.74899
-6.86156 -8.84554 0.641143
7.51611 -14.8942 0.954263
10.3476 13.0158 0.981516
15.8249 21.0254 1.64654
16.7802 29.8654 2.10582
12.0493 33.794 2.27961
-7.00383 -9.55939 0.759908
10.4802 23.8839 1.74849
11.8413 10.416 1.12152
11.9518 12.6388 1.22532
14.5088 16.7651 1.58378
8.82564 -13.604 1.14163
11.1114 9.27521 1.06248
13.5661 15.2159 1.52263
-13.8442 8.16441 1.21376
-10.8855 2.05087 0.837323
13.1784 17.1546 1.67624
12.4122 19.7819 1.81122
10.4645 -7.16124 0.987893
-7.42129 -7.85067 0.865703
13.2792 12.0206 1.45844
12.3392 12.0715 1.43047
-6.82913 -6.00867 0.74003
-6.86167 -6.70975 0.797157
-12.8891 1.82501 1.0752
-6.78312 -8.58956 0.944683
11.9467 12.4705 1.48682
9.4064 -7.39139 1.03928
10.9835 9.67552 1.32839
-11.1388 2.85248 1.05585
-7.4055 -6.89784 0.910446
12.0199 9.27466 1.45144
9.63435 13.6242 1.60048
7.54731 13.8874 1.54781
8.80951 13.6971 1.63159
-6.56063 -6.53779 0.921858
8.12673 -6.75472 1.032
10.0796 12.6251 1.61721
10.2715 10.4925 1.51449
-6.72372 -5.27806 0.890378
9.90633 9.43312 1.45632
8.49843 11.5542 1.50181
7.09576 13.7589 1.64832
9.85249 8.59765 1.38211
9.48988 10.5697 1.54558
5.96958 13.1498 1.56252
-6.19105 -7.29142 1.03529
6.95268 11.8333 1.50882
5.53607 13.8717 1.64736
-6.69506 -3.90462 0.856345
-6.52831 -5.92499 0.972443
4.13969 -8.20213 1.01344
5.62347 -6.29997 0.94623
9.59275 7.72242 1.38212
9.34624 9.94643 1.53729
8.21727 11.704 1.59709
9.43134 -7.73187 1.33561
7.01751 11.0749 1.49382
-6.73648 -4.47442 0.917846
4.93493 -8.05043 1.0877
-10.3354 6.92869 1.44221
-6.97628 -2.09876 0.847805
9.20447 6.21791 1.31958
6.15312 12.5585 1.65201
5.19954 12.0247 1.5446
-6.545 -5.03264 0.996964
4.92652 -6.05023 0.915783
9.12357 9.25186 1.54435
4.33723 -8.3137 1.13636
8.47731 3.92651 1.16909
11.2193 5.59599 1.53877
4.80963 13.3829 1.77031
-6.01706 -5.26436 0.981594
-8.97898 1.28009 1.12981
8.44992 7.72838 1.44753
-6.29108 -5.19931 1.03331
7.98513 8.38685 1.48719
-6.76082 -3.50743 0.986673
5.13 -6.16008 1.03221
5.16776 -5.58243 0.989339
8.58495 7.06329 1.47087
8.13202 8.04113 1.51995
-7.09164 -1.69702 0.982489
-6.91927 -2.17413 0.971998
-6.35762 -4.28656 1.01936
4.9942 -6.29447 1.06638
8.55735 6.48559 1.45866
-6.71459 -4.13464 1.06324
-5.92939 -4.35677 0.990343
5.0969 -5.70147 1.04745
7.56985 -3.5952 1.16414
8.50388 4.31744 1.35273
8.47001 4.65433 1.36948
-6.82217 -2.85765 1.05794
7.64449 -3.81514 1.21766
7.15416 -3.11464 1.09852
5.096 -5.96959 1.13012
8.34143 -1.76475 1.23262
-6.83611 -3.20001 1.11999
7.5152 5.66291 1.41164
5.87262 7.58202 1.44736
8.1102 3.97413 1.37816
8.03177 4.25951 1.3804
5.55324 7.9741 1.47636
5.21137 8.90196 1.5578
3.62401 9.91344 1.59263
-6.8898 -2.77879 1.13297
7.83245 -2.84915 1.27442
7.99258 -2.27751 1.28035
7.93737 -2.05324 1.26467
7.57614 4.26719 1.40033
7.17445 4.82423 1.41901
6.84193 4.98669 1.40618
5.47547 6.56139 1.42101
-7.09878 -1.34041 1.19617
5.09145 7.47708 1.50888
4.81653 7.37187 1.47742
-7.1171 -0.792614 1.19894
2.98561 -6.17371 1.15213
6.79036 4.1436 1.35747
