ply
format ascii 1.0 
element vertex 1871
comment /media/mkaihara/Seagate Backup Plus Drive/model_iterations/model_84.ply
property float32 x 
property float32 y 
property float32 z 
end_header 
3.48275 -8.89194 -1.82906
-20.5113 -33.2193 -7.41175
-32.3535 -25.2498 -7.73807
-29.3516 -26.0632 -7.38867
-22.5676 -55.7657 -11.3797
3.87764 -9.0721 -1.87923
-17.0894 -46.6097 -9.28945
3.43641 -9.20656 -1.81457
-32.8259 -24.5008 -7.4564
-31.6369 -27.1261 -7.59481
-33.4963 23.5824 -7.3849
-20.7464 -51.3283 -9.87686
-31.6008 -25.4561 -7.13677
-25.1329 -65.073 -12.2868
-34.78 23.1454 -7.3155
-16.9963 -47.9287 -8.91538
3.39769 -9.55104 -1.77207
14.0273 7.78505 -2.78167
-29.1923 -25.5859 -6.75095
3.46754 -9.49704 -1.75352
4.79107 -8.64437 -1.7129
-27.2382 21.3849 -5.98484
-31.1874 22.6831 -6.65187
-31.4104 -28.9312 -7.36814
3.88021 -9.98551 -1.84869
13.8802 7.48255 -2.70903
-24.26 -55.7419 -10.3374
-20.9209 19.9055 -4.87335
-31.8569 -25.3207 -6.9002
-20.2449 -50.1925 -9.17591
5.59018 -11.7135 -2.19187
41.844 -11.818 -7.37204
-18.6519 -49.7783 -8.9486
40.9895 -10.6648 -7.12525
4.987 -10.7018 -1.96577
-10.4902 16.6786 -3.19762
-30.6472 -23.7239 -6.31553
42.2202 -11.3382 -7.11483
-22.4179 20.3645 -4.91304
-20.9636 -51.8633 -8.88298
-23.2196 20.4158 -4.87725
-24.4563 20.8485 -5.00042
-33.4195 23.5412 -6.32503
3.80465 -10.0783 -1.65568
-32.4531 -25.0929 -6.27012
-14.0883 -42.5015 -6.87721
-31.548 22.959 -5.93178
-23.3918 -56.2971 -9.28298
-7.75447 15.7031 -2.64163
-33.7089 -23.6892 -6.20712
-32.9729 -24.241 -6.20078
-28.0818 -26.3481 -5.79476
-33.5704 -24.1616 -6.20342
-31.7151 -25.3873 -6.07256
-35.1831 -23.4996 -6.2803
-25.1729 21.1315 -4.84555
-33.4968 -25.0667 -6.16532
-32.4494 -24.573 -6.0106
-25.8511 21.3021 -4.90082
-12.7887 -42.3784 -6.48793
-12.7527 17.4448 -3.11365
-7.76729 15.5404 -2.47836
3.50037 -9.53811 -1.44584
38.1427 -12.5445 -5.71159
-33.8364 -24.9249 -5.94477
-30.9366 -24.5872 -5.56126
-30.4188 -25.6561 -5.60339
-21.034 -50.6813 -7.64601
-6.92902 15.3541 -2.2878
-14.1569 18.0876 -3.1164
-11.9799 -41.9342 -5.93796
-7.51132 15.224 -2.28045
-25.0731 -65.2696 -9.45902
-22.6692 20.6157 -4.08119
-25.3288 -57.4097 -8.33709
-31.6727 -24.4497 -5.28131
44.9674 -10.3619 -6.06911
44.3492 -9.74931 -5.98238
-13.7335 -42.6796 -5.89191
6.61172 -10.8966 -1.67658
-15.1843 18.5986 -3.12527
-23.0787 20.3268 -3.98707
-32.9946 -24.6319 -5.30068
10.6757 8.75596 -1.78192
-34.1236 23.4629 -5.31723
-30.1022 22.9063 -4.76859
-31.283 -24.4921 -5.01207
-12.9886 -36.9537 -4.95257
9.63889 -9.02118 -1.64761
12.7367 -10.4092 -2.07116
-34.2575 24.032 -5.23283
-36.4887 -22.7325 -5.35409
-30.9506 -25.5821 -4.98933
6.75456 -10.2727 -1.53461
-33.2967 -23.5352 -5.05257
-13.9054 -43.3822 -5.6031
13.1258 -10.9422 -2.09801
41.458 -10.775 -5.28968
-16.3685 18.8439 -3.0514
-16.2012 -39.2689 -5.19266
-8.85453 15.8301 -2.20984
43.3061 -9.97579 -5.38164
14.9321 7.79494 -2.0228
9.3852 -8.90528 -1.54468
-34.1132 -23.8011 -4.93226
-18.0703 19.6397 -3.12325
-20.9209 9.25807 -2.71097
-32.0886 -24.8425 -4.78604
11.2443 -9.6728 -1.73686
41.8026 -11.1907 -5.09603
14.6322 -11.3612 -2.12964
14.8599 7.63822 -1.89928
-30.327 23.0635 -4.34671
7.23831 -10.9917 -1.49379
-10.3788 16.571 -2.19043
9.41511 -9.282 -1.47197
12.7158 -10.4439 -1.83514
13.903 -10.9734 -1.97051
9.41941 -9.08376 -1.45258
7.03189 -10.4134 -1.37669
44.271 -9.66889 -4.93289
-11.0335 16.5742 -2.14763
-33.6404 23.7213 -4.47057
11.6628 -9.79863 -1.64509
6.14817 -12.6433 -1.47922
7.52489 -11.5185 -1.43208
9.81156 -8.87269 -1.39196
-15.699 -45.3648 -5.03286
16.4636 -12.192 -2.14901
-31.3742 -63.0321 -7.30343
14.8033 7.45413 -1.69367
-31.3785 -25.0074 -4.12157
13.7581 -10.8857 -1.79831
-32.1501 -24.869 -4.1126
14.7897 7.72731 -1.67625
-12.8163 17.1396 -2.10354
-20.8715 -52.9179 -5.51236
-33.6758 -68.0286 -7.26736
-23.6948 20.7275 -2.97456
-31.2398 -25.592 -3.83888
-31.2202 -25.933 -3.86825
-22.264 -58.2578 -5.8808
-14.2472 18.231 -2.16623
-31.4993 -24.6435 -3.73253
-16.0106 -43.6088 -4.32772
-14.2134 -44.1772 -4.3289
9.78112 -9.06592 -1.23949
-34.2023 -66.6239 -6.89987
8.53302 -8.62994 -1.10214
16.3973 -12.2175 -1.87122
-15.1578 18.5942 -2.15255
-36.1722 -22.4983 -3.85493
-33.5878 23.7143 -3.62153
-31.297 -25.2494 -3.55372
13.9653 -11.1073 -1.58439
-32.4032 -19.746 -3.23769
11.001 -9.65425 -1.24655
-27.0014 21.9022 -2.92042
-11.5445 -35.931 -3.18952
9.36172 -8.97635 -1.08918
-34.3193 23.5956 -3.46058
8.65513 -8.65671 -1.00568
16.6583 -12.1489 -1.68465
-17.0398 -44.2777 -3.81317
-21.8883 -50.0699 -4.27779
-15.5377 -38.358 -3.28062
-13.5381 -37.9849 -3.20405
9.16602 -8.90756 -1.00441
11.234 -9.73853 -1.16585
14.7755 -11.557 -1.48549
-30.339 23.1358 -2.96918
-29.4469 -13.7452 -2.52461
11.8005 -9.99715 -1.19906
-23.7047 -52.7929 -4.43281
12.7094 -10.5493 -1.25166
-42.4244 -80.487 -6.58523
9.90786 -9.09327 -0.974861
10.8574 -9.69154 -1.01462
-33.5118 -20.804 -2.72878
11.8939 -9.99612 -1.07602
14.6237 -11.514 -1.29395
-15.8008 -39.9259 -2.92254
-15.4154 -40.7806 -2.98895
18.4392 -13.3259 -1.51077
-23.5909 20.6551 -2.08109
-25.4979 -58.8185 -4.23977
12.8047 -10.5333 -1.10872
-14.9341 -41.4319 -2.8625
15.181 -11.4623 -1.23643
-33.3724 -67.5681 -4.73323
-15.3494 -47.5764 -3.10684
-33.2988 23.5233 -2.49508
-33.8153 -66.8711 -4.56162
-17.315 -42.1778 -2.78042
30.5756 -20.2715 -2.23389
41.5686 -10.8401 -2.60854
36.1485 -8.71533 -2.25334
-15.439 -41.4505 -2.67285
-27.3341 22.184 -1.9958
-29.1754 -14.3638 -1.8792
-16.1563 -42.0897 -2.51508
16.7833 -12.5232 -1.17345
-27.3338 -16.4485 -1.71735
42.146 -9.38795 -2.22107
-9.42727 -12.5963 -0.798749
-15.7385 -41.885 -2.22915
5.67692 -12.3898 -0.677334
-14.3704 18.2172 -1.13154
-15.5058 -48.7365 -2.51228
14.8054 7.76731 -0.805291
-16.6703 -42.7297 -2.18033
-14.955 -48.6382 -2.40153
18.5837 -13.1852 -1.0924
-17.6723 -51.2505 -2.52937
36.4313 -8.94771 -1.7582
-29.0755 -14.8677 -1.46119
-25.0547 -57.4099 -2.77844
-16.8718 -41.5124 -1.99519
9.61949 -9.07733 -0.589818
12.5386 -10.2913 -0.728246
43.7494 -10.0103 -1.99633
-14.3771 -43.7322 -1.9599
-33.2223 23.4853 -1.69398
-54.6253 29.6667 -2.4789
-34.2844 23.5941 -1.52664
-19.3461 -50.592 -2.03349
-34.9341 -21.9987 -1.4757
9.70639 -9.03308 -0.487611
6.57761 -10.7857 -0.438479
-13.3402 -39.7685 -1.38894
7.41619 -13.0173 -0.511843
18.4797 -13.0887 -0.765137
-27.4123 -60.0374 -2.17377
-13.6227 -38.6477 -1.32815
20.8456 24.0422 -1.02136
-23.4123 20.7848 -0.985668
-21.4222 -54.8527 -1.82669
20.8642 -14.228 -0.767974
-27.8118 -14.3122 -0.948074
-13.3253 -42.6459 -1.32884
-24.3888 20.723 -0.918859
-24.3531 -56.0459 -1.73881
-18.0059 -48.7326 -1.49916
-34.7859 -21.1951 -1.12665
-9.82291 -12.8876 -0.462846
-23.5345 -55.5007 -1.70214
17.9034 -13.3377 -0.568517
29.6252 49.4383 -1.4924
-30.4983 23.2697 -0.985781
-31.674 23.167 -0.970012
-27.417 -13.1737 -0.745342
9.52774 -8.96596 -0.316745
-21.136 -34.0438 -0.934612
-40.7063 14.12 -0.941497
21.0629 -14.0933 -0.538324
18.3085 -13.1994 -0.423648
12.7485 -10.4732 -0.274982
-33.4575 10.5808 -0.579566
-28.492 -13.5678 -0.499511
-37.4463 -21.3252 -0.654581
-18.5282 -45.4205 -0.759366
-8.01248 16.8504 -0.253385
-32.8682 -24.5535 -0.568865
-34.2345 -23.3379 -0.530276
17.1822 -12.8195 -0.260232
18.0982 -13.0305 -0.282946
28.6499 -17.6663 -0.449458
-22.0301 -56.4235 -0.735403
-30.6853 23.3946 -0.411006
-28.5428 -60.9041 -0.716728
-19.0143 -43.6116 -0.509711
-54.2944 29.7549 -0.514307
-34.5986 -61.0333 -0.647008
-20.6007 -54.0276 -0.549827
37.1176 -8.96713 -0.35123
-14.4825 18.382 -0.16409
-36.7365 -81.8088 -0.614622
-18.3133 -44.4182 -0.327629
9.53502 -8.97212 -0.0408234
14.7039 7.7406 -0.0281299
-29.6262 -13.2163 -0.0585817
-11.7434 -17.0979 0.0251656
-12.9617 -19.5094 0.0444643
-19.0782 -43.7935 0.196683
9.40198 -8.9514 0.0591199
-33.2515 23.5321 0.212333
-22.4271 -56.6184 0.29415
-30.4378 -14.1267 0.201603
16.7157 -12.1963 0.115559
-13.2178 -20.2663 0.157723
14.616 -11.3854 0.145693
-53.9866 19.3425 0.508349
7.04199 -12.0996 0.117456
15.8853 -11.7712 0.167727
-36.8458 -22.2965 0.451822
37.7948 -7.76807 0.401547
-35.6686 -22.3527 0.479515
-12.7955 -35.3406 0.43811
-13.2786 -35.7073 0.461081
-11.3939 -32.8092 0.422109
-9.79026 -30.2914 0.384804
24.9803 50.5805 0.735633
9.54685 -8.97957 0.169389
-12.8933 -19.9791 0.323585
-11.0872 -33.6561 0.484844
8.53453 -8.47832 0.182334
6.24361 -12.7732 0.206997
7.1114 -10.9582 0.199355
9.30385 -9.01937 0.187099
7.99564 -9.07235 0.193351
9.68159 -8.96445 0.217289
37.2808 -7.98729 0.62537
-24.2542 20.7993 0.572996
-33.5637 -22.5817 0.696066
-34.9041 -25.6089 0.75811
12.8352 -10.5441 0.272084
13.1432 -10.6009 0.316352
-9.94954 -12.615 0.303275
6.78909 -11.1265 0.254112
7.95083 -9.34425 0.241205
25.4904 52.4463 1.1695
6.93797 -10.9052 0.259802
9.13907 -8.64718 0.267253
11.4626 -9.85232 0.331157
17.1331 -7.65263 0.377669
7.17114 -10.8802 0.294883
-12.8999 -19.8029 0.5644
7.61153 -9.26684 0.273125
7.79421 -9.32097 0.282043
-26.0739 21.9146 0.88547
-29.1675 -9.35349 0.768835
9.57495 -8.90889 0.336402
17.3439 -12.67 0.541402
18.1655 -13.0802 0.556603
-23.3431 20.4372 0.809028
-28.2102 22.2949 0.939433
-29.1793 -8.75769 0.79777
-33.4981 -17.8613 1.03107
-13.4701 -20.3405 0.64821
14.6505 -11.3833 0.494962
22.5513 -3.28115 0.64126
-12.2937 -19.1693 0.658616
24.7487 -4.68835 0.733077
16.0346 24.8839 0.88766
-28.3224 -20.8647 1.04086
7.18175 -11.2497 0.400714
6.92631 -10.6364 0.386559
14.4532 23.5444 0.848611
-7.63678 -8.82445 0.356874
12.9428 -10.5905 0.510623
-7.33424 -9.53235 0.368371
-28.8011 -8.12926 0.996128
-11.975 -17.505 0.710065
7.83309 -9.30411 0.402416
15.9889 10.9239 0.693701
10.7964 -9.40091 0.520031
11.8181 -9.98511 0.56372
21.9838 44.2683 1.85691
-7.46166 -8.14637 0.412952
9.60185 -8.91328 0.489093
22.6186 -3.17564 0.876823
25.5555 52.8273 2.273
-7.46437 -9.90751 0.485188
10.3714 -9.45917 0.550631
12.6415 -10.4406 0.662404
21.3916 -2.62173 0.878636
-29.4408 -17.8611 1.40805
8.69724 -8.65811 0.507189
-6.93516 -8.47987 0.470912
9.38907 -8.88175 0.540311
12.5207 14.3731 0.842102
-29.1457 -8.55377 1.33506
14.4923 18.8763 1.06985
14.6959 25.3032 1.30423
20.8879 41.0743 2.03851
6.11613 -13.6268 0.666081
10.7804 -9.45769 0.648581
18.3512 -1.62861 0.842876
18.8418 35.8753 1.90104
14.6302 25.7773 1.39014
-11.2351 2.78671 0.557791
-7.25945 -9.56884 0.57923
9.12105 -8.93985 0.604889
11.3316 -8.69378 0.668836
19.9518 -2.28637 0.967409
11.5121 11.7323 0.816491
15.4922 37.2571 1.98406
7.72079 -9.40991 0.599138
10.1276 -9.22391 0.678365
14.2674 24.1933 1.40678
19.4444 37.7062 2.15388
20.8299 -2.59481 1.06736
-7.42003 -8.52465 0.58638
9.33714 -8.88998 0.671342
16.3696 24.0048 1.52668
16.0839 29.1581 1.73842
12.9146 -10.645 0.889251
10.4406 12.2051 0.85924
13.9872 18.9864 1.26709
11.0086 -9.54559 0.787896
14.7622 19.2338 1.33741
-26.7033 20.4696 1.83969
-6.98071 -8.18985 0.59539
10.1382 12.2569 0.891003
-7.27871 -9.39635 0.665721
9.87702 12.304 0.915269
-28.1724 19.8343 1.95746
6.05501 -12.7877 0.810172
11.063 11.9593 0.936575
-6.89265 -6.80251 0.561749
11.1526 11.8925 0.96019
-6.82149 -8.42924 0.649041
6.20111 -12.4651 0.813591
14.401 19.1606 1.44151
13.8355 22.6208 1.58205
12.9991 30.0415 1.96474
-6.18005 6.58231 0.554867
-8.18618 -7.75673 0.682232
-7.13111 -8.18069 0.666568
5.67649 -12.3451 0.821754
-7.49486 -6.90041 0.633894
6.96063 -11.0902 0.8097
6.94681 -10.4988 0.785792
11.2694 -9.72778 0.919457
12.0489 -10.0794 0.973507
16.0844 7.12345 1.12095
14.6474 18.9747 1.51678
-7.24916 -6.31769 0.623802
10.2071 -9.32236 0.892163
-7.39112 -6.27035 0.635932
11.3529 11.9796 1.12471
9.32649 20.9957 1.56444
-7.29127 -9.67843 0.809614
11.5068 12.4802 1.16466
-6.96476 -4.46334 0.56917
-6.76609 -8.2177 0.726005
-6.70811 -4.43929 0.555017
9.22759 -8.82215 0.888792
9.95269 -7.80854 0.891144
12.5344 15.7978 1.45824
9.76533 -8.24634 0.934651
11.2863 16.8757 1.52636
11.206 17.8655 1.57547
9.41922 17.9276 1.52721
8.82903 19.0806 1.58128
7.13953 21.2785 1.6872
10.5807 18.2628 1.60803
9.9711 -7.56516 0.957029
-7.04128 -7.20266 0.771935
-17.2864 -6.26993 1.43807
9.43332 -7.6476 0.952004
9.15563 18.2864 1.61408
-6.38798 -4.26537 0.609149
-6.84443 -8.23763 0.849122
4.83012 -5.72778 0.595732
8.82754 19.4209 1.69202
7.5957 18.5714 1.61324
5.02278 -5.78891 0.617526
12.652 11.4165 1.38096
11.6584 11.7108 1.35318
6.70128 -9.34862 0.935052
12.1123 11.585 1.37782
6.51321 19.1198 1.65323
-6.36413 -4.3933 0.630434
-7.18118 -9.5043 0.977766
11.4266 11.9712 1.36934
10.3874 9.08716 1.17527
-5.05741 -11.5385 1.06416
6.11597 -6.03617 0.750109
9.18253 -7.15347 1.00116
-6.80683 -6.70434 0.811837
10.3183 12.228 1.39678
8.76503 -7.30349 0.991798
10.7143 12.0779 1.41307
-7.3253 -7.78108 0.936991
8.16289 -7.26702 0.970389
10.0952 12.3393 1.43329
-7.08622 -7.75784 0.93172
-6.9537 -8.35922 0.975934
10.4852 12.1883 1.46
10.3768 13.3854 1.5345
-7.13328 -8.3474 1.0003
11.1152 10.7364 1.4215
-6.32201 -4.23623 0.699974
-6.87728 -8.61358 1.00854
-6.33601 -4.39968 0.711243
11.001 8.48975 1.30407
10.5554 9.25331 1.30888
6.37667 15.1475 1.54569
10.4073 11.1962 1.44651
-11.2811 2.89082 1.10083
6.14756 -5.95563 0.81604
7.98183 -6.61697 0.99587
10.6557 9.12476 1.36194
9.42255 12.3981 1.50786
9.60701 12.3288 1.53992
7.57756 12.1186 1.41977
7.8122 13.0596 1.51478
11.1449 8.00316 1.39841
7.05005 12.5452 1.4523
8.97074 11.2421 1.46347
6.90097 13.36 1.53887
5.77574 13.7239 1.52848
9.11444 10.3909 1.42859
8.93407 12.1713 1.56872
11.3104 7.60569 1.42191
9.17269 9.91989 1.40675
4.96897 -5.81454 0.821142
-6.85632 -4.66318 0.874885
5.48712 13.6703 1.56339
-7.07027 -4.51383 0.894799
8.84498 10.5981 1.48217
-6.77875 -6.78845 1.02635
5.90148 -5.82495 0.895722
9.62077 8.47051 1.38172
8.88971 9.28497 1.38262
9.17615 10.2292 1.48994
4.69873 13.6174 1.55453
4.22803 -8.04102 0.984185
6.39785 10.7035 1.3722
-6.81145 -3.9307 0.865894
6.27152 11.7591 1.47862
-6.90569 -3.86894 0.877185
9.65044 7.16051 1.34386
6.59638 11.2577 1.45315
9.74587 6.98764 1.34726
5.36721 11.4416 1.4289
5.36855 11.9371 1.47826
4.63604 12.0644 1.46224
9.77749 6.64551 1.34739
-6.90277 -4.57087 0.948412
7.39104 -6.21689 1.10092
-7.34569 -0.787052 0.847486
-6.28412 -5.39851 0.954361
5.2453 -5.56394 0.88237
8.81779 7.83916 1.37462
4.41376 -7.17613 0.97603
10.3621 5.12987 1.35409
8.90178 7.74404 1.387
5.19683 -5.60767 0.90329
8.54668 7.86709 1.37839
8.83646 8.98956 1.47483
-7.06059 -5.66133 1.07106
10.0938 4.72641 1.32798
-6.92955 -3.85785 0.955914
9.09324 6.11281 1.32895
5.14861 11.2854 1.5036
-6.90397 -3.07035 0.918415
-6.88826 -3.25662 0.921726
4.87809 -5.94907 0.939052
5.96652 -6.12147 1.04083
9.32767 5.59485 1.34463
8.41307 7.18253 1.36774
-6.9617 -4.31755 1.00942
-6.89298 -4.54237 1.01771
8.20155 8.52586 1.46774
4.97158 11.1805 1.51926
-6.5613 -5.62726 1.07598
3.7055 -7.56774 1.05014
8.45043 7.69472 1.4301
6.07115 -5.61117 1.03653
9.12034 6.03032 1.38562
-6.14387 -5.42131 1.03418
8.50336 6.57823 1.37106
8.03949 7.46431 1.39555
-7.11306 -1.78594 0.938446
-7.02499 -2.30978 0.944824
-6.45586 -5.32732 1.06818
8.78671 5.63323 1.3381
8.10239 7.99355 1.46697
-7.27685 -1.25552 0.947333
-6.90894 -4.12555 1.04067
7.39392 6.18948 1.24891
8.03264 7.00108 1.38172
7.91692 8.07226 1.46516
-6.9211 -2.83061 0.973882
-6.92237 -2.97071 0.974256
4.50422 9.97443 1.43816
8.96122 4.09423 1.29684
-7.26032 -1.60894 0.977716
6.83075 -4.25366 1.06949
4.9258 -5.94071 1.02319
-7.34653 -1.11918 0.995184
-7.02539 -2.20284 0.985309
-7.06262 -2.27223 0.991601
-6.00233 -4.40366 0.995218
5.18326 -6.5583 1.11412
6.90126 -4.17055 1.0856
8.02625 7.12826 1.45426
-7.16325 -1.72108 0.990873
-7.09408 -1.95886 0.990279
8.7552 4.83358 1.35834
8.29079 5.84411 1.37917
-6.93188 -3.62471 1.06628
8.8311 4.14468 1.33809
3.30131 10.3751 1.49026
-7.32579 -1.20206 1.0167
-6.01763 -4.44702 1.02942
-5.99811 -4.54597 1.03066
7.13807 -3.92871 1.1199
8.02884 6.45124 1.42446
5.31083 8.9762 1.44416
-6.39107 -4.32745 1.05846
4.93128 -5.52399 1.0287
7.17557 -3.82454 1.13168
7.54809 -3.6807 1.16199
3.57676 9.92224 1.46842
3.39014 10.2003 1.49831
-7.38256 -1.08407 1.0422
-7.08483 -2.00694 1.02661
4.97082 -5.28606 1.01439
7.23704 -3.73261 1.14401
7.35291 -3.6672 1.16542
7.85985 -3.35113 1.21472
-7.16622 -1.87772 1.05403
-7.01861 -2.95027 1.10374
-6.01542 -4.3789 1.07045
7.89429 -2.77845 1.2245
8.20006 4.60242 1.37774
4.95393 8.4864 1.44012
8.33717 4.48961 1.39951
7.82003 -2.33765 1.20318
7.11434 5.66338 1.36173
2.927 9.34216 1.46346
-7.10476 -2.0226 1.1076
7.47543 -3.10619 1.22039
8.19697 4.53009 1.41965
5.75159 7.39689 1.42277
5.25771 7.58505 1.40628
5.09244 7.88973 1.4263
5.04532 7.9963 1.43092
7.32638 -3.1666 1.21907
7.67049 -2.75294 1.24105
-6.76566 -1.68516 1.05071
7.82198 -2.25403 1.24832
7.20539 5.40394 1.38303
-7.11435 -1.95538 1.14545
-6.92979 -2.78987 1.16154
6.78663 5.50476 1.37069
-7.36824 -1.09765 1.16412
-7.15539 -1.82698 1.15711
-7.05706 -2.0706 1.15285
-7.13192 -1.87536 1.15775
-6.90482 -2.93841 1.17849
4.78091 7.41298 1.40278
3.44654 -6.03236 1.10939
-7.28804 -1.3016 1.18653
3.52855 -5.70842 1.08111
3.56551 -5.61392 1.07053
7.05419 4.75499 1.38628
4.63552 7.33661 1.41233
-7.08187 -2.02658 1.201
-7.10405 -1.94994 1.20937
6.94977 4.8158 1.39837
3.79255 7.87865 1.44751
6.05119 -3.31816 1.14962
6.61851 4.86212 1.36932
4.63873 7.12957 1.41877
3.83683 -5.30112 1.09986
7.09128 4.4158 1.40662
7.46427 2.85419 1.35056
6.30477 5.27052 1.39278
-7.29167 -1.25789 1.26063
6.74135 4.07579 1.35292
-6.4587 -2.77534 1.19996
5.50869 -3.62915 1.13318
5.6897 -3.5179 1.14851
2.73438 7.79217 1.42744
-7.38597 -1.04142 1.29375
5.33318 -3.78297 1.13978
-6.31853 -2.26239 1.16429
-6.27874 -2.41957 1.17871
4.28147 -4.66501 1.10725
4.49422 -4.47738 1.1128
4.59179 -4.4491 1.12167
-6.81116 -1.73514 1.23871
4.31508 6.47377 1.38779
-7.17219 -0.929908 1.29337
-6.15111 -2.26031 1.16781
6.62971 3.68652 1.35985
6.08914 4.35405 1.3578
3.6095 -5.3286 1.17043
5.13347 5.66949 1.39891
2.49948 7.15205 1.42289
6.47751 3.04862 1.35362
-1.70597 -5.78131 1.14119
6.42424 -1.38549 1.24692
6.26691 2.77513 1.31958
6.21305 2.37946 1.32738
-4.47075 3.95639 1.40451
4.31918 3.52951 1.33408
4.20542 3.28777 1.32144
4.66487 -1.67762 1.24475
4.81807 -1.38075 1.25378
-2.15823 4.83716 1.32444
3.72841 -2.95405 1.2228
3.67449 -2.55047 1.19402
3.40834 -2.96317 1.22635
3.99835 2.56559 1.32751
-2.59319 -3.53259 1.25073
-2.32447 -3.56833 1.21593
3.74993 2.05507 1.29995
3.72678 1.9776 1.29944
-2.85396 3.50025 1.39423
-2.29463 -2.41759 1.18702
1.95831 -2.78504 1.21443
-2.12996 2.77661 1.33031
-2.03453 2.76459 1.33646
2.25325 -1.87165 1.22649
2.38237 -1.49954 1.22331
-2.01932 1.88088 1.2997
-2.06281 -1.44198 1.22822
1.4521 -2.07335 1.24738
-1.99092 -1.08703 1.21439
-1.92366 -0.707243 1.22013
-1.92543 -0.703046 1.24573
-1.95492 -0.34418 1.22936
-1.89175 -0.564367 1.23013
-1.89138 -0.530596 1.23524
8.20533 -8.68404 -7.45234
12.0783 -10.2473 -8.76626
-8.87032 15.8366 -7.04485
20.2824 24.6975 -11.4788
-8.82463 -2.52722 -2.5866
-34.9467 -23.3445 -7.7631
-34.53 -22.5817 -6.08732
-34.2614 -23.2835 -6.15132
-31.56 -20.2406 -2.81934
9.257 -8.81704 -0.390701
-7.84528 16.9106 -0.459905
-29.7361 -11.5069 0.734802
-6.93506 -8.28857 0.46172
16.4223 23.5816 1.56141
11.2575 15.8322 1.60683
-6.70667 -6.67966 0.885269
4.1686 12.0955 1.47413
8.6726 9.03373 1.46479
7.96539 -8.75645 -10.3708
8.82348 -8.53154 -10.4875
6.95077 -11.9273 -11.5047
6.86661 -11.341 -10.8871
8.14525 -8.25755 -9.52454
7.01644 -12.0203 -11.3182
7.06006 -10.9641 -10.4479
7.99503 -8.37035 -9.19591
6.72195 -11.2759 -10.281
6.43998 -11.6883 -10.2056
7.75077 -8.84327 -8.96485
6.20013 -14.3054 -11.7992
8.2906 -8.69269 -9.09286
6.29483 -11.9004 -10.1681
6.1429 -12.0799 -10.1061
7.48424 -9.43671 -8.99318
7.90275 -9.04858 -8.91958
10.4497 -9.43399 -10.4709
6.1164 -14.1067 -11.3653
6.0988 -13.664 -11.0019
6.1266 -12.5682 -10.2844
9.1841 -8.81402 -9.33827
9.2718 -9.0604 -9.45539
5.86051 -12.4969 -10.0274
9.34764 -8.97726 -9.2497
6.85447 -11.1148 -9.26808
5.61163 -12.962 -9.99752
9.67623 -9.06649 -9.3977
7.60212 -9.33591 -8.46515
9.98046 -9.17141 -9.52287
10.8985 -9.47726 -10.1347
11.4179 -9.67935 -10.053
8.37661 -8.59983 -7.94841
7.42402 -9.29044 -7.85798
8.15923 -8.70974 -7.88873
7.62075 -9.3432 -7.88849
7.82943 -9.39329 -7.83767
8.31238 -8.52707 -7.61271
0.361695 15.8801 -10.1341
7.52046 -9.31535 -7.6191
10.8898 -9.58894 -9.22593
7.21759 -10.69 -8.16394
8.14744 -8.48942 -7.42078
4.61089 -15.4014 -10.1113
8.70564 -8.69295 -7.61196
7.91401 -9.02421 -7.40395
4.04663 -18.0151 -11.374
8.19005 -8.61957 -7.26913
4.08558 -17.3091 -10.8523
0.147485 14.8864 -9.05764
6.64743 -11.2511 -7.95671
7.7356 -9.25988 -7.32127
10.1064 -9.2948 -8.33191
6.81361 -11.2403 -7.89126
8.05236 -9.19531 -7.33713
11.2445 -9.67593 -8.86963
5.39642 -13.8473 -8.81465
7.72759 -9.25752 -7.15167
9.33834 -9.02143 -7.69411
6.89487 -11.1039 -7.73618
7.9755 -9.11915 -7.10886
9.73739 -9.17314 -7.79662
14.7955 7.39303 -9.60492
8.65661 -8.82024 -7.14143
6.92562 -10.9535 -7.4483
2.63834 -11.2066 -6.62167
7.85201 -9.0627 -6.8679
9.58964 -9.12551 -7.51993
10.7729 -9.47789 -8.09473
3.28012 -20.6087 -11.7357
6.79453 -10.9722 -7.23535
10.0883 -9.27498 -7.67477
12.3068 -10.3265 -9.00971
9.2273 -8.99486 -7.20083
4.61115 -14.2804 -8.36659
7.99466 -9.20588 -6.77194
14.7174 7.52418 -9.07372
9.68163 -9.0923 -7.29463
0.83838 17.462 -9.54591
2.7425 -19.8697 -10.9372
11.1073 -9.62539 -7.98048
4.22741 -14.4035 -8.12621
14.6311 7.65123 -8.89256
15.0099 10.3629 -9.79203
13.9695 7.70654 -8.52383
10.9275 -9.59768 -7.73441
13.2243 -10.7692 -9.07264
3.0449 -19.345 -10.295
11.3301 -9.80285 -7.62367
2.1689 -20.3939 -10.3515
10.2395 -9.32248 -6.96362
14.2234 -11.2503 -9.10571
13.7594 -11.1292 -8.85991
10.9821 -9.63252 -7.27811
7.49846 -9.32536 -5.92616
3.56136 -8.46425 -4.5257
-8.72248 -1.91514 -4.39078
2.22482 -20.184 -9.95962
4.52967 -9.29494 -5.05699
0.405188 13.6528 -6.68566
7.59739 -9.25751 -5.84416
-8.56946 16.3561 -8.94402
-9.22536 -2.43882 -4.59795
14.938 -11.5358 -9.07051
19.2853 5.51788 -9.59226
-10.3451 -2.5613 -5.04101
1.90956 -20.5678 -9.8223
17.0943 16.0635 -11.1085
7.56888 -11.1902 -6.37491
19.9318 5.3799 -9.72181
13.9824 -11.0703 -8.29383
2.92478 -17.3112 -8.16397
19.2624 5.69927 -9.27958
17.7601 -12.9432 -10.1518
9.84411 -2.48646 -4.69112
20.1849 5.11605 -9.60685
17.2177 16.1903 -10.8893
1.81083 -20.2452 -9.30241
9.6533 -9.02682 -6.05208
-9.2356 -1.67635 -4.28095
9.43345 -3.46141 -4.57648
6.69973 -11.2946 -5.97359
9.89122 -2.61258 -4.64024
19.1555 5.84107 -9.01529
17.5931 17.45 -11.138
9.3499 -3.07993 -4.43094
15.3653 -11.8235 -8.7011
7.02231 -11.538 -6.04189
7.13775 -10.8964 -5.80652
9.53925 -3.39758 -4.51248
-10.1034 16.5615 -8.63792
17.5694 -12.8225 -9.6661
19.4404 5.60022 -8.96646
16.0334 7.27239 -7.79547
17.6979 17.8752 -11.1232
16.3553 -12.1638 -8.98407
-11.3811 17.3078 -9.10596
-6.62545 15.1436 -7.24841
-5.25742 4.93146 -3.14118
20.0337 5.43945 -9.02447
9.53821 -3.39787 -4.3697
18.0851 18.3296 -11.0659
15.7554 -12.1247 -8.55532
14.8006 7.40007 -7.06147
3.83446 -9.2924 -4.27117
-11.3016 17.1899 -8.71023
6.93037 -10.8848 -5.44146
-13.6539 3.34625 -5.92314
0.74331 -22.4299 -9.45728
15.7446 -11.9214 -8.2595
-5.18892 5.7142 -3.22986
0.999285 -22.2952 -9.3552
1.23142 -20.7955 -8.72729
14.113 7.56907 -6.69761
18.408 19.1829 -11.1069
3.7792 -8.94663 -4.05028
14.7123 7.69867 -6.91115
17.7842 18.9931 -10.7965
-9.54018 -1.09493 -3.96414
4.00487 -8.49753 -3.84889
13.98 7.71921 -6.55505
6.82983 -10.9646 -5.28156
-13.691 2.55758 -5.69783
-8.0597 15.6156 -7.14211
19.0947 20.7478 -11.4219
15.0133 7.21378 -6.71048
-5.32953 14.5579 -6.21655
13.9011 -10.9901 -6.94122
1.52835 19.176 -7.47019
-8.85812 15.9997 -7.10785
18.9038 5.76497 -7.65706
-1.76164 13.3583 -5.21924
5.28838 -9.38121 -4.15327
-2.39834 13.5862 -5.29942
19.4099 22.4529 -11.3788
4.65625 -8.5078 -3.68336
19.3272 5.54458 -7.65073
0.878935 -26.6545 -10.1345
14.8454 -11.4399 -7.0537
19.8822 5.38645 -7.7092
9.42434 -3.4336 -3.74999
0.534527 -22.7962 -8.49699
3.24257 -10.7754 -4.2043
19.9992 23.2666 -11.3921
0.910331 -8.72929 -3.25469
13.9762 -11.0685 -6.57435
20.2873 5.15984 -7.69633
17.7499 17.5386 -9.11767
-13.1005 2.29512 -4.83558
20.6346 24.6403 -11.6549
2.28306 -13.2383 -4.84003
12.9904 -10.5052 -6.01211
0.796166 15.4063 -5.51912
-8.21822 -2.8045 -3.10603
0.410287 -21.9431 -7.84489
-4.26559 14.0033 -5.20782
0.638843 -21.9991 -7.82083
15.7878 -11.924 -7.01292
-15.9754 18.4692 -8.60703
5.91901 -11.3208 -4.49201
-11.187 16.8829 -7.0748
0.0929975 -18.5834 -6.5321
14.2118 -11.2632 -6.34115
20.2421 5.33094 -7.30595
0.658408 -23.1315 -7.99145
-5.08099 14.7531 -5.34733
3.63641 -8.44171 -3.16409
4.87119 -9.02338 -3.51403
-14.7315 18.2898 -8.03958
2.27345 -10.88 -3.80924
-9.01979 16.3635 -6.37031
3.01929 -13.6623 -4.77091
-15.2145 18.6745 -8.16689
20.0609 5.45428 -6.98724
21.7939 26.9598 -11.5847
35.7113 -20.1594 -13.7054
-5.38042 14.2733 -5.06724
1.90689 20.6434 -6.87772
1.26737 -10.25 -3.41493
-5.3262 14.6686 -5.06972
-12.7836 17.5014 -7.03173
18.4654 -13.1582 -7.36377
3.55846 -8.66966 -3.00472
6.20944 -10.0963 -3.79881
2.31279 -11.0061 -3.57902
-4.62522 -34.7318 -11.1354
-1.14896 -24.0496 -7.66334
14.943 10.2913 -5.72545
-13.4183 17.856 -7.0609
-18.2897 19.7274 -8.45743
6.94611 -11.07 -4.0407
1.38771 -21.9601 -6.80671
-2.6047 -27.7298 -8.54829
7.10076 32.7836 -10.2341
0.771139 14.995 -4.56
-11.3111 17.0671 -6.17225
-2.7359 -26.8532 -8.1277
-14.5753 18.2241 -6.96378
-5.37169 -35.2132 -10.605
0.841414 -25.2054 -7.5402
-5.47545 15.0625 -4.76849
2.07141 20.5887 -6.09556
-21.6317 20.1701 -8.72676
18.1302 5.7694 -5.59993
-4.35682 14.6377 -4.49154
-8.05043 15.6195 -5.15647
4.25097 -9.13307 -2.96101
4.62836 -11.5976 -3.65149
-12.676 2.23307 -3.69933
-33.7448 -47.7993 -16.8349
-15.4414 18.5764 -6.945
6.94172 -11.0562 -3.75869
2.56207 -9.54017 -2.80682
12.894 -10.4369 -4.72111
-8.46909 -2.46475 -2.50109
20.8373 26.8726 -9.63298
-8.59723 -2.2659 -2.51236
-2.59079 -26.4275 -7.45081
-13.0852 2.00516 -3.68656
4.37941 -11.308 -3.36602
-9.45873 16.2674 -5.16715
-13.2672 17.6947 -6.07542
-5.47829 14.6233 -4.26927
-8.68757 -42.1823 -11.782
-21.8298 20.3714 -8.02765
-9.88587 16.3936 -5.13129
-27.1702 20.8717 -9.11535
11.3752 11.4486 -4.2578
4.31835 -11.2735 -3.19841
46.5617 -13.5355 -12.8462
-8.39464 -39.6108 -10.6409
4.08432 -8.64641 -2.51804
11.1414 -9.9098 -3.90092
-14.686 18.3885 -6.12007
6.52511 -10.406 -3.17928
3.17472 -9.63634 -2.62303
-30.7988 -45.1078 -14.1027
-4.44289 -29.137 -7.62437
3.53561 -10.3566 -2.82199
4.06301 -9.37532 -2.62642
15.5433 -11.6874 -4.96232
-7.27474 15.4995 -4.33483
-32.2305 -42.9834 -13.6226
4.30355 -11.1233 -3.01885
4.25108 -7.69706 -2.23793
6.52259 -10.6396 -3.11258
44.2905 -13.3908 -11.537
-28.7612 21.6992 -8.9079
-11.7151 17.212 -5.13361
-28.151 -41.0658 -12.2407
-10.1252 -39.8497 -10.1404
-24.8902 20.9059 -7.98852
4.34283 -10.3152 -2.75002
-12.2569 17.557 -5.19248
-7.97104 15.5319 -4.20877
10.251 -9.24651 -3.30568
39.8668 -13.2428 -10.0532
15.0521 7.52768 -4.00617
-6.45236 -36.9457 -8.93272
3.96129 -9.07767 -2.34696
46.4373 -12.4285 -11.4099
-12.4858 -45.9693 -11.2827
3.84785 -11.0364 -2.75494
4.9018 -8.68157 -2.34553
-12.9836 17.6939 -5.10825
10.979 -9.62151 -3.33675
-6.30483 -31.9681 -7.4337
-27.6094 21.3242 -7.90837
41.0851 -8.98497 -9.54446
-31.0312 22.5303 -8.59814
-35.9245 -23.5422 -9.62341
40.2922 -12.4556 -9.46973
5.4453 -9.45819 -2.43682
-12.465 2.84425 -2.80537
40.1638 -11.7699 -9.24775
42.1088 -12.0149 -9.63461
-5.47047 14.3548 -3.35988
13.3441 -10.7378 -3.77037
37.6825 -12.1099 -8.70194
-23.7702 20.7171 -6.84001
-30.8481 -76.0517 -17.8057
4.30161 -9.68196 -2.29764
4.53149 -9.16483 -2.20848
-14.8118 18.4542 -5.05412
-31.4802 22.8667 -8.3086
-32.3783 22.9777 -8.48755
-29.5091 -78.29 -17.9311
-10.8622 16.9735 -4.27374
-8.63095 -36.635 -8.00239
3.18445 -9.66768 -2.17069
3.95804 -9.8091 -2.25552
45.237 -10.4881 -9.91326
14.8853 7.45578 -3.52911
-15.3978 18.955 -5.17111
5.15564 -9.04022 -2.1866
26.1513 37.8364 -9.60992
14.9235 7.81016 -3.49667
-30.536 -23.5831 -8.00335
-11.6301 17.1359 -4.2092
-15.8654 18.7583 -5.00216
-35.8204 24.0452 -8.767
43.9058 -9.5767 -9.16459
-13.6293 -43.8544 -9.33204
4.12769 -9.71516 -2.14779
11.5697 -9.61759 -3.0613
-12.1853 17.487 -4.25537
-20.6496 -59.263 -12.5405
-13.2903 -41.2838 -8.58536
4.06166 -9.90167 -2.11917
-34.5731 -23.6407 -8.25609
-27.1615 21.3174 -6.796
-33.5897 -24.0272 -8.04996
-7.00462 15.4794 -3.29882
-27.5652 -64.7681 -13.6707
-33.9951 -22.6316 -7.86954
3.42947 -9.34501 -1.92235
45.3196 -10.5002 -8.93354
-12.9428 17.6713 -4.18798
3.98183 -9.32778 -1.93564
-36.9313 -22.4331 -8.17926
-21.6517 -35.1725 -7.85426
-16.0334 -46.2617 -9.26279
37.5144 -12.3751 -7.46824
-36.6022 24.5831 -8.25189
-34.1399 -23.5777 -7.79385
-33.079 -24.2019 -7.69352
-21.9991 -54.4999 -11.0572
-17.3629 -47.1615 -9.3209
3.81531 -9.19521 -1.83894
42.094 -11.345 -8.09625
5.74633 -9.69378 -2.06544
-25.3527 -57.4875 -11.5015
-21.0618 -52.2758 -10.1923
-14.7806 18.4245 -4.18884
-31.5126 -25.4156 -7.19584
-20.5633 -27.4012 -6.12593
-40.1045 25.3064 -8.36714
-27.1728 21.3359 -6.01349
-34.6725 23.7261 -7.29489
3.90133 -10.029 -1.86615
4.7651 -8.60035 -1.70879
13.9459 7.4893 -2.72988
14.0171 8.04363 -2.76756
-31.3313 22.7837 -6.64148
41.7772 -11.8196 -7.39225
41.5821 -10.7694 -7.31271
-31.6696 -25.1516 -6.86015
-21.3786 20.3603 -4.95794
-21.0271 -52.2644 -9.51755
14.7975 7.41647 -2.77568
-32.2179 22.8084 -6.59402
-24.3513 -58.0567 -10.4017
43.0734 -11.6036 -7.25128
-10.5068 16.6806 -3.18185
-21.33 -52.9159 -9.09822
-35.3626 -24.411 -6.77075
-23.1089 20.3032 -4.81708
-24.5373 20.9466 -5.00044
-40.8183 24.7141 -7.39433
-11.3873 17.0435 -3.16487
3.46538 -9.51058 -1.56562
3.86007 -10.2077 -1.68996
-7.7433 15.706 -2.67542
-31.5683 22.9762 -5.96865
-32.1759 -24.8517 -6.1819
-28.3075 -26.4784 -5.87173
41.7664 -10.8579 -6.5601
44.3634 -9.66518 -6.91782
-6.64746 14.807 -2.42931
9.81577 -5.14518 -1.64489
-33.9334 -24.4746 -6.23027
10.1691 -9.14315 -2.03812
44.5 -10.2945 -6.78365
-37.1548 -24.7334 -6.56864
-31.9343 -26.3407 -6.0552
-13.0241 -43.1525 -6.63129
16.8424 -12.1854 -3.04542
-25.7688 21.2162 -4.85101
-25.5102 -57.1581 -9.01861
-7.73871 15.5004 -2.47799
-12.8939 17.5804 -3.10884
6.01721 -11.4959 -1.85437
-13.6074 18.1877 -3.19114
-35.2839 23.835 -5.98644
6.74146 -11.0119 -1.80485
37.2345 -12.288 -5.51529
-31.557 -25.2866 -5.64341
-33.5557 24.1148 -5.7245
-21.2029 -51.1021 -7.64076
44.6481 -9.98825 -6.30933
-6.98489 15.4481 -2.3176
-23.4962 -61.3211 -8.91975
7.73612 -9.36212 -1.62999
-14.2048 18.1374 -3.106
13.1716 -10.5054 -2.27992
-22.5459 20.5082 -4.09853
41.6868 -10.7781 -5.71685
44.378 -9.72055 -6.01366
-22.9286 20.1773 -3.99401
-33.1146 -24.7791 -5.40193
-15.1089 18.5015 -3.08889
-34.581 23.0809 -5.39773
-38.8065 -16.3856 -5.43861
6.9996 -10.4098 -1.60969
10.7281 8.78335 -1.77997
-34.2419 -23.5973 -5.32148
-31.9458 23.3211 -5.00335
-36.0417 -22.4904 -5.32465
41.5568 -10.7472 -5.37219
6.77951 -10.3425 -1.54543
-7.77779 15.5574 -2.15424
-25.3881 21.3178 -4.05948
-33.9482 23.9256 -5.12317
6.27522 -12.0352 -1.65376
44.3315 -9.458 -5.55264
14.9373 7.82575 -2.02721
-18.4219 -44.6169 -5.82002
7.06915 -10.5063 -1.5249
-20.7006 9.17424 -2.67989
-14.7239 -44.5386 -5.51511
-32.2617 -24.8732 -4.7631
-31.7416 -25.3852 -4.75594
41.6355 -11.1529 -5.06654
11.2006 -9.64574 -1.7127
-30.3548 23.0164 -4.38281
6.62555 -10.7955 -1.45028
7.47493 -9.20304 -1.35634
11.5508 -9.69661 -1.71313
9.43508 -4.60285 -1.18881
14.9163 7.66504 -1.88982
-10.5029 16.7206 -2.22883
-32.713 23.9035 -4.53889
38.5113 -12.6774 -4.54729
9.33602 -9.00305 -1.43504
-11.2261 16.8368 -2.20019
6.76899 -12.744 -1.56337
44.471 -9.66509 -4.93409
10.7255 8.81369 -1.49584
16.6974 -12.4033 -2.23273
41.8272 -10.8481 -4.63069
9.59715 -8.95823 -1.39105
8.36343 -8.44838 -1.24548
-31.2955 -25.0436 -4.17349
-31.2067 -62.5944 -7.29592
14.9135 7.47933 -1.70438
-32.1994 -24.8278 -4.17158
-13.0411 17.7778 -2.23901
-12.9543 17.3557 -2.15292
10.183 -9.06617 -1.33581
-21.5382 -54.6988 -5.76288
6.29453 -12.0543 -1.31643
16.5684 -12.1216 -1.97364
41.7169 -11.2099 -4.14117
-31.7845 -64.2484 -6.81369
-21.5436 -56.5366 -5.74544
-23.6465 20.6832 -2.93693
45.1551 -10.0452 -4.32124
9.69419 -8.96638 -1.22256
39.3264 -12.9727 -3.85939
-15.2336 18.6739 -2.18263
-29.9748 -13.6664 -3.00272
-33.4516 -65.2112 -6.75519
15.7903 -11.8188 -1.79452
8.61865 -8.70942 -1.10969
12.8478 -10.6052 -1.45092
44.7453 -10.3711 -3.93523
9.38074 -9.00766 -1.09338
10.9221 -9.61826 -1.22347
-34.7115 23.838 -3.504
16.7673 -12.2273 -1.71914
-17.3852 -45.2393 -3.88167
14.625 -11.4357 -1.4807
-11.9609 -33.4849 -2.8064
-30.2861 23.0281 -2.94223
-33.6286 23.7699 -3.17903
-23.3999 -53.4515 -4.5045
-52.1793 28.3981 -4.49829
-21.6921 20.4155 -2.16688
-33.8584 23.9491 -3.00549
16.3061 -12.1838 -1.48936
41.7407 -11.1698 -3.14853
-40.9114 -77.4081 -6.31839
13.9226 -11.0155 -1.27079
-15.9462 -42.301 -3.12008
10.7372 -9.58901 -0.986477
-23.671 20.7261 -2.12485
12.8262 -10.5835 -1.11338
17.8652 -12.9575 -1.47165
15.971 -12.0801 -1.32279
-15.0365 -41.69 -2.8668
43.4696 -11.3054 -2.80808
-33.0001 -66.8635 -4.55014
35.5559 -8.62585 -2.24581
42.6617 -9.76453 -2.68731
6.02307 -13.0195 -0.857657
30.625 -20.2644 -2.19806
-9.98834 16.6741 -1.14282
-15.9386 -41.577 -2.53547
16.5348 -12.3572 -1.15931
-9.72692 -12.6094 -0.872671
14.9036 7.64606 -0.905513
13.8503 -10.9639 -0.946153
-12.9632 17.567 -1.1404
-16.8587 -41.7855 -2.39304
14.7979 7.78119 -0.819276
-16.6943 -42.6727 -2.24841
-14.3477 18.1855 -1.10774
9.54345 -9.00198 -0.601864
-24.7439 -56.7595 -2.80198
12.4105 -10.2024 -0.745018
-16.4485 -45.8517 -2.16289
-17.632 -43.4415 -2.00735
6.82766 -12.6072 -0.636298
-14.2921 -43.5667 -1.95327
-53.6365 29.1694 -2.47285
18.2435 -13.1066 -0.911965
16.7237 -12.4307 -0.811809
-43.2853 -84.0128 -3.5658
-18.7554 -49.183 -1.93888
-34.1594 23.4706 -1.51546
42.2175 -10.8779 -1.57033
-35.7542 -71.1213 -2.66363
-26.685 -58.4801 -2.16461
19.938 23.0593 -1.01169
-21.7358 20.3684 -0.970286
8.07633 -14.2541 -0.55048
9.40023 -8.97394 -0.421404
11.2664 -9.91839 -0.488085
18.4968 -13.0786 -0.744816
34.549 -13.0307 -1.22584
21.6852 26.2498 -1.09122
-27.6174 -13.8527 -0.968276
-23.2178 20.6754 -0.94716
-32.1759 22.7885 -1.23009
-25.7905 -59.2931 -2.00299
-14.129 -39.9703 -1.30609
-22.2012 -56.6319 -1.84216
-17.0701 -46.2637 -1.41312
-34.4154 -20.8669 -1.07182
11.4153 -9.68403 -0.401185
16.2655 -12.098 -0.534643
-41.764 25.8365 -1.29456
-30.7499 23.3977 -0.955475
-31.2716 22.9182 -0.916101
9.54594 -8.98638 -0.303836
-41.8991 14.4813 -0.979247
-32.2275 -53.9653 -1.41605
21.1434 -14.1408 -0.55946
30.2362 -18.3343 -0.798601
14.1801 3.91881 -0.300021
26.7786 46.7945 -0.990142
23.4103 -10.8987 -0.455077
46.6567 -10.7435 -0.891079
-30.9783 -22.2621 -0.695521
-29.9789 -29.4452 -0.666349
-19.4853 -47.812 -0.860271
12.678 -10.4255 -0.270242
18.425 -13.3137 -0.34769
-29.5323 -13.1264 -0.42406
-33.2346 -24.872 -0.577489
-34.5743 -69.6992 -1.05116
-28.6106 -60.8924 -0.922567
-34.3425 -23.4541 -0.542851
-30.7705 23.4097 -0.454607
16.9179 -12.6339 -0.250969
29.0766 -18.0289 -0.403064
-31.2262 22.9244 -0.430714
-19.5449 -44.825 -0.52371
-12.2811 -36.9646 -0.392728
-34.3659 -60.5519 -0.642091
-14.5218 18.4206 -0.179652
-26.9328 -13.5787 -0.243335
-15.2207 18.5538 -0.16372
-22.8656 20.4211 -0.157248
-21.2833 19.963 -0.132249
-10.6108 -13.6411 -0.0606641
14.6662 7.70453 -0.0198794
11.0759 -9.73936 -0.00789368
-34.8828 -19.106 0.0608739
-11.5733 -34.396 0.117625
16.8788 -12.2629 0.0903427
-19.2531 -44.2014 0.21366
18.6849 -13.1649 0.121168
7.15014 -12.2909 0.103672
25.8509 -10.606 0.171623
-56.342 20.118 0.571478
16.1767 -11.9886 0.192057
37.1528 -7.58517 0.357542
-29.3239 -8.26868 0.356709
-36.7292 -22.169 0.473301
-11.5475 -33.0849 0.375335
-12.9719 -35.9456 0.454378
-10.4819 -32.2189 0.405986
6.30361 -12.8846 0.18304
7.19254 -11.0805 0.173617
-28.6033 22.4527 0.55759
11.28 -9.85125 0.225044
-24.4606 20.9181 0.531984
10.8693 -9.70498 0.228595
12.927 -10.6419 0.263672
36.1161 -7.7293 0.614231
-34.9801 -23.4361 0.765973
-31.7114 22.6738 0.76634
6.11694 -12.7803 0.274883
7.00176 -11.0187 0.251448
8.00829 -9.39715 0.241032
26.6631 54.8252 1.32668
7.71178 -9.42266 0.275216
10.1038 -9.15136 0.328791
-29.0587 -9.31799 0.73538
-23.6386 20.6329 0.849756
-27.9919 22.0715 0.957615
-29.188 -8.76416 0.803394
9.1689 -8.87527 0.344639
9.60176 -8.92409 0.357238
-25.9662 21.8846 0.923551
25.2339 -5.10484 0.716659
12.9368 -10.6127 0.49834
14.6178 23.8133 0.862372
6.16453 -12.7171 0.44469
7.43334 -11.5873 0.431955
-28.7059 -8.09598 0.978938
-12.7136 -19.466 0.765855
-28.385 -8.87171 1.02854
16.0139 10.9607 0.701467
-30.1385 -18.6757 1.23942
15.5245 26.9672 1.11079
-30.7546 -16.7757 1.29837
23.413 -4.22778 0.859456
-28.1204 -19.9997 1.27872
-7.31385 -7.97461 0.40847
9.03085 -8.80637 0.468806
12.3365 13.4949 0.705157
25.2353 52.0581 2.19147
24.1195 51.3527 2.1369
-11.6026 -9.18397 0.583613
8.70428 -8.65004 0.485369
-26.0482 21.4574 1.371
21.7295 -2.94489 0.888292
-29.0903 -17.6695 1.39446
9.39165 -8.90508 0.530572
12.3555 14.23 0.810965
6.55133 -12.4068 0.595763
14.6967 19.0961 1.05957
20.4608 28.2618 1.52835
-9.54427 -13.8774 0.740271
-10.042 -15.7053 0.827405
7.57503 -10.9176 0.585396
8.60554 -8.69476 0.552758
24.0537 -3.68479 1.0986
-30.1319 -8.78087 1.43293
6.72169 -11.0502 0.595061
-8.29768 -8.16589 0.548021
20.7802 41.9261 2.23904
-28.8493 -17.83 1.60323
-9.81891 -13.7729 0.805038
9.63628 -8.94073 0.619049
14.9913 41.6597 2.14348
-30.5496 -13.5313 1.595
-6.77974 -8.2655 0.526144
14.2082 33.0414 1.83548
-30.0244 -11.7576 1.61845
-7.61115 -6.99871 0.52281
-6.71525 -7.61245 0.513647
15.8304 28.6767 1.70105
10.4607 12.2319 0.869941
14.0538 19.1249 1.27446
9.32187 -8.90335 0.690592
14.6383 19.0464 1.32653
15.0526 23.2486 1.52523
-27.9086 19.6505 1.87189
-6.99127 -8.21624 0.598379
-26.8339 20.5896 1.88151
6.06658 -12.8091 0.792993
-7.12754 -9.18552 0.663118
9.8705 12.3289 0.928948
14.6625 24.7045 1.67851
6.43312 -12.9204 0.830645
13.6293 22.2358 1.54064
-8.28443 -8.14327 0.700056
11.4439 11.5228 0.968559
14.4864 19.2671 1.44843
-7.42324 -10.0489 0.777055
6.98574 -11.1323 0.800906
11.2232 -9.68061 0.89844
5.84814 -10.7205 0.757777
-7.21178 -6.66592 0.613842
14.2809 20.2584 1.56841
16.0454 7.12233 1.13986
-7.05224 -6.1616 0.61468
6.433 -13.3837 0.989635
9.23286 20.8553 1.53866
10.3225 12.4418 1.10528
13.3809 17.9926 1.56404
12.2128 20.2486 1.63632
11.2487 11.8825 1.14856
6.57938 -9.81207 0.836576
11.3977 11.661 1.18012
9.77908 -6.90306 0.851655
12.2529 11.8618 1.25258
9.89462 -8.35585 0.948682
-6.20288 6.7228 0.683431
10.3577 9.12023 1.03677
11.7639 17.589 1.5922
11.3153 18.0275 1.60382
-6.96373 -7.71889 0.806275
10.6938 18.4573 1.63675
9.48302 -8.92823 1.0065
-6.42679 -4.3064 0.610377
9.04118 18.1137 1.6178
10.051 -6.87778 0.975102
12.3487 11.4572 1.36177
9.5905 18.6208 1.68659
-7.29 -9.66957 0.986457
6.69856 -9.35334 0.936135
12.1362 11.6099 1.37622
12.0393 11.8402 1.40227
11.3202 11.8322 1.35573
-5.07291 -11.5783 1.06331
10.2106 12.7748 1.39157
-6.97601 -6.09593 0.798156
-6.83282 -6.71144 0.809186
-5.23399 -11.4794 1.07288
-7.32118 -7.76873 0.919429
9.25812 -7.23528 1.01513
-7.14133 -8.08122 0.943926
-7.03612 -7.71146 0.918223
9.29587 12.4081 1.37459
-6.97285 -8.39712 0.975255
10.7357 9.00792 1.27724
10.3544 13.3359 1.52547
10.4454 9.1737 1.27263
7.62499 13.8411 1.4535
-6.51633 -8.15859 0.95683
-6.92542 -9.04781 1.05176
11.1044 10.7099 1.42352
11.1661 9.11037 1.34859
10.7767 10.7119 1.42439
6.39431 14.7764 1.51289
-11.4852 2.94236 1.11235
-6.37168 -4.1777 0.714054
-6.82081 -6.30787 0.861739
9.33235 13.1613 1.55643
-6.07232 6.59832 0.883627
7.94326 -6.59493 1.00614
7.84273 13.0769 1.51466
-7.08777 -7.6382 1.04992
9.22097 11.5297 1.48913
6.93089 12.306 1.43335
6.98262 12.864 1.49214
9.46285 9.02538 1.35335
5.7832 13.7864 1.54947
9.05017 12.3089 1.59284
-6.11622 -4.46334 0.793891
5.88318 13.5184 1.55287
6.14257 13.4548 1.55491
-6.98305 -4.43577 0.885124
8.70249 8.9512 1.33097
9.06148 10.0947 1.47531
7.26098 10.9025 1.42357
5.76497 11.3548 1.38446
-6.31377 -7.42756 1.0657
10.2066 6.41456 1.3338
8.93002 8.0824 1.32772
7.23994 11.5727 1.5073
6.77781 11.5196 1.47766
5.29704 11.7624 1.43518
4.81116 11.9589 1.44205
4.63613 13.4826 1.56835
9.80534 7.01086 1.34595
8.69133 9.23878 1.41741
5.32403 11.3917 1.41594
-6.85663 -6.73841 1.07021
6.80426 10.6204 1.42083
4.25846 12.9903 1.54487
9.72965 -3.18829 1.14156
-6.11367 -5.42248 0.946351
7.27651 -6.10927 1.07847
10.3567 5.68246 1.35489
-7.39555 -0.987685 0.855362
-6.26734 -5.36468 0.94984
5.24156 -5.54976 0.879439
5.01095 11.4935 1.45642
-6.89493 -4.5671 0.958648
4.4471 -7.25135 0.983716
10.3521 5.12112 1.35532
8.82427 7.83196 1.38506
-6.01023 -4.37419 0.866595
-6.49669 -5.28234 0.989423
4.08535 -7.85308 1.05274
4.96101 -5.84359 0.919608
10.1148 4.72954 1.33853
8.45876 8.2137 1.4281
5.21777 11.3672 1.52666
8.99282 6.22979 1.33946
7.95432 8.27816 1.43812
-6.50135 -5.75703 1.08128
3.70169 -7.56308 1.05461
8.62382 6.6493 1.36936
-6.47884 -5.35355 1.06395
9.03938 5.97907 1.38368
8.13206 7.09573 1.37697
8.06112 7.45842 1.40224
5.76947 -5.33849 1.00912
-6.98452 -4.45117 1.06344
8.0462 7.94429 1.4666
-7.37172 -1.0444 0.9624
-6.93491 -2.83122 0.9786
8.93519 4.08258 1.28651
8.3528 6.58969 1.39666
4.99272 -6.02116 1.02811
4.91077 -6.18533 1.04577
6.85999 -4.2763 1.07597
-7.14644 -1.72141 0.985862
-7.02192 -2.22389 0.985146
-6.03411 -4.42878 1.00096
8.08744 6.61944 1.41681
8.57059 4.41931 1.3147
8.58833 5.14125 1.36718
7.97866 7.0939 1.45316
-6.81973 -3.73972 1.05644
8.82187 4.14096 1.33395
8.22109 5.80244 1.37796
-6.40796 -4.33585 1.05903
-5.96599 -4.53159 1.02348
5.3145 8.9556 1.43828
3.60023 9.95958 1.47046
-7.38192 -1.09506 1.03392
-6.91578 -3.93367 1.1045
4.94426 -5.53834 1.02599
5.22308 -5.3929 1.04193
7.45205 -3.53154 1.15319
3.34541 10.0325 1.48158
8.36392 4.57758 1.34875
7.36398 -3.67262 1.1673
7.57503 -3.32962 1.17962
7.74904 -3.30021 1.19505
8.90472 2.80385 1.34371
4.82931 -5.63017 1.06615
7.34289 -2.84886 1.14662
-6.97001 -3.30563 1.12479
7.90458 -2.77484 1.22137
8.64644 -1.81623 1.29683
4.96954 8.50836 1.45433
2.91903 9.32968 1.45399
7.7192 -1.88475 1.17101
7.19373 5.72899 1.37016
3.41797 9.45526 1.48591
3.14952 9.68191 1.5086
-7.38429 -1.04535 1.10628
-7.08654 -2.02651 1.09889
6.91079 6.2559 1.40734
-6.27187 -2.27486 1.00165
-7.25325 -1.37778 1.11496
7.90445 4.79653 1.40856
5.67433 7.31163 1.40419
5.25828 7.58163 1.40414
5.02134 7.95738 1.42245
6.75132 -3.22176 1.13124
7.23604 -3.12028 1.2067
7.62397 -2.7511 1.23505
-7.33077 -0.734354 1.12561
-7.10932 -1.9578 1.13858
6.78081 -3.08906 1.15226
3.74965 -5.78627 1.06613
-7.06482 -2.07946 1.15503
-7.35983 -1.09493 1.16887
7.33001 4.75439 1.37986
-7.21125 -1.44605 1.17065
-7.28465 -1.30343 1.18788
-7.10943 -2.02242 1.20247
7.04014 4.7432 1.38567
-7.11316 -1.94873 1.21201
6.97968 4.84427 1.41116
6.58738 4.83169 1.36325
5.17948 6.21086 1.34713
4.64353 7.12651 1.42042
3.79183 7.86991 1.45184
-7.26218 -1.37596 1.23439
2.7936 -5.77927 1.082
7.11341 4.41088 1.40998
6.48452 5.21492 1.40377
3.87386 -5.36553 1.1157
3.93721 -5.02166 1.08014
-7.28551 -1.25469 1.25461
-6.60778 -2.62901 1.20703
7.39288 2.83871 1.34311
7.00428 3.87693 1.36421
-6.4231 -2.75679 1.18965
6.74909 4.08319 1.35411
5.67929 -3.51765 1.14976
-7.41003 -1.04156 1.29458
-6.36565 -2.28358 1.16314
5.53254 -3.64609 1.14204
5.31681 -3.77249 1.14263
3.57059 7.10966 1.39927
-6.81029 -1.73792 1.23485
4.47991 -4.46731 1.11332
-7.10494 -0.916269 1.2767
4.72455 -4.45712 1.14935
4.3033 6.45477 1.38414
6.56389 3.46215 1.3401
6.60243 3.66959 1.35692
-6.45092 -1.50277 1.19183
3.6096 -5.32739 1.17053
5.05324 5.58577 1.37907
-6.16323 -2.18614 1.19899
3.41442 -5.16047 1.15067
3.36409 6.72376 1.40634
-1.69671 -5.77876 1.14423
6.4258 2.72387 1.3281
-2.14233 -5.72537 1.1754
6.29042 2.78771 1.32455
-2.78699 -5.37566 1.18682
-3.54543 5.3845 1.39787
4.45546 3.88009 1.34825
4.15225 -2.87951 1.17724
4.62846 -2.18619 1.23674
4.18728 3.28208 1.31772
3.70949 -2.93186 1.2244
4.00901 2.56855 1.32999
-1.44185 -4.11444 1.22106
-2.31993 -3.57809 1.21227
3.85179 2.35928 1.30845
-2.87174 3.53977 1.3676
-2.47971 -2.91553 1.18935
-2.37715 -2.9366 1.19425
1.8456 -2.81551 1.18338
1.86855 -2.79358 1.21339
1.99455 -2.52943 1.19957
-2.04859 2.81497 1.32505
2.80435 -0.555778 1.25914
2.78339 -0.336867 1.24073
-2.08847 -1.61864 1.21299
-2.07632 -1.45087 1.23813
-1.86123 -1.79513 1.28326
-1.994 -1.13112 1.20468
-1.98555 -1.0701 1.23154
-1.94546 -0.880174 1.23186
-1.92994 -0.708278 1.22225
-1.92882 -0.701386 1.24948
-1.90533 -0.469617 1.22243
-1.87079 -0.345645 1.2197
-1.85559 -0.4011 1.22638
2.37832 -19.7069 -10.0164
-7.6205 -8.997 0.466301
8.00759 -8.78827 -10.4541
8.25414 -8.61955 -10.4914
8.20584 -8.28073 -9.87456
6.94941 -11.9434 -11.397
8.50469 -8.96159 -9.72849
7.84089 -8.92671 -9.12475
5.84426 -12.7868 -10.7198
9.41266 -8.82069 -9.73011
6.14142 -14.0822 -11.566
8.27636 -8.66775 -9.01083
8.00736 -9.15727 -9.09697
7.28304 -9.23464 -8.7628
5.90339 -14.1381 -11.1791
7.70819 -9.29398 -8.71314
7.8455 -9.1053 -8.65823
7.11986 -10.5679 -9.07282
6.81118 -11.0591 -9.20813
10.0346 -9.17591 -9.55028
6.53094 -11.1614 -8.85355
8.02276 -8.61694 -7.84033
7.35065 -9.26853 -7.86162
8.5042 -8.66942 -8.07252
7.70912 -9.45932 -8.01723
6.47798 -12.7574 -9.34357
7.92216 -9.16814 -7.90307
4.99866 -16.0304 -10.8006
-0.471541 13.9439 -8.92093
7.71716 -9.23212 -7.71633
7.32401 -10.8475 -8.33417
8.36571 -8.55385 -7.62292
10.8526 -9.60073 -9.19115
8.97601 -8.8059 -7.88645
11.7362 -10.0082 -9.66703
8.06097 -8.52351 -7.21784
4.03989 -16.8422 -10.6155
4.24643 -15.3717 -9.79241
7.83312 -9.34552 -7.30813
3.9513 -15.6283 -9.61291
11.4519 -9.80419 -9.02958
6.85366 -11.0606 -7.72678
7.76214 -8.80845 -6.95519
5.48076 -13.9823 -8.87382
6.47909 -12.6892 -8.33869
8.35023 -8.5825 -6.97849
9.67007 -9.06464 -7.72891
2.78784 -11.7855 -6.94245
5.46895 -13.8748 -8.44505
9.57692 -9.08854 -7.464
6.60818 -11.0548 -7.25236
3.35133 -20.7308 -11.7692
8.86475 -8.92514 -7.05211
12.1581 -10.2006 -8.89158
6.81376 -10.9907 -7.20455
4.6769 -14.5951 -8.47078
6.21238 -12.6039 -7.73062
0.897649 18.5519 -10.1093
14.5642 7.69559 -8.94832
4.19844 -14.2274 -8.01227
14.6724 -11.6107 -10.0868
14.9161 7.41191 -8.87041
13.9587 7.69058 -8.46629
4.76032 -14.8351 -8.279
12.05 -10.1226 -8.28238
1.81471 -20.5187 -10.5975
11.3859 -9.82629 -7.70567
2.0822 -20.2402 -10.3251
0.00702486 14.2787 -7.16636
-7.35081 15.2838 -8.50193
10.5686 -9.57751 -7.16713
7.50168 -9.40942 -5.99593
-8.57346 16.257 -8.88528
11.6089 -9.74964 -7.33812
10.4697 -9.56241 -6.80919
14.7289 -11.2922 -8.95263
16.5966 15.7208 -10.8578
7.4684 -11.0389 -6.35063
14.9501 7.38663 -7.82258
13.8802 -10.9913 -8.27559
-12.0574 17.2683 -9.65248
15.7739 -11.9525 -9.04225
9.7607 -2.44724 -4.62202
-9.13145 -1.66008 -4.22082
18.5835 17.9317 -11.6494
3.90962 -9.09093 -4.49184
-10.2981 16.8258 -8.86178
-5.36262 4.45989 -3.13748
6.84388 -11.2678 -5.93561
9.40906 -9.06867 -5.76396
15.9478 7.27496 -7.73175
-6.68199 15.1806 -7.24695
1.49954 -18.7529 -8.13706
-11.2736 17.1555 -8.8414
9.56753 -3.36529 -4.34381
7.00331 -11.0237 -5.52158
15.7595 -11.9135 -8.27055
14.5875 7.71102 -6.91948
18.609 19.3598 -11.2198
1.02109 -22.6837 -9.45299
-4.55718 13.947 -6.04753
-9.95946 -1.11395 -4.15357
14.0291 7.74628 -6.54187
20.2676 22.0455 -12.203
-13.1218 2.45912 -5.43892
15.0498 7.15046 -6.73737
-5.25652 14.4112 -6.17199
3.63422 -8.79867 -3.78944
13.8894 -10.967 -6.9168
19.1438 21.4243 -11.142
18.7197 5.77246 -7.59504
1.53663 19.1787 -7.45782
-8.80457 15.8677 -6.99865
11.3697 -10.0249 -5.83098
19.073 22.1113 -11.2448
0.684058 15.3495 -5.88269
-1.66513 12.8013 -4.96732
2.71261 -12.2428 -4.8114
-8.78936 -1.25532 -3.37496
0.70391 -23.7602 -8.96911
15.1179 -11.5856 -7.184
9.47678 -3.45792 -3.80517
-7.90621 -3.51211 -3.17312
1.09699 -10.4727 -3.87263
7.01409 -11.2145 -4.83773
14.1347 7.8921 -5.84322
-8.31002 -2.85313 -3.15956
0.790256 15.2527 -5.44454
-3.98132 13.4721 -4.97251
5.72666 -10.9669 -4.35447
15.7636 -11.9133 -6.99914
18.9897 5.86495 -6.99121
2.09834 20.4598 -7.20923
21.4011 25.8709 -11.6647
-15.024 18.5474 -8.19581
2.9645 -13.3114 -4.69453
-8.97038 16.2074 -6.33349
18.3766 -13.0159 -7.71928
-5.07583 14.5901 -5.25557
1.36385 -22.3402 -7.41655
1.75376 19.5203 -6.47212
1.44838 -10.3231 -3.44519
38.6898 -19.7777 -14.262
6.15842 -10.0305 -3.76797
17.4744 -12.3386 -6.85235
2.11008 20.5679 -6.5778
-13.4811 17.9994 -7.09322
1.45727 -22.8565 -7.13556
-4.33418 14.8449 -4.80832
-11.0543 16.7513 -6.08551
