ply
format ascii 1.0 
element vertex 1872
comment /media/mkaihara/Seagate Backup Plus Drive/model_iterations/model_17.ply
property float32 x 
property float32 y 
property float32 z 
end_header 
47.4959 -10.868 -2.16708
-12.1162 -36.8573 -1.65045
-30.2857 21.4099 -1.54536
-48.2241 26.1908 -2.18977
-31.2311 21.4933 -1.39196
-16.0886 -42.0741 -1.68895
-32.4151 -20.4123 -1.36814
9.98225 -9.29001 -0.501293
6.83449 -11.2072 -0.455132
-11.4143 -34.0279 -1.18663
7.80421 -13.6987 -0.537822
19.3753 -13.7233 -0.801582
-22.4718 -49.2183 -1.77883
-11.7629 -33.3727 -1.14505
22.6392 26.1114 -1.11452
-21.5895 19.1671 -0.910161
-19.8365 -49.6985 -1.70975
-39.581 -75.4931 -2.64
-17.6774 -45.2677 -1.50455
21.9974 -15.0011 -0.808956
-26.3325 -13.551 -0.897056
-11.1978 -35.8378 -1.11456
-22.4961 19.1154 -0.84889
-20.1086 -46.2783 -1.43249
-15.0131 -40.633 -1.24731
23.4498 -10.553 -0.776169
-32.3303 -19.6989 -1.04592
-9.48526 -12.4448 -0.446586
-19.446 -45.8603 -1.40325
18.7678 -13.9818 -0.595406
35.6554 59.5057 -1.80716
-27.8586 21.2562 -0.902024
-28.9278 21.1589 -0.887516
-26.0033 -12.4943 -0.706371
9.79418 -9.21683 -0.325538
-19.074 -30.7228 -0.841247
-37.5501 13.0255 -0.86981
22.2024 -14.8561 -0.566865
-48.6435 17.5444 -0.955412
19.1977 -13.8407 -0.443767
13.1979 -10.8427 -0.284524
-6.66978 14.4379 -0.278972
-31.3304 9.90834 -0.543961
-26.9766 -12.8462 -0.472311
-34.6936 -19.7576 -0.605083
-15.783 -38.6918 -0.643472
-7.24565 15.2387 -0.229967
-30.4302 -22.7322 -0.524989
-31.7277 -21.629 -0.48986
-28.5743 -57.7365 -0.793122
17.9767 -13.4124 -0.271933
18.9676 -13.6568 -0.296176
30.7365 -18.9532 -0.481362
-17.994 -46.0871 -0.596184
-28.0205 21.3635 -0.377352
-35.1491 -19.6482 -0.443175
-23.4429 -50.0247 -0.58373
-16.3735 -37.5554 -0.435386
-47.951 26.2792 -0.456676
-28.7377 -50.6956 -0.532335
-16.9757 -44.5235 -0.448601
39.7929 -9.61377 -0.376751
-13.3884 16.9939 -0.153366
-28.1055 -62.5891 -0.463339
-15.6763 -38.0234 -0.276609
-23.6664 -45.6138 -0.254707
-28.0499 -8.72228 -0.16965
9.80351 -9.22494 -0.0420733
13.5665 15.5268 -0.0448866
15.1921 7.99769 -0.0309697
-28.0257 -12.5024 -0.0547297
-26.8272 -19.6256 0.00805355
-11.1944 -16.2992 0.0251445
-12.2549 -18.4459 0.0435016
-16.4207 -37.6942 0.173722
9.66473 -9.2017 0.060607
-30.3256 21.4619 0.191095
-18.3222 -46.2557 0.246183
-28.7274 -13.3328 0.191114
17.4563 -12.737 0.120746
-12.4616 -19.107 0.150353
15.1951 -11.8366 0.151444
-48.5864 17.408 0.455268
7.37473 -12.6717 0.122875
16.5569 -12.2691 0.174829
-34.1168 -20.6451 0.420172
40.5297 -8.33046 0.430126
-33.0644 -20.7206 0.446341
-11.2232 -30.9999 0.388305
-11.6694 -31.3826 0.409262
-10.0658 -28.9866 0.376676
-8.68572 -26.8752 0.344894
30.929 62.6277 0.902851
9.81629 -9.23317 0.173944
-12.1678 -18.8552 0.307136
-9.71418 -29.4894 0.428822
8.75503 -8.6975 0.186766
6.59878 -13.5002 0.21844
7.38823 -11.3851 0.206869
9.56675 -9.27441 0.192149
8.2204 -9.32755 0.19852
9.95503 -9.2178 0.223171
39.9513 -8.55973 0.669672
-22.3788 19.1914 0.525953
-31.1723 -20.9727 0.648424
-32.1977 -23.6232 0.70166
13.2931 -10.9204 0.281634
13.6186 -10.9845 0.327614
-9.61817 -12.1951 0.293965
7.06726 -11.5827 0.264186
8.1837 -9.61811 0.247975
31.6353 65.0963 1.44404
7.20885 -11.3313 0.269617
9.38355 -8.87863 0.274095
11.8343 -10.172 0.341645
17.7245 -7.91685 0.390343
7.44608 -11.2976 0.305834
-9.17334 -11.8424 0.379656
-12.1818 -18.7008 0.53492
7.83219 -9.53566 0.280717
8.02213 -9.59372 0.289959
-23.9626 20.1406 0.810696
-27.7042 -8.88417 0.730628
9.8429 -9.15836 0.345486
18.149 -13.2584 0.566393
19.0427 -13.7121 0.58337
-21.5612 18.8776 0.74433
-25.8765 20.4511 0.85862
-27.7244 -8.32095 0.75829
-31.3419 -16.7115 0.966172
-12.7052 -19.1859 0.613458
15.236 -11.8385 0.514528
23.4581 -3.41321 0.666281
-11.6341 -18.1414 0.625229
25.8662 -4.90019 0.765493
17.5791 27.2815 0.969948
-26.5265 -19.5417 0.976789
7.47319 -11.7064 0.4165
7.18485 -11.0336 0.400513
15.8016 25.7416 0.924749
-7.46813 -8.62966 0.349308
13.409 -10.9722 0.528723
-7.15944 -9.30535 0.360029
-27.3932 -7.73182 0.947665
-11.3929 -16.6541 0.677299
8.06144 -9.57552 0.413721
16.6611 11.3831 0.721043
11.1256 -9.68769 0.535496
12.2102 -10.3165 0.582046
26.5123 53.3877 2.23474
-59.4036 21.6899 2.35109
-7.31006 -7.9809 0.4048
9.87081 -9.16309 0.502375
23.5305 -3.30379 0.911391
32.0287 66.2112 2.84331
-7.27634 -9.65799 0.47353
10.686 -9.74621 0.566914
13.0875 -10.8092 0.685376
22.198 -2.72063 0.910951
-27.6894 -16.7986 1.3259
-12.0651 -19.1622 0.959561
8.92864 -8.88859 0.520218
-6.78989 -8.30226 0.461383
9.64988 -9.1286 0.554864
13.1742 15.1233 0.884178
-27.7019 -8.12998 1.26923
15.5069 20.1979 1.14256
16.215 27.9192 1.43648
24.7384 48.6477 2.4105
6.52364 -14.5351 0.709194
11.1109 -9.74783 0.668
18.9344 -1.68044 0.868829
21.7981 41.505 2.19612
16.18 28.5086 1.53491
-10.9889 2.72567 0.544247
-7.08386 -9.33741 0.565788
9.37459 -9.18846 0.621199
11.6584 -8.94457 0.68765
20.6497 -2.36644 1.00044
11.9988 12.2285 0.849416
18.4047 44.2626 2.35426
7.89422 -9.35273 0.590356
7.94919 -9.6884 0.616277
10.4257 -9.49552 0.697819
15.6619 26.5586 1.54203
22.6745 43.9715 2.50866
21.5957 -2.69031 1.1058
-7.26291 -8.34421 0.574337
9.59651 -9.13705 0.68945
17.876 26.2142 1.66491
18.0574 32.7364 1.94929
13.3816 -11.0301 0.92089
10.9062 12.7494 0.896034
14.9794 20.3336 1.35506
11.3511 -9.84265 0.811868
15.8136 20.6038 1.43074
-24.6564 18.901 1.69494
-6.84053 -8.02544 0.583768
10.5948 12.8091 0.929669
-7.10765 -9.17561 0.650653
10.3275 12.8654 0.955608
-26.0465 18.3379 1.80606
6.39639 -13.5082 0.854472
11.5418 12.477 0.975644
-6.77789 -6.68928 0.552468
11.6333 12.4051 1.00014
-6.68054 -8.25512 0.636041
6.52809 -13.1221 0.8552
15.4286 20.5281 1.54262
15.0832 24.6611 1.72294
14.8713 34.3695 2.24607
-5.99859 6.38896 0.53645
-8.02352 -7.60267 0.66892
-6.98771 -8.01625 0.653519
5.98715 -13.0202 0.865266
-7.36412 -6.78007 0.62293
7.2364 -11.5295 0.840815
7.19615 -10.8756 0.813106
11.6287 -10.038 0.948169
12.4544 -10.4187 1.00566
16.6353 7.36746 1.15809
15.6744 20.3053 1.62145
-7.13271 -6.21621 0.613774
10.5111 -9.60006 0.918095
-7.27207 -6.16937 0.625672
11.8466 12.5007 1.17235
10.2436 23.061 1.71735
-7.11449 -9.44393 0.790692
12.0263 13.0438 1.21595
-6.87599 -4.40646 0.561573
-6.63094 -8.05362 0.711907
-6.6255 -4.38463 0.547835
9.48068 -9.0642 0.912494
10.2011 -8.0035 0.912756
13.2633 16.7166 1.54175
-6.57475 -6.56754 0.64588
10.0194 -8.46097 0.958305
12.0219 17.9758 1.62473
11.9953 19.1242 1.68536
10.1416 19.3029 1.6435
9.5987 20.7445 1.71847
7.98619 23.8033 1.88729
11.3688 19.6236 1.72686
10.2135 -7.7491 0.979636
-6.91697 -7.07553 0.758514
-16.7642 -6.08047 1.3946
9.65876 -7.83042 0.974083
9.88913 19.7519 1.74275
-6.31388 -4.21589 0.601705
-6.70742 -8.07282 0.832582
4.89641 -5.80633 0.603256
9.61558 21.1554 1.8426
8.2883 20.2656 1.76012
5.09344 -5.8703 0.625558
13.1769 11.8903 1.43714
12.1532 12.2078 1.40955
6.90056 -9.62658 0.961882
12.6203 12.071 1.43453
7.19881 21.1338 1.82753
-6.28963 -4.34189 0.622701
-7.01081 -9.27893 0.955341
11.9218 12.4901 1.42766
10.7342 9.39058 1.21355
-4.88983 -11.1568 1.03052
5.44725 -5.84745 0.709916
6.21283 -6.13176 0.761314
9.38719 -7.31294 1.02278
-6.69701 -6.59631 0.798861
10.7816 12.7772 1.45862
8.95946 -7.46552 1.01309
11.185 12.6087 1.47424
-7.18574 -7.63296 0.919507
8.3383 -7.42318 0.990515
10.5556 12.9021 1.49784
-6.95296 -7.61209 0.914572
-6.81209 -8.18908 0.956593
10.9534 12.7326 1.52436
10.8944 14.0533 1.61027
-6.98749 -8.17689 0.980381
11.5485 11.155 1.47603
-6.24964 -4.18774 0.691576
-6.73262 -8.43249 0.987938
-6.26208 -4.34834 0.702592
11.35 8.75919 1.34456
10.9136 9.56744 1.35244
6.84397 16.2583 1.65916
11.3957 11.3294 1.49903
10.8315 11.6527 1.50469
-11.0332 2.82727 1.07499
6.24343 -6.04848 0.828072
8.13734 -6.74591 1.01455
11.0137 9.43142 1.40689
9.8614 12.9757 1.57749
10.0485 12.8955 1.61009
7.94457 12.7059 1.4882
8.22688 13.7531 1.59491
11.4863 8.24838 1.44046
7.41983 13.2037 1.52832
9.34677 11.7135 1.52428
7.30192 14.1367 1.6283
6.16015 14.6382 1.63064
9.46305 10.7884 1.48265
9.34701 12.734 1.64081
11.6469 7.83196 1.46343
9.50575 10.2802 1.45722
5.03932 -5.8968 0.832005
-6.76859 -4.6035 0.863395
5.86157 14.6041 1.67072
-6.97881 -4.45543 0.882896
9.19248 11.0146 1.53993
-6.66803 -6.67765 1.00979
5.98931 -5.91157 0.908321
9.92085 8.73481 1.42416
9.19159 9.60043 1.429
9.52046 10.6132 1.54534
5.04857 14.6328 1.67136
4.33628 -8.24628 1.00803
6.67985 11.1756 1.43262
-6.73057 -3.88402 0.855161
6.5887 12.3543 1.55355
-6.82307 -3.82265 0.866227
9.91352 7.35577 1.37984
6.90344 11.7822 1.5208
10.0076 7.17538 1.38279
5.64973 12.0446 1.50454
5.66908 12.6062 1.56154
4.92048 12.8061 1.55286
10.0314 6.81815 1.38173
-6.81476 -4.51258 0.936006
7.51903 -6.32435 1.11922
-7.25869 -0.777748 0.83638
-6.20178 -5.32778 0.941739
5.31548 -5.63828 0.893435
9.07321 8.06633 1.41391
4.50181 -7.31887 0.994385
10.6014 5.24841 1.3847
9.15704 7.96619 1.42625
5.267 -5.68328 0.914728
8.79461 8.0954 1.41789
9.12709 9.28539 1.52288
-6.95788 -5.57899 1.05542
10.3155 4.83025 1.35649
-6.8465 -3.8116 0.943988
9.31162 6.25968 1.36029
5.4202 11.8815 1.58358
-6.82591 -3.03563 0.907394
-6.80969 -3.21946 0.910614
4.94852 -6.03482 0.951774
6.06073 -6.21801 1.05645
9.54182 5.72336 1.37492
8.63783 7.37452 1.40382
-6.87455 -4.26349 0.99641
-6.80549 -4.48469 1.00448
8.45897 8.7936 1.51347
5.23495 11.7737 1.60053
-6.47046 -5.54936 1.06103
3.79138 -7.74218 1.07301
8.69055 7.91348 1.47033
6.15822 -5.69152 1.05064
9.33766 6.17409 1.41811
-6.06441 -5.35122 1.02071
8.71526 6.74224 1.40476
8.26119 7.67027 1.43366
-7.03311 -1.76587 0.926989
-6.94654 -2.28398 0.933471
-6.37074 -5.25709 1.05397
8.98474 5.76025 1.36773
8.34117 8.22924 1.50989
-7.19259 -1.24099 0.935348
-6.82452 -4.07513 1.02754
7.56562 6.33332 1.27751
8.24185 7.18352 1.41732
8.15256 8.31266 1.50849
-6.84364 -2.79892 0.962283
-6.84434 -2.93721 0.962605
4.71593 10.4442 1.50662
9.13405 4.17324 1.3213
-7.1767 -1.59041 0.965505
6.91621 -4.30682 1.08222
4.99546 -6.02444 1.0368
-7.2604 -1.10606 0.982458
-6.94717 -2.1783 0.973503
-6.98338 -2.24672 0.979654
-5.93546 -4.35459 0.983787
5.26912 -6.6666 1.1316
6.98752 -4.22262 1.09852
8.23878 7.31712 1.49246
-7.08213 -1.70159 0.978715
-7.01452 -1.93689 0.978285
8.93556 4.93322 1.38583
8.47902 5.97687 1.41006
-6.85036 -3.58207 1.05321
9.00093 4.22443 1.36331
3.49717 10.9931 1.58064
-7.24034 -1.18805 1.0038
-5.95015 -4.39714 1.01755
-5.93015 -4.49445 1.01868
7.22754 -3.9779 1.1333
8.22402 6.60816 1.45875
5.50985 9.31303 1.49871
-6.31689 -4.27722 1.04581
4.99435 -5.59444 1.04104
7.26504 -3.87218 1.14516
7.64581 -3.72831 1.1764
3.76491 10.4462 1.54727
3.58352 10.7843 1.58565
-7.29549 -1.07129 1.02883
-7.00548 -1.98446 1.01422
5.03083 -5.34969 1.02586
7.32714 -3.77903 1.15763
7.44537 -3.71326 1.17944
7.96323 -3.39517 1.23008
-7.08504 -1.85644 1.04117
-6.93861 -2.91663 1.09047
-5.9485 -4.33016 1.05819
7.99457 -2.8137 1.23946
8.35985 4.69217 1.40418
5.1307 8.78975 1.49208
8.49874 4.57668 1.42622
7.91587 -2.36624 1.21735
7.26725 5.78521 1.39076
3.08299 9.84311 1.54371
-7.02496 -1.99987 1.09426
7.56663 -3.14404 1.23467
8.35526 4.61764 1.44669
5.91517 7.60755 1.46344
5.41602 7.81381 1.44898
5.25545 8.14275 1.47242
5.2105 8.25854 1.47826
7.41386 -3.20435 1.23302
7.76459 -2.78667 1.25568
-6.69406 -1.66732 1.03861
7.91774 -2.28158 1.26303
7.35492 5.51619 1.41149
-7.03442 -1.93341 1.13165
-6.85238 -2.75868 1.14783
6.92818 5.61969 1.39911
-7.28167 -1.08475 1.14932
-7.07459 -1.80634 1.14308
-6.9784 -2.04751 1.13909
-7.05165 -1.85424 1.14377
-6.82746 -2.90546 1.16457
4.92552 7.63766 1.44575
3.49459 -6.11574 1.12369
-7.20383 -1.28656 1.17173
3.57272 -5.77936 1.0936
3.60859 -5.68125 1.08245
7.18689 4.84453 1.41214
4.77519 7.55819 1.45551
-7.0027 -2.00391 1.18665
-7.02443 -1.92808 1.19487
7.08113 4.90694 1.42462
3.9304 8.16602 1.50134
6.10991 -3.35027 1.16019
6.74302 4.95369 1.39493
4.77347 7.33716 1.46061
3.87873 -5.35863 1.11096
7.2185 4.49511 1.43165
7.57606 2.897 1.37045
6.43044 5.37572 1.4205
-7.20736 -1.24334 1.24493
6.85428 4.14416 1.37539
-6.3921 -2.7467 1.18682
5.55888 -3.66211 1.14291
5.74246 -3.55042 1.15857
2.84871 8.12057 1.48933
-7.29897 -1.02915 1.27732
5.38133 -3.817 1.14946
-6.25634 -2.2401 1.15194
-6.21707 -2.39579 1.16627
4.3211 -4.70795 1.11675
4.53494 -4.51773 1.12217
4.63372 -4.48952 1.1312
-6.73862 -1.71665 1.22449
4.42824 6.64408 1.42488
-7.09047 -0.919328 1.2774
-6.09257 -2.23878 1.1558
6.73367 3.74442 1.38099
6.19243 4.42805 1.38078
3.64821 -5.38525 1.182
5.24391 5.79171 1.42932
2.59454 7.42706 1.47946
6.5685 3.09153 1.37245
-1.68529 -5.71192 1.12802
6.48289 -1.39804 1.25785
6.3496 2.81184 1.33681
6.28967 2.40889 1.34357
-4.39679 3.88998 1.37789
4.37723 3.5772 1.35241
4.2583 3.32936 1.33846
4.6907 -1.6868 1.25132
4.84608 -1.38866 1.26077
-2.10569 4.71353 1.28604
3.74501 -2.96704 1.22781
3.6882 -2.5598 1.19812
3.42087 -2.97386 1.23046
4.03883 2.5918 1.34137
-2.58142 -3.51628 1.2444
-2.31483 -3.55323 1.21025
3.78135 2.07252 1.31127
3.75709 1.99391 1.31044
-2.81439 3.44935 1.37052
-2.28986 -2.41215 1.1833
1.95693 -2.78287 1.2135
-2.1096 2.74684 1.31279
-2.01578 2.73553 1.31916
2.25169 -1.87028 1.22583
2.3815 -1.49892 1.22311
-2.00779 1.86794 1.28799
-2.0611 -1.44035 1.22527
1.44732 -2.06686 1.24391
-1.98976 -1.08605 1.2115
-1.9227 -0.70667 1.21704
-1.9244 -0.702446 1.24255
-1.9533 -0.343888 1.22564
-1.89079 -0.563924 1.22689
-1.8904 -0.530185 1.23195
8.35622 -8.84111 -7.5848
12.405 -10.5224 -8.99828
-8.38371 14.956 -6.64586
21.6703 26.3975 -12.2814
-8.69209 -2.4893 -2.54781
-32.3215 -21.5909 -7.18093
-31.9967 -20.9249 -5.64111
-31.7178 -21.5549 -5.69511
-29.477 -18.9047 -2.63274
9.50955 -9.05772 -0.40126
-7.08819 15.279 -0.415824
-28.1684 -10.9002 0.69669
-6.79449 -8.12066 0.452656
17.8858 25.6837 1.69837
11.9312 16.7799 1.70205
-6.60078 -6.57441 0.871429
4.44211 12.8911 1.57211
8.9601 9.33333 1.51292
8.08686 -8.88622 -10.5223
8.25093 -8.15843 -10.0478
8.96565 -8.66579 -10.6507
7.05313 -12.0919 -11.661
6.96737 -11.4977 -11.0352
8.27195 -8.38302 -9.66735
7.11393 -12.1757 -11.4625
7.16687 -11.1215 -10.5955
8.12196 -8.50024 -9.33652
6.82368 -11.437 -10.4254
6.53596 -11.8514 -10.3454
7.87457 -8.98079 -9.10209
6.29063 -14.4942 -11.9522
8.43104 -8.83683 -9.24137
6.38822 -12.065 -10.3062
6.22926 -12.2367 -10.2349
7.61173 -9.59311 -9.13947
8.02972 -9.18991 -9.05686
10.6767 -9.63641 -10.6924
6.19302 -14.2631 -11.4894
6.1645 -13.7917 -11.1035
6.21425 -12.7335 -10.4172
9.35832 -8.97863 -9.5101
9.44821 -9.22984 -9.62971
5.94494 -12.6621 -10.1574
9.52531 -9.14502 -9.42017
6.97514 -11.3024 -9.42133
5.69014 -13.1262 -10.1216
9.8757 -9.25103 -9.58605
7.73032 -9.48907 -8.60163
10.1897 -9.36124 -9.71711
11.1319 -9.67733 -10.3462
11.6859 -9.9041 -10.2835
8.52346 -8.74776 -8.08306
7.55567 -9.4513 -7.99139
8.30862 -8.86657 -8.02826
12.4326 -10.6539 -10.7101
7.75771 -9.50725 -8.02439
7.97042 -9.55851 -7.97308
8.46263 -8.67869 -7.74584
0.343249 15.8082 -10.0899
7.65772 -9.48164 -7.75243
11.1406 -9.80731 -9.43319
7.36087 -10.8962 -8.31805
8.29445 -8.64015 -7.55026
4.65817 -15.5257 -10.1913
8.85572 -8.83958 -7.7388
8.05677 -9.18368 -7.53249
4.0803 -18.1095 -11.4322
8.33756 -8.77213 -7.39565
4.105 -17.3402 -10.8716
0.130744 14.8095 -9.01225
6.77605 -11.4607 -8.10165
7.87357 -9.42121 -7.44657
10.3452 -9.51288 -8.52399
6.94367 -11.4469 -8.03319
8.20392 -9.3651 -7.47015
11.522 -9.91267 -9.08351
5.48204 -14.0463 -8.9386
7.87068 -9.42539 -7.27891
9.52855 -9.20269 -7.84633
7.03049 -11.315 -7.88003
8.12466 -9.28647 -7.23693
9.95041 -9.37167 -7.96264
15.2074 7.60037 -9.87962
8.83248 -8.99734 -7.28219
7.0597 -11.1585 -7.58469
2.67273 -11.327 -6.6903
8.00067 -9.23125 -6.99319
7.54934 -8.98613 -6.66017
9.802 -9.32565 -7.68205
11.0221 -9.6948 -8.27744
0.115902 15.2585 -8.6077
3.27076 -20.4562 -11.6502
6.92044 -11.1679 -7.36173
10.3182 -9.4843 -7.84523
12.6568 -10.6186 -9.26077
9.42046 -9.18093 -7.34733
4.68776 -14.4916 -8.48725
8.15704 -9.39015 -6.90472
15.1317 7.73745 -9.33622
9.89637 -9.29203 -7.45222
0.819935 17.4529 -9.54384
2.72737 -19.6575 -10.8224
11.3784 -9.8582 -8.17077
4.31295 -14.6669 -8.27071
15.0413 7.86738 -9.14898
15.4904 10.6976 -10.1149
14.3545 7.92052 -8.76592
11.1974 -9.83282 -7.92103
13.6238 -11.0928 -9.34148
3.02886 -19.155 -10.1958
11.6203 -10.052 -7.8146
2.15983 -20.1735 -10.2412
10.4951 -9.55389 -7.13338
14.6647 -11.5969 -9.383
14.2049 -11.488 -9.14153
11.27 -9.88371 -7.46475
7.655 -9.51723 -6.04534
3.60866 -8.56927 -4.57998
-8.58997 -1.88604 -4.3236
2.20282 -19.8555 -9.80025
4.58619 -9.40252 -5.11412
0.390225 13.6467 -6.68519
7.75468 -9.44642 -5.9608
-8.17488 15.5841 -8.51511
-9.07592 -2.39932 -4.52314
15.4536 -11.9324 -9.37834
19.9321 5.70348 -9.91891
-10.1569 -2.51471 -4.94896
1.90224 -20.3337 -9.71189
17.8475 16.7771 -11.6111
7.74968 -11.452 -6.5207
20.6215 5.5665 -10.063
14.4158 -11.4113 -8.54618
2.96894 -17.5039 -8.25211
19.9169 5.89334 -9.59976
18.4703 -13.4587 -10.5517
9.99523 -2.52478 -4.764
20.8887 5.29483 -9.94638
17.9866 16.9191 -11.3885
1.79576 -19.9196 -9.15509
9.87007 -9.22769 -6.18454
-9.08738 -1.64946 -4.21176
9.57729 -3.51431 -4.64662
6.86774 -11.5718 -6.11641
10.0445 -2.65322 -4.71295
19.8082 6.04049 -9.32736
18.4422 18.2983 -11.6893
9.489 -3.12591 -4.49742
15.9319 -12.2585 -9.01684
7.20248 -11.828 -6.18993
7.30394 -11.1447 -5.93572
9.68619 -3.45004 -4.58238
-9.62301 15.7592 -8.21341
18.2797 -13.3393 -10.0512
20.1061 5.79241 -9.27823
16.528 7.49763 -8.0418
18.5658 18.7584 -11.6826
16.9665 -12.6167 -9.31463
-10.7446 16.3291 -8.58329
-6.31846 14.4205 -6.89544
-5.15416 4.83277 -3.0758
20.737 5.63079 -9.34585
9.68518 -3.45034 -4.43743
19.0036 19.2669 -11.6417
16.336 -12.5699 -8.86549
15.2319 7.61689 -7.27314
3.90259 -9.44952 -4.3409
-10.6883 16.2458 -8.22481
7.09798 -11.1429 -5.56725
-13.2846 3.25553 -5.76094
0.73901 -21.8468 -9.21478
16.2911 -12.3329 -8.54146
-5.0734 5.58449 -3.15365
0.987397 -21.6947 -9.10685
1.2302 -20.5325 -8.61804
14.5138 7.78531 -6.89373
19.3881 20.2109 -11.7125
3.84211 -9.08825 -4.11218
15.1436 7.92568 -7.11972
18.7065 19.9853 -11.3706
-9.3819 -1.07679 -3.89784
4.0583 -8.60428 -3.89584
14.3794 7.94104 -6.74827
6.99882 -11.2307 -5.40645
-13.3332 2.49054 -5.54727
-7.64075 14.789 -6.75688
20.204 21.9604 -12.1007
15.4572 7.42801 -6.91442
-5.09379 13.8865 -5.92374
14.3714 -11.3611 -7.17207
4.02204 -9.27802 -3.96654
1.54036 19.5553 -7.62498
-8.37564 15.1156 -6.70795
19.5417 5.95997 -7.91987
-1.72407 12.9696 -5.0642
5.39772 -9.57071 -4.23464
-2.33464 13.1504 -5.12591
20.6297 23.8721 -12.11
4.73565 -8.64856 -3.74244
19.9923 5.73571 -7.91825
0.848947 -25.2197 -9.59638
15.3802 -11.8512 -7.30375
20.5791 5.57565 -7.98355
9.56879 -3.48632 -3.80787
0.520061 -21.5829 -8.05219
3.32407 -11.0316 -4.30062
21.2998 24.7883 -12.1491
0.906195 -8.64764 -3.22575
14.4455 -11.4389 -6.79129
21.0102 5.34401 -7.97454
18.671 18.4533 -9.60255
-12.7728 2.23763 -4.71333
22.0575 26.3489 -12.4756
2.32655 -13.445 -4.9129
13.4014 -10.8366 -6.19886
0.787689 15.5476 -5.57412
-8.10157 -2.76472 -3.06195
0.404943 -20.935 -7.49039
-4.06259 13.3044 -4.94153
0.629011 -21.1741 -7.53206
16.3938 -12.3808 -7.27797
-14.9426 17.2707 -8.04167
6.05035 -11.5636 -4.58583
-10.5112 15.8554 -6.63724
0.0999833 -17.8318 -6.27306
14.6941 -11.644 -6.55263
20.9642 5.52149 -7.57049
0.645246 -22.148 -7.65672
-4.80771 13.9334 -5.04327
3.70268 -8.59013 -3.21768
4.96633 -9.19512 -3.57884
-13.7796 17.103 -7.51105
2.30397 -10.9981 -3.84905
-8.47591 15.3661 -5.97484
3.11773 -14.075 -4.91033
-14.2296 17.4603 -7.62923
20.7779 5.64952 -7.24088
23.5423 29.1309 -12.5316
38.5892 -21.7821 -14.8018
-5.08095 13.4586 -4.77093
1.93969 21.2033 -7.07205
1.27137 -10.2364 -3.41051
19.9242 -14.4821 -8.17648
34.6224 -21.7639 -13.4423
-5.03446 13.8419 -4.77733
-11.9739 16.3875 -6.57753
19.3107 -13.7603 -7.6965
3.60996 -8.78732 -3.04419
6.35881 -10.3351 -3.88618
12.6764 -10.3314 -5.25103
2.33545 -11.0847 -3.60367
-4.15793 -31.3305 -10.0554
-1.05949 -22.4307 -7.15513
15.4819 10.6635 -5.93825
-12.5584 16.7063 -6.59989
-17.0098 18.3437 -7.85776
3.08472 -9.94076 -3.28012
13.6444 -10.7586 -5.46507
7.14853 -11.3889 -4.15393
1.35341 -21.1833 -6.5696
-2.37861 -25.4524 -7.85501
7.5786 35.0987 -10.9715
0.762568 15.1288 -4.60469
-10.5807 15.9592 -5.765
-2.48467 -24.4911 -7.4222
-13.6101 17.0132 -6.49494
-4.85109 -31.8955 -9.61473
0.805474 -23.6548 -7.08294
-5.13906 14.1159 -4.46176
2.112 21.1777 -6.27742
-20.0811 18.7219 -8.09455
18.7325 5.9614 -5.78975
-4.11315 13.7871 -4.22419
-7.54921 14.6371 -4.82554
4.34892 -9.33895 -3.0254
4.76057 -11.9185 -3.74932
20.4222 -14.5961 -7.39617
-12.3695 2.17906 -3.60909
-29.4982 -41.7887 -14.7259
-14.4079 17.3293 -6.47296
7.16303 -11.4061 -3.87426
2.608 -9.69598 -2.85088
13.3005 -10.7649 -4.86728
-8.34715 -2.42929 -2.46514
22.4641 28.9805 -10.4009
-8.47188 -2.23289 -2.47576
-2.32594 -23.8201 -6.72579
-12.7638 1.9559 -3.59533
50.9768 -16.3965 -14.8959
4.51859 -11.6584 -3.46683
-8.84287 15.2015 -4.82227
-12.3876 16.5176 -5.66547
-5.13052 13.6771 -3.98626
-7.56172 -36.7753 -10.283
9.96798 -9.08485 -3.66869
-20.2291 18.8759 -7.43307
-9.24047 15.3173 -4.78832
-25.0825 19.2668 -8.40961
11.7889 11.8671 -4.4194
4.46156 -11.6387 -3.29853
50.8115 -14.7708 -14.015
-7.22499 -34.1302 -9.18088
4.19018 -8.86824 -2.58017
11.4699 -10.2013 -4.01362
-13.6749 17.1196 -5.69218
6.69847 -10.6789 -3.26035
3.25393 -9.8672 -2.68347
-27.0119 -39.5641 -12.3766
-3.91609 -25.7251 -6.74244
3.64022 -10.6535 -2.89993
4.17109 -9.62017 -2.6925
16.155 -12.1471 -5.15471
-6.77031 14.4156 -4.02502
-28.4614 -37.9584 -12.0362
4.44459 -11.4796 -3.11227
4.34816 -7.8724 -2.28696
6.72466 -10.9668 -3.20549
48.1844 -14.5683 -12.5479
-26.4525 19.9566 -8.18794
-10.9231 16.0444 -4.77985
-25.056 -36.5548 -10.9017
-8.75638 -34.4895 -8.78707
-22.9905 19.3092 -7.37378
4.46771 -10.6054 -2.82473
-11.4265 16.3634 -4.83419
-7.44142 14.492 -3.92119
10.5266 -9.49444 -3.39271
43.0099 -14.2867 -10.8426
15.5232 7.7639 -4.13566
-5.58828 -32.0501 -7.75961
4.05781 -9.29426 -2.40092
50.6348 -13.552 -12.4383
-25.9757 -38.8013 -11.0712
-10.5819 -38.9859 -9.57991
4.32713 -9.25753 -2.43505
-24.0034 -34.8267 -9.9212
4.019 -11.5214 -2.87161
5.02612 -8.90042 -2.4026
-12.0932 16.4773 -4.75198
3.34678 -9.87869 -2.39558
-6.78642 -32.0349 -7.58626
11.2951 -9.89791 -3.43092
-5.58552 -28.3576 -6.60246
-25.4465 19.6527 -7.2845
-10.1822 -36.6659 -8.61045
44.2794 -9.68395 -10.2849
-28.4429 20.6503 -7.87667
-33.175 -21.7405 -8.88843
-4.96828 -23.6817 -5.40147
43.4784 -13.4405 -10.2158
5.5944 -9.71521 -2.5009
-12.1604 2.77474 -2.73635
43.3371 -12.7002 -9.97593
45.5564 -12.9985 -10.4208
30.4484 42.8894 -11.5364
-5.07632 13.3078 -3.10855
13.8141 -11.1159 -3.90095
40.4626 -13.0032 -9.34139
-21.9624 19.1407 -6.31556
-24.0777 -59.3714 -13.9134
4.43697 -9.98344 -2.36658
13.1256 -10.8222 -3.72605
4.66428 -9.43162 -2.27044
-13.7628 17.1453 -4.69113
-28.8017 20.9205 -7.59759
-29.5832 20.9939 -7.75082
-22.6462 -60.0935 -13.7776
-10.0975 15.7751 -3.96701
-7.49244 -31.8273 -6.96099
3.29415 -9.99421 -2.24111
4.09698 -10.15 -2.33096
49.1798 -11.4027 -10.7753
15.3502 7.68918 -3.64318
-14.2926 17.5923 -4.7949
5.29505 -9.28333 -2.24341
29.3991 42.5462 -10.8223
-36.9471 24.2714 -9.26362
-25.8877 -25.3345 -7.52277
15.4025 8.06136 -3.61285
-28.3477 -21.8931 -7.43137
-25.8649 -66.3275 -14.7517
43.1769 -11.6197 -9.24571
-10.8102 15.9254 -3.9072
-14.7348 17.4199 -4.64112
-32.548 21.8486 -7.96232
47.5893 -10.3806 -9.93181
-11.5232 -37.0866 -7.90132
4.26503 -10.0352 -2.21594
4.40275 -10.0248 -2.22914
11.9248 -9.91281 -3.15361
-11.3244 16.2491 -3.94966
-16.7375 -48.0466 -10.1777
-7.63331 -29.5502 -6.11295
-7.01815 -28.6853 -5.9261
-11.4541 -35.5922 -7.40949
4.19958 -10.234 -2.18769
-31.9705 -21.8612 -7.63581
-25.0168 19.6337 -6.25588
-31.0722 -22.2265 -7.44789
-6.48162 14.3159 -3.0454
-22.3061 -52.419 -11.0735
-31.5114 -20.9781 -7.29565
3.54912 -9.66736 -1.98604
49.2635 -11.4142 -9.70918
-12.0217 16.412 -3.88535
4.11402 -9.63524 -1.99702
-34.1423 -20.7391 -7.56246
-19.4733 -31.635 -7.06821
-13.5357 -39.0619 -7.82944
40.3139 -13.2987 -8.02326
-33.1961 22.2955 -7.48064
-31.5886 -21.8158 -7.2125
-30.6032 -22.3906 -7.11887
-18.2785 -45.289 -9.19665
-14.6978 -39.9296 -7.89918
3.92553 -9.45704 -1.88935
45.5503 -12.2768 -8.75906
5.92018 -9.98592 -2.12569
-20.9319 -47.4669 -9.50454
-17.6751 -43.8776 -8.5621
-13.7053 17.0833 -3.88021
-29.1298 -23.4939 -6.65294
-18.9965 -25.3142 -5.66155
-21.8106 -56.996 -10.8384
-36.2142 22.8516 -7.55247
-25.0109 19.6382 -5.5322
-31.565 21.5997 -6.63823
4.04581 -10.3966 -1.93202
4.89428 -8.83288 -1.75338
14.3731 7.71911 -2.81702
14.4637 8.30025 -2.8594
-28.6674 20.8463 -6.07399
45.2116 -12.7915 -7.998
44.9328 -11.6374 -7.90034
47.4189 -11.0059 -8.33649
-29.2875 -23.2598 -6.34517
-17.2208 -28.1815 -5.62352
-19.7591 18.8177 -4.57937
-17.5526 -43.633 -7.95253
15.263 7.65018 -2.86642
-29.4681 20.8614 -6.0286
6.81739 -11.3513 -2.2245
16.7607 -12.4811 -3.44329
-20.0647 -47.843 -8.5784
41.4929 -13.0838 -7.08962
46.7199 -12.5862 -7.86337
-9.74213 15.4646 -2.94618
-17.7572 -44.0566 -7.58122
-32.635 -22.5281 -6.24914
-21.3628 18.7689 -4.45064
-23.9419 -15.0095 -4.46279
-22.6292 19.3175 -4.60916
-36.8951 22.3387 -6.68138
-10.5607 15.8048 -2.93147
3.60129 -9.88083 -1.62421
4.02221 -10.6334 -1.75784
-7.12336 14.4456 -2.4563
-28.8563 21.0024 -5.45362
-29.7611 -22.9866 -5.71862
-26.1704 -24.4797 -5.42941
-18.8714 -43.8662 -7.27804
45.1617 -11.7409 -7.09192
48.1403 -10.4883 -7.5056
-6.11891 13.6254 -2.23102
9.99507 -5.23912 -1.67503
-31.3586 -22.6175 -5.75808
-21.8448 -55.2429 -8.81612
10.4574 -9.40239 -2.09481
48.3273 -11.1802 -7.3658
-34.2168 -22.7778 -6.04965
-29.4575 -24.2978 -5.58623
-11.0167 -36.5103 -5.6163
17.5651 -12.7082 -3.17426
-23.7331 19.5402 -4.4657
-37.2985 23.0037 -6.39146
-21.1308 -47.3495 -7.47583
-7.13196 14.2822 -2.27931
-11.9597 16.3057 -2.88063
6.27124 -11.9799 -1.93
-12.598 16.8378 -2.95151
-32.092 21.679 -5.44303
6.99409 -11.4239 -1.87035
40.0261 -13.2096 -5.92709
-29.1809 -23.3827 -5.21899
-30.5356 21.9445 -5.20738
-27.4413 -23.2254 -5.00485
-17.7978 -42.8991 -6.41869
48.4955 -10.8493 -6.85189
-14.9474 2.79786 -2.09312
-6.4022 14.1558 -2.11954
-18.927 -49.4009 -7.19133
7.95101 -9.62184 -1.67408
9.4194 -9.27291 -1.82236
-13.166 16.8106 -2.87631
13.638 -10.8776 -2.35934
-20.8193 18.9377 -3.78278
45.0872 -11.6576 -6.18192
48.1714 -10.5518 -6.52671
-21.2017 18.6577 -3.69152
-30.6107 -22.9054 -4.99374
-13.9976 17.1404 -2.85941
-31.5362 21.0488 -4.92099
-36.0755 -15.2324 -5.0558
7.23797 -10.7641 -1.66287
9.03067 -9.28377 -1.69492
11.054 9.05102 -1.83766
-31.6867 -21.8363 -4.92453
-29.1618 21.2889 -4.56582
-33.3502 -20.8107 -4.92706
-28.0425 -57.3143 -7.97165
44.9196 -11.6171 -5.80575
7.01277 -10.6981 -1.59701
-7.1525 14.3047 -1.97741
-23.3723 19.6254 -3.73571
-30.9052 21.7811 -4.66255
6.55534 -12.5709 -1.72513
48.1109 -10.2646 -6.02517
15.4268 8.08251 -2.09672
-15.7834 -38.2291 -4.98976
7.31296 -10.8684 -1.57593
-19.7551 8.75536 -2.55733
-12.422 -37.5805 -4.65717
-29.8412 -23.007 -4.40581
-29.3438 -23.4676 -4.39676
45.0369 -12.0643 -5.47928
11.5455 -9.94275 -1.76451
-27.752 21.043 -4.0058
6.8686 -11.1909 -1.50181
7.67891 -9.45387 -1.39238
-20.9067 -50.2504 -6.13105
11.9135 -10.0012 -1.76601
9.59749 -4.68216 -1.20957
15.4005 7.91419 -1.95413
-9.70675 15.4526 -2.05747
-29.8037 21.7779 -4.13414
41.5206 -13.6684 -4.90117
9.59304 -9.25095 -1.47378
-10.3918 15.5852 -2.0346
7.09736 -13.3608 -1.63681
48.2849 -10.4943 -5.35649
11.0593 9.08861 -1.54577
17.4296 -12.9473 -2.32921
45.2575 -11.7381 -5.00946
9.86263 -9.20613 -1.42882
8.57295 -8.66004 -1.27608
-28.9636 -23.1776 -3.8624
-25.5414 -51.2322 -5.97343
15.3953 7.72116 -1.76225
-29.7913 -22.9709 -3.85942
-12.0689 16.4524 -2.07047
-12.0116 16.0928 -1.99479
10.4718 -9.32334 -1.37303
-17.7378 -45.0494 -4.7484
6.60016 -12.6394 -1.37837
9.72464 -9.18118 -1.26453
-49.5785 27.616 -5.48036
17.2832 -12.6448 -2.05756
45.1498 -12.1326 -4.48099
-25.8725 -52.2994 -5.54769
-17.5725 -46.1176 -4.68873
-21.8166 19.0829 -2.70904
49.116 -10.9267 -4.69959
9.96355 -9.21561 -1.25592
42.473 -14.011 -4.16692
-14.0902 17.2725 -2.01776
-28.3011 -12.9033 -2.83488
-27.2329 -53.0895 -5.50038
16.4467 -12.3103 -1.86799
8.84548 -8.93873 -1.13833
-34.0549 -19.3144 -3.42902
13.3022 -10.9804 -1.50137
48.6618 -11.2792 -4.27899
9.64108 -9.25773 -1.12317
11.2569 -9.91311 -1.26032
-31.5817 21.6891 -3.18792
17.4963 -12.7589 -1.79278
-14.746 -38.3728 -3.29335
15.2011 -11.8864 -1.5381
-34.9511 -68.3012 -6.09348
-10.548 -29.5311 -2.47586
-27.6855 21.0512 -2.68955
-30.6281 21.6494 -2.8954
-19.5118 -44.5714 -3.75642
7.80374 -9.54928 -0.98384
-46.2788 25.1874 -3.98977
-20.0255 18.8474 -2.00033
-30.8175 21.7986 -2.73573
17.0138 -12.7128 -1.55301
45.1939 -12.0943 -3.40831
-32.2424 -61.0069 -4.97873
14.4494 -11.4326 -1.3181
-13.6453 -36.1984 -2.67015
11.0665 -9.8832 -1.01621
-21.8323 19.1165 -1.95996
13.2815 -10.9594 -1.15224
18.7011 -13.5638 -1.53947
-19.9532 -45.9728 -3.3119
16.6564 -12.5988 -1.37867
-12.8503 -35.6297 -2.4501
47.2162 -12.2801 -3.0495
-26.6427 -53.9834 -3.67221
37.9842 -9.21522 -2.39901
46.2007 -10.5749 -2.9099
6.38424 -13.8003 -0.907538
33.1378 -21.9275 -2.37625
-9.1954 15.3507 -1.05152
-13.7044 -35.7503 -2.17957
17.2642 -12.9025 -1.20963
-9.39799 -12.183 -0.843082
15.3945 7.8981 -0.937742
14.3708 -11.3761 -0.981126
-11.9973 16.2586 -1.05551
-14.5202 -35.9901 -2.06026
15.2872 8.03864 -0.84874
-14.3125 -36.5855 -1.92657
-13.2756 16.8272 -1.02528
9.81056 -9.25406 -0.618463
-20.3871 -46.7662 -2.3066
12.8347 -10.5513 -0.770075
-13.8296 -38.5519 -1.81713
-15.1024 -37.2097 -1.71782
7.18864 -13.2746 -0.668956
-12.0492 -36.7317 -1.6455
-47.4406 25.8004 -2.18853
19.1246 -13.7399 -0.955282
17.473 -12.9879 -0.84756
-33.3495 -64.7284 -2.74318
-15.6632 -41.0746 -1.61708
-31.1304 21.3899 -1.38237
45.7277 -11.7825 -1.70065
-28.5195 -56.7305 -2.12081
-21.9518 -48.1079 -1.77762
21.5736 24.9517 -1.09981
-20.0675 18.8057 -0.896966
8.55905 -15.1067 -0.582408
9.66299 -9.22494 -0.43305
11.6306 -10.2392 -0.503621
19.3929 -13.7125 -0.780276
37.0395 -13.9702 -1.31366
23.7396 28.7374 -1.20035
-26.1638 -13.1235 -0.916757
-21.4171 19.0725 -0.87496
-29.4095 20.8297 -1.12574
-21.0662 -48.4321 -1.63282
-12.1637 -34.413 -1.12249
-18.1888 -46.4 -1.50624
-14.3629 -38.9269 -1.18647
-32.0106 -19.4087 -0.995734
11.778 -9.99188 -0.413765
16.9707 -12.6227 -0.557394
-37.6163 23.2712 -1.16768
-28.0759 21.3636 -0.873989
-28.9705 20.5861 -0.910198
-28.586 20.9505 -0.839056
9.8137 -9.23858 -0.312301
-38.5665 13.3299 -0.902678
-19.0992 -30.7105 -0.847176
-27.4237 -45.9228 -1.20129
22.2908 -14.9084 -0.589221
32.5595 -19.7435 -0.858883
14.5539 4.02214 -0.309468
-45.6141 16.4452 -0.948032
31.9811 55.8901 -1.19235
24.586 -11.4463 -0.477767
50.9658 -11.7361 -0.97335
-28.8667 -20.7448 -0.646718
-27.5063 -27.0166 -0.609308
-16.4773 -40.4326 -0.723988
13.1225 -10.7912 -0.279571
19.3311 -13.9688 -0.364364
-27.9307 -12.4144 -0.400443
-30.7388 -23.0042 -0.532411
-27.6598 -55.7599 -0.835517
-23.4311 -49.8697 -0.750822
-31.814 -21.7272 -0.501287
-28.0918 21.3725 -0.417034
17.6892 -13.2101 -0.262099
31.2319 -19.3656 -0.432104
-28.5569 20.9652 -0.395915
-35.5598 -19.8694 -0.45696
-16.762 -38.4435 -0.445501
-10.6543 -32.0711 -0.337741
-28.5966 -50.3877 -0.529265
-13.425 17.0299 -0.167743
-25.558 -12.8856 -0.230237
-14.0764 17.1596 -0.153115
-21.125 18.8669 -0.147297
-19.6814 18.4609 -0.124279
-10.2208 -13.1398 -0.0577365
15.1514 7.95947 -0.0224336
11.428 -10.0492 -0.00820082
-32.5355 -17.8206 0.0581225
-10.1173 -30.0694 0.106345
17.6326 -12.8109 0.0944634
-16.5418 -37.9774 0.188073
19.5955 -13.8066 0.127217
7.49545 -12.8849 0.108575
27.2342 -11.1736 0.180713
-50.4942 18.0303 0.509868
16.8763 -12.5073 0.200371
39.7893 -8.12371 0.382433
-27.8611 -7.8561 0.339127
-34.0171 -20.5321 0.440161
-10.1753 -29.1544 0.334473
-48.9852 26.847 0.680916
-11.3443 -31.4369 0.40149
-9.23367 -28.3836 0.361387
6.66872 -13.6314 0.193349
7.47759 -11.52 0.180287
-26.2268 20.5876 0.508475
11.6442 -10.1695 0.232119
-22.5521 19.2866 0.487782
11.2121 -10.0112 0.235602
13.3941 -11.0267 0.273054
38.6116 -8.26361 0.656166
-32.3914 -21.7016 0.711356
-29.0113 20.7438 0.698169
6.473 -13.5247 0.29041
7.27949 -11.4561 0.261106
8.24461 -9.67464 0.247855
33.633 69.1609 1.66583
7.94104 -9.70297 0.283074
10.3986 -9.41851 0.33808
-27.6054 -8.85191 0.69896
-21.8223 19.048 0.781471
-25.6969 20.2625 0.876002
-27.7333 -8.32731 0.763652
9.42216 -9.12056 0.353815
9.87117 -9.17463 0.366919
-23.8629 20.1124 0.845636
26.4025 -5.34137 0.74919
13.4036 -10.9959 0.516037
15.9904 26.0502 0.940296
6.51545 -13.4414 0.469248
7.74724 -12.0769 0.449703
-27.3069 -7.70134 0.931452
-12.0184 -18.4017 0.726039
-27.0026 -8.43958 0.978775
16.6902 11.4236 0.729276
-28.2869 -17.5284 1.16495
17.2118 29.8996 1.22839
-28.9156 -15.7725 1.22216
24.4042 -4.40687 0.895121
-26.3931 -18.7713 1.20207
-7.16911 -7.81682 0.400598
9.27736 -9.04689 0.481178
12.9367 14.1516 0.737539
31.4617 64.9062 2.72676
30.199 64.298 2.67013
-11.2984 -8.94318 0.568687
8.9356 -8.88004 0.497817
-23.9759 19.7509 1.25846
22.5661 -3.05836 0.921704
-27.3784 -16.6297 1.31399
9.65331 -9.15331 0.544904
12.9953 14.9669 0.851074
6.88742 -13.0434 0.625447
15.7356 20.4461 1.13224
22.6389 31.2709 1.68804
-9.1898 -13.3624 0.714078
-9.60754 -15.0261 0.793265
7.85797 -11.3255 0.606647
8.83526 -8.92698 0.567013
25.096 -3.84459 1.14542
-28.595 -8.33299 1.36018
6.99341 -11.4971 0.618361
-8.12345 -7.99444 0.536785
24.736 49.9097 2.66177
-27.1524 -16.7812 1.51061
-9.45926 -13.2687 0.776859
9.90727 -9.19229 0.635964
18.4812 51.361 2.6396
-28.8606 -12.7833 1.50785
-6.643 -8.09886 0.515857
16.4955 38.3616 2.12855
-28.4303 -11.1334 1.5333
-7.47594 -6.87442 0.513601
-6.59204 -7.47287 0.504429
17.7391 32.1348 1.90373
10.9285 12.779 0.90733
15.0588 20.4926 1.36366
9.58113 -9.1511 0.709247
15.6701 20.389 1.41812
16.4187 25.3587 1.66158
-25.8207 18.1807 1.72825
-6.85033 -8.05066 0.586656
-24.7709 19.007 1.73308
6.41318 -13.5407 0.836939
-6.96495 -8.9761 0.648534
10.3213 12.8921 0.969982
16.1261 27.1709 1.84412
6.79035 -13.6376 0.875454
14.8362 24.2052 1.67527
-8.11101 -7.9728 0.685722
11.9179 12.0003 1.00725
15.5251 20.6487 1.55051
-7.23369 -9.79243 0.757972
7.26376 -11.5753 0.831829
11.5788 -9.98742 0.926313
6.08725 -11.1589 0.787665
-7.09188 -6.55515 0.603689
15.3696 21.8033 1.68631
16.5938 7.36578 1.17758
-6.94272 -6.06592 0.6051
6.80495 -14.1565 1.04522
10.1362 22.8964 1.68826
10.7919 13.0079 1.15431
14.2788 19.2003 1.66759
13.1994 21.885 1.76721
11.7327 12.394 1.19675
6.795 -10.1337 0.86304
11.8799 12.1543 1.22885
9.99624 -7.05632 0.86996
12.7795 12.3717 1.3052
10.1568 -8.57736 0.973152
-6.01734 6.52158 0.66064
10.7032 9.42453 1.07026
12.5602 18.7799 1.69884
12.1194 19.3089 1.71673
-6.83201 -7.57287 0.791354
11.4988 19.8471 1.75902
9.74823 -9.178 1.03391
10.9003 14.6323 1.42948
-6.35149 -4.25595 0.602856
9.75903 19.5525 1.74565
10.2791 -7.03395 0.996588
12.8615 11.9331 1.41722
10.3603 20.116 1.82134
-7.1133 -9.43533 0.963353
6.89657 -9.62972 0.962832
12.6462 12.0979 1.43297
12.5535 12.3461 1.4611
11.8053 12.3393 1.41279
-4.90525 -11.1963 1.0298
10.6933 13.3789 1.45646
-6.86935 -6.00274 0.785945
-6.72219 -6.60288 0.796206
-5.06705 -11.1141 1.04024
-7.18128 -7.62035 0.902219
9.46725 -7.39875 1.03736
-7.00025 -7.92164 0.925725
-6.90436 -7.56715 0.90139
9.72896 12.9864 1.43787
-6.83011 -8.22533 0.955831
11.0928 9.30759 1.31883
10.8689 13.9987 1.60049
10.7962 9.48192 1.31449
8.06984 14.6489 1.53795
-6.38822 -7.99827 0.93853
-6.77105 -8.84624 1.02904
11.5362 11.1263 1.47799
11.543 9.41794 1.39323
11.1965 11.1291 1.47904
6.84464 15.8177 1.61957
-11.2282 2.87652 1.0858
-6.29871 -4.12986 0.70548
-6.71662 -6.21166 0.848626
9.80075 13.8221 1.634
-5.89557 6.40596 0.855227
8.09659 -6.72221 1.02484
8.25916 13.7716 1.5948
-6.95577 -7.496 1.03075
9.61646 12.0244 1.55243
7.28667 12.9382 1.50678
7.36481 13.5685 1.57373
9.7755 9.32366 1.39739
6.17038 14.7103 1.65369
9.47261 12.8836 1.66678
-6.0463 -4.41231 0.784479
6.262 14.3896 1.6533
6.52587 14.2951 1.65226
-6.89429 -4.37938 0.873529
8.9874 9.24442 1.37396
9.39746 10.4691 1.5295
7.57283 11.371 1.48449
6.05325 11.9233 1.45386
-6.20344 -7.29787 1.04747
10.4696 6.5799 1.36748
9.19582 8.32307 1.36664
7.57608 12.1103 1.57718
7.09951 12.0667 1.54779
5.58892 12.4114 1.51473
5.09669 12.6699 1.52838
4.97962 14.4829 1.68569
10.0697 7.19996 1.38158
8.9863 9.55245 1.46502
5.60365 11.9907 1.49072
-6.74478 -6.62855 1.05295
7.09322 11.0717 1.48108
4.56577 13.9302 1.65777
9.88933 -3.24058 1.15964
-6.03415 -5.35193 0.933937
7.40038 -6.21313 1.09607
10.6073 5.82006 1.387
-7.30776 -0.975973 0.844178
-6.18576 -5.29487 0.937352
5.31124 -5.62342 0.890394
5.28671 12.1269 1.53721
-6.80718 -4.50897 0.946134
4.5374 -7.39817 1.00256
10.5909 5.23929 1.38591
9.07974 8.05878 1.42465
-5.94342 -4.32557 0.856608
-6.41117 -5.21282 0.976254
4.18711 -8.04815 1.07752
5.03084 -5.92569 0.931745
10.3371 4.83356 1.36731
8.71406 8.46173 1.47078
5.49415 11.9701 1.60821
9.21079 6.38087 1.37137
8.19721 8.53107 1.48171
-6.41073 -5.67683 1.06619
3.7872 -7.7368 1.07749
8.84088 6.81675 1.40334
-6.39275 -5.28241 1.0497
9.25306 6.12048 1.41587
8.34645 7.2829 1.41287
8.28334 7.66415 1.44052
5.84649 -5.40969 1.02185
-6.89584 -4.39464 1.0496
8.28189 8.17712 1.50926
-7.28478 -1.03209 0.949988
-6.85713 -2.79945 0.966925
9.10699 4.16113 1.31068
8.56068 6.75377 1.43101
5.0654 -6.10856 1.0422
4.98533 -6.27899 1.06073
6.94643 -4.33013 1.08887
-7.06573 -1.70197 0.973792
-6.94374 -2.19913 0.973348
-5.96646 -4.37912 0.989402
8.2885 6.7841 1.45168
8.73757 4.50547 1.33982
8.77001 5.25007 1.39563
8.18888 7.28092 1.49114
-6.74011 -3.69605 1.0436
8.99135 4.22056 1.35907
8.40642 5.93332 1.40861
-6.3332 -4.28525 1.04631
-5.89882 -4.48056 1.01164
5.51295 9.29046 1.49241
3.79032 10.4874 1.54969
-7.29491 -1.08216 1.02065
-6.83262 -3.88635 1.09076
5.00791 -5.60945 1.03838
5.2891 -5.46088 1.05432
7.546 -3.57603 1.16711
3.53225 10.595 1.56619
8.52793 4.6674 1.37475
7.45679 -3.71885 1.18138
7.67034 -3.37146 1.19385
7.84874 -3.34262 1.20981
9.05618 2.85158 1.36604
4.89232 -5.70341 1.07921
7.42876 -2.88212 1.15944
-6.88941 -3.26739 1.11118
8.00511 -2.81009 1.23631
8.7646 -1.84102 1.31396
5.14731 8.81328 1.50695
3.07437 9.82928 1.53361
7.8107 -1.90704 1.18433
7.35001 5.85357 1.39969
3.59096 9.93556 1.56286
3.32101 10.2116 1.59288
-7.29716 -1.03302 1.09211
-7.00718 -2.00381 1.08568
7.07209 6.40206 1.44005
-6.21061 -2.25262 0.991014
-7.16986 -1.36194 1.10109
8.05988 4.89091 1.43592
5.83417 7.51788 1.44395
5.41646 7.81009 1.44674
5.18502 8.21721 1.4693
6.82462 -3.25664 1.14293
7.32117 -3.15694 1.2203
7.7168 -2.78455 1.2495
-7.24424 -0.725699 1.11112
-7.02952 -1.93581 1.12487
6.85433 -3.12249 1.16417
3.79701 -5.85876 1.07859
-6.98597 -2.05623 1.14123
-7.27349 -1.08209 1.15403
7.46949 4.84495 1.40585
-7.12905 -1.42956 1.15625
-7.20053 -1.28838 1.17308
-7.02961 -1.9997 1.18804
7.17226 4.83231 1.41146
-7.03333 -1.92685 1.19746
7.11235 4.93645 1.43781
6.7106 4.92218 1.3886
5.30177 6.35788 1.37919
4.7783 7.33384 1.46227
3.92951 8.15665 1.50579
-7.17873 -1.36015 1.21911
2.82981 -5.85324 1.09477
7.24124 4.49023 1.4351
6.61303 5.3184 1.43151
3.917 -5.42486 1.12719
3.97593 -5.07067 1.08993
-7.20135 -1.2402 1.23899
-6.53839 -2.60138 1.19355
7.5026 2.88091 1.3627
7.12006 3.9411 1.38652
-6.35731 -2.72853 1.1767
6.86233 4.1518 1.37662
5.73184 -3.5501 1.15981
-7.32259 -1.02928 1.27812
-6.30241 -2.26088 1.1507
5.58328 -3.67941 1.15191
5.3645 -3.8062 1.15226
3.68544 7.33942 1.44551
-6.73774 -1.7194 1.22067
4.52027 -4.50734 1.12264
-7.02482 -0.905953 1.26107
4.76864 -4.49851 1.15937
4.41585 6.62413 1.42104
6.66281 3.51442 1.3601
6.70548 3.72697 1.37791
-6.38654 -1.48777 1.17885
3.64815 -5.38378 1.18205
5.1604 5.70448 1.40863
-6.10454 -2.16531 1.18664
3.4475 -5.20987 1.16087
3.46651 6.92964 1.45053
-1.67624 -5.70979 1.13111
6.51127 2.76019 1.34556
-2.11868 -5.66271 1.16292
6.37379 2.82475 1.34192
-2.75973 -5.32318 1.17539
-3.45858 5.25014 1.35903
4.52102 3.93745 1.36848
4.17404 -2.89445 1.18297
4.65477 -2.1985 1.24339
4.23981 3.32351 1.33465
3.72568 -2.94448 1.22932
4.04967 2.59484 1.3439
-1.43506 -4.09483 1.21502
-2.31026 -3.56288 1.20658
3.88788 2.38162 1.32114
-2.83168 3.48796 1.3442
-2.47187 -2.90597 1.18463
-2.37016 -2.92763 1.18978
1.84377 -2.81254 1.18215
1.86678 -2.79076 1.21219
1.9926 -2.52683 1.19842
-2.02925 2.78477 1.30758
2.80826 -0.556441 1.26124
2.78775 -0.337267 1.24307
-2.08649 -1.61666 1.21005
-2.0745 -1.44917 1.23513
-1.86007 -1.79334 1.2806
-1.99284 -1.13009 1.20184
-1.98439 -1.06913 1.22861
-1.94446 -0.879425 1.22886
-1.92892 -0.707688 1.21913
-1.92776 -0.700773 1.24627
-1.90422 -0.469255 1.21906
-1.86974 -0.34544 1.21624
-1.8547 -0.400856 1.22303
2.36729 -19.5005 -9.91313
-7.4472 -8.79237 0.456096
8.13301 -8.92227 -10.6112
8.3745 -8.74135 -10.6382
8.32643 -8.39906 -10.0142
7.05538 -12.1146 -11.5577
8.64824 -9.10931 -9.88664
7.96343 -9.06222 -9.2613
5.92503 -12.9476 -10.8521
9.58622 -8.98047 -9.90412
6.22537 -14.255 -11.7055
8.41522 -8.81003 -9.15657
8.14235 -9.30776 -9.24411
7.40135 -9.38031 -8.89852
5.99063 -14.3267 -11.3255
7.84029 -9.44921 -8.85612
7.9773 -9.2544 -8.79771
7.23471 -10.7312 -9.21055
6.92502 -11.2356 -9.35225
10.2472 -9.36792 -9.7472
6.64133 -11.3412 -8.99324
8.1589 -8.76011 -7.96855
7.47998 -9.42768 -7.99396
8.65463 -8.81988 -8.21055
7.85301 -9.63211 -8.16082
6.59433 -12.9735 -9.4986
8.0657 -9.33078 -8.04076
5.04583 -16.1472 -10.878
-0.483563 13.8514 -8.86294
7.85485 -9.39311 -7.84845
7.466 -11.0514 -8.48759
8.5189 -8.70803 -7.75803
11.1031 -9.81993 -9.39811
9.14263 -8.96651 -8.0283
12.0407 -10.2658 -9.91224
8.21227 -8.68129 -7.34892
4.06064 -16.8801 -10.6391
4.28786 -15.4853 -9.86323
0.0957265 14.1837 -8.61758
7.98313 -9.52109 -7.44276
3.9751 -15.6807 -9.64464
11.7437 -10.0521 -9.25452
6.98801 -11.2701 -7.86993
7.89194 -8.95221 -7.06693
5.56977 -14.1886 -9.00193
6.59994 -12.9132 -8.48283
8.50343 -8.7374 -7.1024
9.8787 -9.25809 -7.89122
2.82734 -11.925 -7.02182
5.59349 -14.1727 -8.62177
9.78896 -9.28787 -7.62491
6.73488 -11.259 -7.38335
3.32764 -20.4907 -11.6353
9.04236 -9.10151 -7.18916
12.4884 -10.4758 -9.1281
6.94448 -11.1941 -7.33507
4.75675 -14.8172 -8.59652
6.33801 -12.8464 -7.87595
0.883772 18.6506 -10.1678
14.9681 7.91078 -9.20366
4.26991 -14.4412 -8.12947
15.1573 -11.9924 -10.4142
15.337 7.6226 -9.12762
14.3396 7.90217 -8.70449
4.83018 -15.0243 -8.38214
12.369 -10.3883 -8.49689
1.80496 -20.2467 -10.459
11.6803 -10.0785 -7.90048
2.07312 -20.0139 -10.2112
14.3635 -11.3997 -9.27125
-0.00843569 14.2208 -7.13912
-7.02416 14.5848 -8.10593
10.83 -9.81256 -7.34018
7.66314 -9.60926 -6.12031
18.1265 5.64141 -9.26413
-8.16785 15.47 -8.44799
11.9293 -10.0177 -7.53662
10.7276 -9.79613 -6.97291
15.2222 -11.6689 -9.24743
17.2987 16.3919 -11.3301
7.65525 -11.3104 -6.50306
15.3848 7.6026 -8.05628
14.3062 -11.3265 -8.52489
-11.3925 16.306 -9.10682
16.3326 -12.3738 -9.35726
9.90907 -2.4846 -4.69316
-8.98649 -1.63374 -4.15334
19.5373 18.8574 -12.2612
3.97877 -9.24463 -4.56515
-9.75644 15.9278 -8.38143
-5.26512 4.37732 -3.07709
7.01918 -11.5508 -6.08086
9.62051 -9.27062 -5.89011
16.4352 7.4983 -7.9739
-6.36273 14.4347 -6.88367
1.50604 -18.6731 -8.10225
-10.6462 16.1901 -8.33634
9.71528 -3.41737 -4.41131
-9.24167 -1.72554 -4.03614
7.18162 -11.2995 -5.65618
16.3103 -12.3275 -8.5548
15.0123 7.93692 -7.12699
19.6036 20.4015 -11.8338
1.00834 -22.0599 -9.19671
-4.38887 13.3982 -5.80455
-9.78674 -1.09466 -4.08099
14.4322 7.97016 -6.73581
21.5558 23.4534 -12.9947
-12.7907 2.39692 -5.30005
15.4965 7.3635 -6.94281
-5.02112 13.739 -5.87773
3.70485 -8.96348 -3.85776
12.7015 -10.5244 -6.45941
14.3536 -11.3326 -7.14402
20.2497 22.6707 -11.801
19.3465 5.96619 -7.85377
1.54575 19.5215 -7.59773
-8.32306 14.9877 -6.60335
11.6783 -10.2953 -5.9858
20.2369 23.4691 -11.9469
0.672671 15.4505 -5.92541
-1.63328 12.4541 -4.82977
2.73619 -12.3163 -4.83934
-8.65645 -1.23637 -3.32355
0.691268 -22.8107 -8.61586
15.6732 -12.0103 -7.4437
9.62335 -3.51151 -3.86442
-13.8389 17.055 -8.18066
-7.79541 -3.46294 -3.1288
1.09227 -10.3715 -3.83662
7.20039 -11.5074 -4.96083
14.5535 8.12708 -6.02193
-8.19059 -2.81216 -3.11416
0.781306 15.3827 -5.49516
-3.78979 12.7919 -4.71484
5.87447 -11.2437 -4.46115
16.3622 -12.3646 -7.2608
19.641 6.06648 -7.23519
2.17608 21.386 -7.54711
23.0512 27.8732 -12.5813
-9.21671 -1.33531 -3.18179
-14.0572 17.3483 -7.65926
3.0329 -13.5851 -4.78787
-8.43257 15.2253 -5.94251
19.1943 -13.5944 -8.05825
-4.81741 13.8207 -4.97207
1.32719 -21.4941 -7.14
1.77738 19.9855 -6.63347
1.4525 -10.3113 -3.44137
42.0188 -21.4785 -15.4814
-3.17154 -23.4363 -7.63311
6.30258 -10.2611 -3.85222
18.2106 -12.8579 -7.13715
2.14455 21.0878 -6.75128
-12.6167 16.8397 -6.62984
1.40241 -21.7576 -6.79793
-4.10648 14.0299 -4.53819
-10.3531 15.6828 -5.69086
-2.5173 -25.7149 -7.85875
3.12721 -9.65454 -3.08182
0.767112 -23.0438 -6.93926
19.9118 -14.1332 -7.24246
18.0824 5.72083 -5.56791
-7.471 14.4558 -4.73275
4.33133 -10.7406 -3.36304
3.71705 -10.8403 -3.25861
4.36034 -11.2447 -3.38244
-12.5392 16.7576 -5.818
-8.765 14.9793 -4.71727
-12.9654 1.94351 -3.59425
-15.8912 18.2554 -6.56817
27.7367 -18.2587 -8.99414
-3.51547 -25.1061 -6.8092
3.86737 -9.34447 -2.70364
-9.25143 15.3745 -4.77219
32.2654 -15.3335 -9.53146
50.9365 -14.8722 -14.0686
10.7953 -9.62793 -3.82738
-6.07443 14.0559 -3.99557
-13.578 17.0213 -5.71015
-7.0929 -33.5935 -8.95323
5.08152 -9.80679 -2.85661
6.72592 -10.7615 -3.27168
-6.77913 14.3816 -4.03706
-9.95812 15.5067 -4.70512
-8.69213 -34.465 -8.84921
48.5639 -12.3063 -12.4259
-7.87258 -34.005 -8.5339
11.2295 -9.89896 -3.6794
-7.50822 14.5668 -3.97002
-11.042 16.0469 -4.71187
15.0001 7.92388 -4.02986
-26.4315 -39.7396 -11.3993
4.1417 -9.46554 -2.4433
15.6162 7.73456 -4.11019
3.83759 -9.12086 -2.32405
-5.86189 -29.2368 -6.9126
5.76787 -10.1306 -2.69989
47.9789 -11.6108 -11.4723
-12.0537 16.4168 -4.68495
15.2635 7.8174 -3.88309
46.8491 -10.1349 -10.8576
-9.21116 15.3401 -4.00161
-29.4231 -72.305 -16.9692
3.82455 -9.52411 -2.2305
45.9566 -11.7898 -10.3541
15.5321 7.70587 -3.71609
-10.0032 15.6126 -3.96854
-20.069 -31.5518 -8.03717
-16.2124 -50.6708 -11.4709
4.95604 -10.022 -2.40987
9.66487 -9.13704 -2.80345
48.3205 -11.3143 -10.6172
-13.8847 17.2014 -4.64813
-30.1885 -22.282 -7.95402
44.6081 -14.9254 -9.94969
15.2547 8.06128 -3.60154
-32.7139 22.1225 -8.07264
-7.37567 -30.1788 -6.29904
4.09595 -11.9173 -2.5302
47.7591 -10.3046 -9.93689
12.106 -10.0209 -3.15045
45.9893 -11.8393 -9.46237
-25.2061 19.0208 -6.26553
-32.4382 -20.524 -7.58997
6.32524 -10.5859 -2.45313
49.3562 -11.542 -9.89919
-12.0142 16.3914 -3.92482
-25.047 19.6286 -6.18127
16.6214 12.5735 -3.98782
-6.43715 14.1654 -2.98334
-30.9988 -22.4217 -7.32355
-29.5943 -23.1745 -7.22453
-32.9321 21.9444 -7.44964
-31.5451 -20.8092 -7.14197
18.5378 5.82831 -3.62958
-32.0926 -19.3637 -7.0002
-13.1031 -37.7825 -7.45648
3.89812 -10.1499 -2.04483
-20.5211 -51.0953 -10.2481
-14.6166 -39.3826 -7.68986
4.09701 -9.9271 -1.93509
13.451 -10.5104 -3.07741
48.7425 -10.8467 -8.96902
-13.8275 17.1491 -3.93384
-25.1703 19.7411 -5.64551
15.5056 8.20833 -3.05877
-28.2964 -24.6585 -6.54278
45.8439 -11.743 -8.12438
-7.43746 14.3249 -2.73131
-9.06844 16.6982 -3.20681
47.9335 -11.2838 -8.32655
-28.5484 20.7942 -5.94416
-28.4341 -21.8757 -5.99669
-19.4798 18.6257 -4.48199
-29.9788 21.1716 -6.12073
16.4866 -12.3009 -3.36954
-9.69986 15.3983 -2.89291
-39.6754 23.3462 -7.30144
-29.6684 -22.288 -5.94097
-31.3797 -21.6447 -6.00425
3.55304 -9.8234 -1.63167
-22.2339 18.993 -4.51435
-13.3546 -14.985 -3.10265
17.55 -12.4069 -3.328
-10.4899 15.6986 -2.86637
49.5406 -11.6107 -7.72266
-19.5976 -45.4184 -7.47901
-27.4087 20.5559 -5.1211
-35.3607 22.0482 -6.18354
-29.6483 -23.0142 -5.59973
47.9022 -10.2653 -7.29437
-31.5693 -22.8312 -5.69281
-45.2593 25.2702 -7.45148
-33.2401 -22.1716 -5.75141
7.03101 -13.4914 -2.20668
-33.9841 -19.7518 -5.56286
-6.44762 14.2134 -2.16469
-12.3001 16.6039 -2.87323
-29.7978 21.4531 -5.13065
-25.6566 -22.0025 -4.66079
-21.0442 -46.8683 -7.08806
-13.847 -40.4833 -5.8887
39.0103 -12.9734 -5.63751
-21.6772 19.049 -3.83845
-30.2457 -22.6506 -4.93328
-28.6953 -23.5408 -4.90729
-31.7735 -21.8825 -4.94172
7.64028 -9.67709 -1.59342
45.92 -11.7548 -6.08194
-31.0411 21.123 -4.77235
-28.3096 -15.1062 -4.09009
6.1672 -7.98695 -1.28838
48.1198 -11.3103 -6.26674
-28.8343 21.1917 -4.46408
15.0011 -11.6872 -2.33543
