ply
format ascii 1.0 
element vertex 1874
comment /media/mkaihara/Seagate Backup Plus Drive/model_iterations/model_99.ply
property float32 x 
property float32 y 
property float32 z 
end_header 
-31.0076 -24.6436 -5.574
-30.4904 -25.7165 -5.61655
-21.1503 -50.9612 -7.68812
-6.95276 15.4069 -2.29584
-14.197 18.1389 -3.12534
-12.0417 -42.1505 -5.96846
-7.5358 15.2737 -2.28805
-25.266 -65.7715 -9.53159
-22.7346 20.6752 -4.09301
-25.4868 -57.7677 -8.38896
-31.746 -24.5063 -5.29353
44.8594 -10.337 -6.05461
44.2448 -9.72636 -5.96838
-13.8044 -42.8995 -5.92215
6.60826 -10.8909 -1.67574
-15.2278 18.6518 -3.1343
-23.1443 20.3846 -3.99845
-33.073 -24.6904 -5.31325
10.6641 8.74638 -1.77985
-34.2351 23.5395 -5.3346
-30.1971 22.9785 -4.78364
-31.3549 -24.5484 -5.02357
-13.041 -37.1026 -4.97245
9.6342 -9.0168 -1.64683
12.7274 -10.4016 -2.06968
-34.3715 24.1119 -5.25025
-36.5768 -22.7874 -5.367
-31.0236 -25.6424 -5.00108
6.75152 -10.2681 -1.53395
-33.3741 -23.5898 -5.06429
-13.9789 -43.6113 -5.63258
13.1157 -10.9338 -2.09644
41.3659 -10.751 -5.27801
-16.4149 18.8973 -3.06011
-16.2665 -39.427 -5.21351
-8.88175 15.8788 -2.21675
43.206 -9.95273 -5.36928
14.9157 7.78637 -2.02048
9.3809 -8.9012 -1.544
-34.194 -23.8575 -4.94391
-18.1225 19.6965 -3.13232
-20.9554 9.2733 -2.71542
-32.1641 -24.9009 -4.79727
11.2375 -9.66692 -1.73583
41.7087 -11.1656 -5.08466
14.6193 -11.3512 -2.12781
14.8437 7.62993 -1.89712
-30.4233 23.1367 -4.36052
7.23439 -10.9857 -1.49302
-10.4101 16.621 -2.19713
9.41041 -9.27736 -1.47126
12.7065 -10.4363 -1.83384
13.8915 -10.9644 -1.96893
9.41485 -9.07936 -1.4519
7.02865 -10.4087 -1.37609
44.1673 -9.64623 -4.92141
-11.0659 16.6228 -2.154
-33.751 23.7993 -4.48526
11.6551 -9.79214 -1.64403
6.14371 -12.6341 -1.4782
7.52052 -11.5119 -1.43129
9.80674 -8.86833 -1.3913
-15.7837 -45.6097 -5.05997
16.4468 -12.1796 -2.14688
-31.5833 -63.4522 -7.35206
14.7873 7.44611 -1.69176
-31.4517 -25.0657 -4.13117
13.747 -10.8768 -1.79689
-32.2257 -24.9275 -4.12225
14.7736 7.71886 -1.67433
-12.8526 17.1882 -2.10954
-20.9977 -53.2378 -5.54563
-33.9208 -68.5234 -7.32019
-23.7635 20.7876 -2.98318
-31.3135 -25.6524 -3.84794
-31.2946 -25.9948 -3.87747
-22.4163 -58.6564 -5.92098
-14.2886 18.2839 -2.17256
-31.5717 -24.7002 -3.74111
-16.0899 -43.8248 -4.34913
-14.2908 -44.4175 -4.3524
9.77617 -9.06133 -1.23889
-34.4402 -67.0872 -6.94784
8.52959 -8.62647 -1.10171
16.3807 -12.2052 -1.86938
-15.2018 18.6481 -2.15882
-36.2581 -22.5518 -3.86408
-33.6983 23.7923 -3.6334
-31.3701 -25.3084 -3.56203
13.9536 -11.098 -1.58309
-32.4706 -19.787 -3.24442
10.9943 -9.64845 -1.24583
-27.0834 21.9686 -2.92926
-11.593 -36.0818 -3.20289
9.35726 -8.97206 -1.08868
-34.4322 23.6733 -3.47193
8.65154 -8.65312 -1.00528
16.6413 -12.1366 -1.68298
-17.1248 -44.4983 -3.83217
-22.0055 -50.338 -4.30071
-15.6011 -38.5146 -3.29401
-13.5959 -38.1471 -3.21773
9.16177 -8.90343 -1.00397
11.2271 -9.73248 -1.16515
14.7622 -11.5465 -1.48419
-30.4358 23.2096 -2.97861
-29.4971 -13.7686 -2.5289
11.7926 -9.99042 -1.19828
-23.839 -53.092 -4.45794
12.6999 -10.5413 -1.25075
-42.7843 -81.1696 -6.64115
9.90276 -9.08858 -0.974379
10.8509 -9.68572 -1.01404
-33.5845 -20.8491 -2.73469
11.8858 -9.98932 -1.07532
14.6105 -11.5036 -1.29283
-15.8692 -40.0988 -2.93521
-15.4855 -40.9661 -3.00256
18.4177 -13.3104 -1.50906
-23.6592 20.7149 -2.08709
-25.6614 -59.1957 -4.26701
12.7951 -10.5254 -1.10792
-15.005 -41.6285 -2.87611
15.1669 -11.4516 -1.23531
-33.6126 -68.0545 -4.76737
-15.4408 -47.8598 -3.12538
-33.4075 23.6 -2.50316
-34.0537 -67.3425 -4.59385
-17.3939 -42.3699 -2.79312
30.5111 -20.2287 -2.22929
41.4755 -10.8158 -2.60277
36.0794 -8.69867 -2.24909
-15.5108 -41.6433 -2.68531
-27.4181 22.2521 -2.00187
-29.2253 -14.3884 -1.8824
-16.2319 -42.2866 -2.52689
16.7655 -12.5099 -1.17225
-27.3801 -16.4764 -1.72026
42.0507 -9.36671 -2.21611
-9.43424 -12.6056 -0.799346
-15.8128 -42.0828 -2.23973
5.67247 -12.3801 -0.676838
-14.4125 18.2705 -1.13483
-15.6009 -49.0356 -2.52777
14.7889 7.75866 -0.804328
-16.7479 -42.9286 -2.19055
-15.0491 -48.9443 -2.41671
18.5616 -13.1695 -1.09115
-17.7805 -51.5643 -2.54493
36.3606 -8.93034 -1.75484
-29.1253 -14.8932 -1.46369
-25.2132 -57.773 -2.79611
-16.9475 -41.6987 -2.00422
9.61456 -9.07268 -0.589534
12.5294 -10.2837 -0.727737
43.646 -9.98666 -1.99167
-14.4522 -43.9606 -1.97021
-33.3305 23.5617 -1.6994
-54.8617 29.7951 -2.48949
-34.3966 23.6713 -1.53153
-19.459 -50.8871 -2.04545
-35.0137 -22.0487 -1.47907
9.70144 -9.02847 -0.487381
6.57414 -10.78 -0.438272
-13.4029 -39.9553 -1.39554
7.40982 -13.0061 -0.511439
18.4579 -13.0732 -0.764284
-27.589 -60.4243 -2.18792
-13.6821 -38.8161 -1.33402
20.788 23.9757 -1.01838
-23.4805 20.8454 -0.988461
-21.5523 -55.1857 -1.83791
20.836 -14.2087 -0.766991
-27.8571 -14.3355 -0.949613
-13.3966 -42.8739 -1.33604
-24.4595 20.7831 -0.921438
-24.5032 -56.3914 -1.74966
-18.1091 -49.0118 -1.50787
-34.8634 -21.2424 -1.12918
-9.83041 -12.8974 -0.463209
-23.6782 -55.8396 -1.71268
17.8828 -13.3223 -0.567909
29.4553 49.1547 -1.48354
-30.596 23.3442 -0.988833
-31.7753 23.241 -0.973004
-27.4602 -13.1944 -0.746508
9.52308 -8.96158 -0.316608
-21.1995 -34.1461 -0.937496
-40.8178 14.1587 -0.943969
21.0345 -14.0743 -0.53765
18.287 -13.1839 -0.423196
12.7389 -10.4653 -0.274803
-33.5319 10.6043 -0.580762
-28.5387 -13.59 -0.500321
-37.5341 -21.3752 -0.656127
-18.6195 -45.6443 -0.763243
-8.04441 16.9175 -0.254355
-32.9445 -24.6105 -0.570215
-34.3133 -23.3917 -0.531521
17.1634 -12.8055 -0.259989
18.0771 -13.0154 -0.28266
28.596 -17.633 -0.448686
-22.1737 -56.7914 -0.740385
-30.784 23.4698 -0.412203
-28.7237 -61.2902 -0.721469
-19.1008 -43.8101 -0.512167
-54.5285 29.8832 -0.516343
-34.8065 -61.4 -0.651086
-20.7269 -54.3587 -0.55338
37.0435 -8.94923 -0.350579
-14.5253 18.4362 -0.16449
-37.0755 -82.5636 -0.620589
-18.4001 -44.6288 -0.32933
9.53027 -8.96765 -0.0408208
14.6875 7.73193 -0.0280521
-29.6759 -13.2385 -0.0586701
-11.757 -17.1177 0.0251644
-12.9801 -19.5371 0.0444866
-19.1652 -43.9933 0.197416
9.39741 -8.94706 0.0590738
-33.3589 23.6081 0.213169
-22.5732 -56.9873 0.295832
-30.4909 -14.1513 0.20196
16.6981 -12.1835 0.115402
-13.2377 -20.2969 0.157915
14.603 -11.3753 0.145532
-54.1804 19.4119 0.510341
7.03678 -12.0906 0.117347
15.8694 -11.7594 0.167526
-36.9324 -22.3489 0.45286
37.7186 -7.75241 0.400693
-35.7509 -22.4042 0.480596
-12.8437 -35.4737 0.439615
-13.3278 -35.8394 0.462642
-11.4337 -32.9236 0.423449
-9.82258 -30.3914 0.385951
24.8169 50.2497 0.731032
9.54205 -8.97505 0.169287
-12.9122 -20.0085 0.324012
-11.129 -33.7828 0.486525
8.53107 -8.47489 0.182245
6.23817 -12.7621 0.206797
7.10727 -10.9519 0.19922
9.29926 -9.01491 0.18699
7.99226 -9.06851 0.193254
9.67667 -8.95989 0.217161
37.2063 -7.97133 0.624077
-24.324 20.8592 0.574787
-33.6384 -22.6319 0.697584
-34.9893 -25.6714 0.759917
12.8253 -10.5359 0.271849
13.1329 -10.5926 0.316078
-9.95687 -12.6243 0.303485
6.78506 -11.1199 0.253943
7.94732 -9.34012 0.241082
25.321 52.0975 1.16192
6.934 -10.899 0.259635
9.13489 -8.64323 0.267115
11.4551 -9.84584 0.330918
17.1181 -7.64593 0.377317
7.16705 -10.874 0.294697
-12.9187 -19.8317 0.565168
7.6083 -9.26291 0.272994
7.79083 -9.31693 0.281905
-26.1524 21.9805 0.888294
-29.2133 -9.36818 0.770069
9.57017 -8.90445 0.336217
17.3246 -12.6558 0.540763
18.1441 -13.0648 0.555913
-23.4096 20.4955 0.811486
-28.2967 22.3632 0.942476
-29.2249 -8.77139 0.799047
-33.5656 -17.8972 1.03314
-13.4903 -20.3709 0.649126
14.637 -11.3728 0.49448
22.5258 -3.27743 0.64052
-12.3106 -19.1957 0.65947
24.7174 -4.68242 0.73213
15.9843 24.8058 0.884962
-28.377 -20.9049 1.04284
7.17732 -11.2427 0.400449
6.92262 -10.6307 0.386337
14.4087 23.472 0.846085
-7.6397 -8.82782 0.357015
12.9327 -10.5822 0.510198
-7.33721 -9.53621 0.36852
-28.8453 -8.14174 0.99769
-11.9896 -17.5263 0.710888
7.8297 -9.30009 0.402226
15.9662 10.9084 0.692753
10.7899 -9.39525 0.519699
11.81 -9.97823 0.56331
21.8551 44.0092 1.84617
-7.46418 -8.14912 0.4131
9.59701 -8.90878 0.488829
22.5928 -3.17203 0.87581
25.3801 52.4646 2.25753
-7.46767 -9.9119 0.485401
10.3654 -9.45366 0.550291
12.6319 -10.4327 0.661879
21.3687 -2.61893 0.877684
-29.4944 -17.8936 1.41059
8.69345 -8.65433 0.506953
-6.93741 -8.48262 0.471071
9.38445 -8.87738 0.540029
12.4978 14.3468 0.840607
-29.191 -8.56706 1.33717
14.458 18.8316 1.06737
14.6465 25.2181 1.29991
20.7756 40.8534 2.02765
6.1097 -13.6124 0.665373
10.7739 -9.45201 0.648172
18.3347 -1.62713 0.842108
18.7527 35.7058 1.89214
14.5799 25.6887 1.38542
-11.2437 2.78884 0.558284
-7.26243 -9.57276 0.579467
9.11667 -8.93555 0.604582
11.3249 -8.68862 0.668422
19.932 -2.2841 0.966441
11.4947 11.7146 0.815292
15.4062 37.0503 1.97312
7.71739 -9.40576 0.598859
10.122 -9.21881 0.677972
14.2216 24.1157 1.40233
19.348 37.5193 2.14329
20.8083 -2.59212 1.06624
-7.42264 -8.52766 0.586593
9.33259 -8.88565 0.670998
16.3204 23.9327 1.52215
16.0216 29.0452 1.73174
12.9045 -10.6366 0.888529
10.4238 12.1854 0.857888
13.9535 18.9407 1.26409
11.0018 -9.53964 0.787387
14.7268 19.1876 1.33424
-26.7788 20.5275 1.84508
-6.98287 -8.19238 0.595582
10.1216 12.2369 0.889578
-7.28159 -9.40006 0.665986
9.86063 12.2836 0.91378
-28.2503 19.8891 1.96305
6.04973 -12.7766 0.809459
11.0458 11.9407 0.935149
-6.89431 -6.80415 0.561901
11.1354 11.8741 0.958735
-6.82362 -8.43188 0.649251
6.19609 -12.455 0.812924
14.3662 19.1144 1.43807
13.7941 22.553 1.57736
12.9405 29.906 1.95592
-6.18775 6.59051 0.555651
-8.18915 -7.75954 0.682492
-7.13337 -8.18329 0.666788
5.67197 -12.3353 0.821094
-7.49701 -6.90239 0.634093
6.95648 -11.0836 0.809205
6.9432 -10.4933 0.78537
11.2621 -9.72146 0.918842
12.0404 -10.0722 0.972797
16.0662 7.1154 1.11969
14.6127 18.9297 1.51322
-7.25099 -6.31929 0.62398
10.2013 -9.31708 0.89164
-7.39305 -6.27199 0.636119
11.3353 11.961 1.12299
9.29537 20.9256 1.55923
-7.29428 -9.68243 0.809947
11.4883 12.4601 1.1628
-6.96617 -4.46424 0.569317
-6.76809 -8.22013 0.726228
-6.70934 -4.4401 0.55515
9.22317 -8.81792 0.88835
9.94805 -7.8049 0.890713
12.509 15.7658 1.45531
9.76067 -8.24241 0.934189
11.2606 16.8373 1.5229
11.1786 17.8218 1.57163
9.39394 17.8795 1.52312
8.80235 19.0229 1.57651
7.11096 21.1933 1.68044
10.5533 18.2156 1.60388
9.96655 -7.5617 0.956576
-7.04316 -7.20458 0.772157
-17.3014 -6.27539 1.43935
9.42931 -7.64435 0.951584
9.13002 18.2352 1.60957
-6.38897 -4.26603 0.609278
-6.84649 -8.24011 0.849387
4.83031 -5.728 0.595742
8.80027 19.3609 1.68679
7.57151 18.5122 1.60809
5.02285 -5.78899 0.617521
12.6335 11.3999 1.37896
11.6408 11.6931 1.35115
6.6987 -9.345 0.934678
12.0942 11.5678 1.37578
6.48945 19.0501 1.64717
-6.36511 -4.39398 0.630565
-7.18403 -9.50806 0.978154
11.4089 11.9526 1.36723
10.3749 9.07616 1.17385
-5.05994 -11.5443 1.06467
6.11533 -6.03554 0.750016
9.17897 -7.15069 1.00076
-6.80838 -6.70587 0.812042
10.3015 12.2081 1.39451
8.76179 -7.30079 0.991417
10.6973 12.0587 1.41083
-7.32754 -7.78347 0.937292
8.16023 -7.26465 0.970057
10.0785 12.3189 1.43092
-7.08827 -7.76009 0.932004
-6.95588 -8.36184 0.97625
10.4683 12.1687 1.45765
10.3582 13.3614 1.53175
-7.13559 -8.35011 1.00063
11.0996 10.7214 1.41951
-6.32296 -4.23687 0.700115
-6.87951 -8.61637 1.00888
-6.33697 -4.40034 0.711386
10.9885 8.4801 1.30259
10.5424 9.24193 1.30728
6.35959 15.1069 1.54152
10.3919 11.1796 1.44438
-11.2898 2.89303 1.10176
6.14689 -5.95498 0.815937
7.97956 -6.61509 0.995573
10.6428 9.11368 1.36029
9.4065 12.377 1.50529
9.59089 12.3081 1.53733
7.5638 12.0965 1.41718
7.79683 13.0339 1.51178
11.1327 7.99442 1.39688
7.03616 12.5205 1.44942
8.95682 11.2247 1.4612
6.88604 13.3311 1.53551
5.76138 13.6897 1.52464
9.10151 10.3761 1.42656
8.91888 12.1506 1.56604
11.2985 7.59768 1.42041
9.16033 9.90652 1.40485
4.96907 -5.81466 0.821141
-6.85766 -4.66409 0.875092
5.4731 13.6353 1.55935
-7.07176 -4.51478 0.895026
8.83206 10.5826 1.47999
-6.78032 -6.79002 1.02661
5.901 -5.82447 0.895632
9.60973 8.46079 1.38013
8.87842 9.27317 1.38085
9.16339 10.2149 1.48786
4.6856 13.5793 1.55013
4.22766 -8.04032 0.984084
6.38698 10.6853 1.36985
-6.81275 -3.93145 0.866101
6.25942 11.7364 1.47574
-6.90707 -3.86971 0.877401
9.64085 7.15339 1.34252
6.58464 11.2377 1.45054
9.73637 6.98082 1.34594
5.35629 11.4182 1.42596
5.35702 11.9114 1.47504
4.62509 12.0358 1.45873
9.76831 6.63927 1.34612
-6.90414 -4.57178 0.948638
7.38941 -6.21551 1.10066
-7.34804 -0.7873 0.847818
-6.28511 -5.39936 0.954544
5.24526 -5.5639 0.882345
8.80827 7.8307 1.37312
4.41369 -7.17601 0.975996
10.3537 5.12574 1.353
8.8923 7.73579 1.38551
5.19682 -5.60765 0.903269
8.53739 7.85852 1.37688
8.82558 8.97849 1.473
-7.06216 -5.6626 1.07133
10.0861 4.72281 1.32696
-6.93094 -3.85862 0.95615
9.08527 6.10745 1.32778
5.13805 11.2622 1.50047
-6.90541 -3.07099 0.918655
-6.88967 -3.25729 0.921962
4.87816 -5.94916 0.939047
5.96591 -6.12084 1.04071
9.31997 5.59023 1.34351
8.40465 7.17533 1.36636
-6.96311 -4.31842 1.00966
-6.89434 -4.54326 1.01795
8.19181 8.51573 1.46598
4.96132 11.1574 1.51607
-6.56251 -5.6283 1.07621
3.70556 -7.56786 1.05014
8.44141 7.6865 1.42856
6.07058 -5.61064 1.03641
9.11242 6.02509 1.38441
-6.14477 -5.42211 1.03437
8.49547 6.57212 1.36977
8.03109 7.4565 1.39407
-7.11491 -1.7864 0.938748
-7.02664 -2.31033 0.945102
-6.45696 -5.32823 1.0684
8.77949 5.62859 1.33698
8.09335 7.98462 1.46532
-7.27898 -1.25589 0.947672
-6.91031 -4.12637 1.04092
7.38734 6.18397 1.24779
8.02474 6.99418 1.38034
7.90795 8.06311 1.46349
-6.92258 -2.83122 0.974142
-6.92384 -2.97134 0.974513
4.49577 9.95568 1.43541
8.95517 4.09146 1.29596
-7.26234 -1.60939 0.978048
6.8298 -4.25307 1.06932
4.92583 -5.94074 1.02318
-7.34876 -1.11951 0.99555
-7.02707 -2.20336 0.985601
-7.06432 -2.27277 0.991894
-6.00307 -4.40421 0.995384
5.18298 -6.55795 1.11404
6.90025 -4.16994 1.08542
8.01821 7.12111 1.45279
-7.16516 -1.72154 0.991196
-7.09587 -1.95936 0.990587
8.74872 4.83 1.35732
8.2838 5.83918 1.37799
-6.93329 -3.62545 1.06654
8.82513 4.14187 1.33718
3.29348 10.3504 1.48662
-7.32798 -1.20242 1.01707
-6.01839 -4.44758 1.02959
-5.99886 -4.54654 1.03083
7.13688 -3.92806 1.1197
8.0215 6.44533 1.42314
5.30287 8.96271 1.44195
-6.39207 -4.32813 1.05867
4.93139 -5.52411 1.0287
7.17436 -3.8239 1.13147
7.54658 -3.67997 1.16174
3.56918 9.90111 1.46521
3.38239 10.1769 1.49478
-7.38483 -1.0844 1.04259
-7.0866 -2.00744 1.02692
4.97095 -5.28619 1.01439
7.23578 -3.73196 1.14379
7.35155 -3.66652 1.16518
7.85807 -3.35037 1.21443
-7.16808 -1.8782 1.05436
-7.02014 -2.95091 1.10403
-6.01618 -4.37945 1.07063
7.89242 -2.77779 1.22419
8.19427 4.59916 1.37675
4.94678 8.47411 1.43799
8.33135 4.48647 1.39852
7.81816 -2.33709 1.20288
7.10849 5.65871 1.36059
2.92061 9.32162 1.46015
-7.10653 -2.0231 1.10794
7.47394 -3.10557 1.22013
8.19124 4.52691 1.41864
5.74503 7.38843 1.42111
5.25129 7.57575 1.40452
5.08581 7.87944 1.4244
5.03861 7.98563 1.42897
7.32501 -3.16601 1.21883
7.6688 -2.75233 1.24076
-6.76729 -1.68556 1.05103
7.82009 -2.25348 1.248
7.1997 5.39967 1.38191
-7.11615 -1.95588 1.1458
-6.93129 -2.79047 1.16185
6.78117 5.50031 1.36956
-7.37048 -1.09798 1.16455
-7.15725 -1.82745 1.15747
-7.05878 -2.0711 1.15319
-7.13375 -1.87584 1.15811
-6.90628 -2.93903 1.17879
4.77496 7.40372 1.40098
3.44716 -6.03343 1.10956
-7.29016 -1.30198 1.18695
3.52922 -5.7095 1.08129
3.56619 -5.61498 1.0707
7.04918 4.7516 1.38527
4.62975 7.32744 1.41051
-7.08363 -2.02708 1.20136
-7.10584 -1.95043 1.20974
6.94479 4.81234 1.39735
3.7868 7.86663 1.44523
6.05073 -3.31791 1.14951
6.61373 4.85859 1.36831
4.63315 7.12097 1.41701
3.83746 -5.30198 1.1
7.08653 4.41283 1.40566
7.46041 2.85271 1.34984
6.29985 5.26639 1.39166
-7.2938 -1.25825 1.26107
6.73712 4.07322 1.35205
-6.45987 -2.77584 1.20024
5.50858 -3.62908 1.13314
5.68947 -3.51776 1.14844
2.72953 7.7782 1.42478
-7.38825 -1.04174 1.29422
5.33317 -3.78296 1.13976
-6.31969 -2.2628 1.16457
-6.27983 -2.42 1.17898
4.28197 -4.66556 1.10735
4.49464 -4.47779 1.11288
4.59217 -4.44946 1.12173
-6.81279 -1.73556 1.23908
4.31033 6.4666 1.3862
-7.17432 -0.930181 1.29383
-6.15214 -2.26069 1.16808
6.62586 3.68437 1.35903
6.08514 4.35118 1.35688
3.61018 -5.32959 1.17061
5.12894 5.66446 1.39763
2.49537 7.14014 1.42042
6.47422 3.04706 1.35291
-1.70541 -5.77951 1.14088
6.42317 -1.38526 1.24669
6.26395 2.77381 1.31893
6.21038 2.37843 1.32678
-4.47397 3.9593 1.40568
4.3168 3.52754 1.33329
4.20325 3.28605 1.3207
4.66488 -1.67762 1.24471
4.81792 -1.3807 1.2537
-2.16082 4.84328 1.32633
3.72905 -2.95455 1.22296
3.67509 -2.55088 1.19416
3.40908 -2.9638 1.22656
3.99675 2.56454 1.32692
-2.59256 -3.53178 1.25052
-2.32381 -3.56737 1.21569
3.74874 2.0544 1.29947
3.72564 1.97698 1.29898
-2.85585 3.50269 1.39537
-2.29404 -2.417 1.18683
1.95921 -2.78625 1.21489
-2.13097 2.7781 1.33119
-2.03547 2.76605 1.33734
2.25401 -1.87224 1.22681
2.38302 -1.49994 1.22355
-2.01984 1.88149 1.30028
-2.06235 -1.44168 1.22809
1.45282 -2.07425 1.24783
-1.99051 -1.08683 1.2143
-1.92332 -0.70713 1.22009
-1.92509 -0.702937 1.2457
-1.95467 -0.344134 1.22939
-1.89144 -0.564283 1.23011
-1.89108 -0.530518 1.23522
8.20258 -8.68114 -7.44987
12.0711 -10.2412 -8.76107
-8.88893 15.8704 -7.06014
20.237 24.642 -11.4526
-8.82807 -2.5282 -2.58763
-35.0304 -23.4004 -7.78166
-34.6105 -22.6343 -6.10147
-34.3422 -23.3384 -6.1658
-31.625 -20.2822 -2.82514
9.25269 -8.81293 -0.390536
-7.87687 16.9787 -0.461741
-29.7847 -11.5257 0.736021
-6.93721 -8.29114 0.46187
16.3743 23.5127 1.5569
11.2338 15.7988 1.60345
-6.70813 -6.6811 0.885482
4.15804 12.0648 1.47033
8.66183 9.02251 1.46296
7.96299 -8.75383 -10.3677
8.82055 -8.52873 -10.484
6.94881 -11.9241 -11.5017
6.86472 -11.338 -10.8843
8.14277 -8.25505 -9.52166
7.01462 -12.0174 -11.3155
7.05807 -10.9611 -10.4451
7.99259 -8.36781 -9.19313
6.72008 -11.2729 -10.2783
6.43824 -11.6853 -10.203
7.74847 -8.84066 -8.96221
6.19838 -14.3017 -11.7962
8.28787 -8.68985 -9.0899
6.29315 -11.8974 -10.1656
6.14139 -12.0771 -10.1038
7.48188 -9.43376 -8.99039
7.90039 -9.0459 -8.91695
10.4447 -9.42952 -10.466
6.11503 -14.1039 -11.3631
6.09773 -13.662 -11.0003
6.12504 -12.5652 -10.282
9.18053 -8.81061 -9.33469
9.26818 -9.05688 -9.45174
5.85902 -12.4939 -10.0251
9.34401 -8.97379 -9.24614
6.85226 -11.1114 -9.26522
5.61027 -12.9592 -9.99534
9.67205 -9.06259 -9.39369
7.5998 -9.33309 -8.46262
9.97603 -9.16735 -9.51868
10.8934 -9.47284 -10.13
11.4119 -9.67431 -10.0478
8.37387 -8.59704 -7.94584
7.4217 -9.28756 -7.85557
8.15646 -8.70679 -7.88608
7.61831 -9.34023 -7.88601
7.8269 -9.39029 -7.83519
8.3096 -8.52423 -7.61019
0.362364 15.8808 -10.1345
7.51804 -9.31238 -7.6167
10.8844 -9.58418 -9.2214
7.21501 -10.6862 -8.16112
8.14477 -8.48665 -7.41837
4.61013 -15.3995 -10.1101
8.70287 -8.69022 -7.60957
7.91149 -9.02135 -7.40162
4.04601 -18.0135 -11.373
8.1874 -8.6168 -7.2668
4.08538 -17.3093 -10.8524
0.148124 14.8875 -9.05817
6.6452 -11.2474 -7.95416
7.73322 -9.25706 -7.31906
10.1014 -9.29021 -8.32784
6.81137 -11.2367 -7.88879
8.04965 -9.19225 -7.3347
11.2385 -9.67074 -8.86492
5.39496 -13.8439 -8.81255
7.72512 -9.25458 -7.14942
9.33462 -9.01785 -7.69108
6.89253 -11.1002 -7.73367
7.97288 -9.11618 -7.10656
9.7331 -9.16912 -7.79323
14.7821 7.38627 -9.59593
8.65332 -8.8169 -7.13874
6.92337 -10.9501 -7.44598
2.63787 -11.2049 -6.6207
7.84944 -9.05976 -6.86569
9.58541 -9.1215 -7.51665
10.7676 -9.47331 -8.09084
3.28045 -20.6129 -11.7381
6.7925 -10.969 -7.23329
10.0836 -9.27068 -7.67125
12.2989 -10.3199 -9.00402
9.22358 -8.99126 -7.19797
4.60982 -14.2767 -8.3645
7.99179 -9.2026 -6.76955
14.7039 7.5172 -9.06509
9.67737 -9.08831 -7.29146
0.838935 17.4593 -9.54428
2.74299 -19.8755 -10.9404
11.1016 -9.62041 -7.97639
4.2258 -14.3985 -8.12347
14.6177 7.64414 -8.8841
14.9938 10.3518 -9.78123
13.9567 7.69945 -8.51577
10.9218 -9.5927 -7.73043
13.2151 -10.7617 -9.06643
3.04545 -19.3504 -10.2978
11.3239 -9.79752 -7.61956
2.16914 -20.3992 -10.3542
10.2343 -9.31774 -6.96012
14.2131 -11.2422 -9.09925
13.7491 -11.1209 -8.85336
10.976 -9.6272 -7.27414
7.4959 -9.3222 -5.92417
3.56111 -8.46364 -4.52537
-8.72611 -1.91593 -4.39269
2.22543 -20.1924 -9.96372
4.52933 -9.29429 -5.05663
0.405719 13.6509 -6.68458
7.59483 -9.25441 -5.84223
-8.58413 16.3849 -8.96002
-9.22945 -2.43991 -4.60005
14.9259 -11.5264 -9.06321
19.2653 5.51213 -9.5821
-10.3505 -2.56263 -5.04369
1.90973 -20.573 -9.82478
17.0692 16.0397 -11.0917
7.5658 -11.1857 -6.3724
19.9105 5.37415 -9.71126
13.9725 -11.0625 -8.28802
2.9238 -17.3067 -8.16194
19.2421 5.69325 -9.2696
17.7427 -12.9305 -10.1419
9.84056 -2.48555 -4.68936
20.1633 5.11056 -9.59639
17.1921 16.166 -10.8726
1.81121 -20.253 -9.30593
9.64919 -9.023 -6.04954
-9.23979 -1.67711 -4.28296
9.43036 -3.46027 -4.57492
6.69698 -11.29 -5.97123
9.88764 -2.61163 -4.63848
19.1352 5.83486 -9.00554
17.5649 17.4218 -11.1197
9.34688 -3.07893 -4.42943
15.3519 -11.8132 -8.69358
7.0193 -11.5332 -6.0394
7.13509 -10.8924 -5.80444
9.53606 -3.39644 -4.5109
-10.1214 16.5916 -8.65386
17.552 -12.8099 -9.65665
19.4198 5.59426 -8.95675
16.0174 7.26509 -7.78745
17.669 17.8459 -11.1046
16.3405 -12.1529 -8.9761
-11.405 17.3446 -9.12561
-6.63701 15.171 -7.26175
-5.2616 4.93548 -3.14387
20.012 5.43355 -9.01452
9.53503 -3.39672 -4.36818
18.0547 18.2985 -11.0467
15.7416 -12.1141 -8.54793
14.7863 7.39293 -7.05446
3.83392 -9.29111 -4.27059
-11.3246 17.2255 -8.72852
6.92776 -10.8808 -5.43948
-13.6666 3.34938 -5.92875
0.743377 -22.4426 -9.46262
15.7317 -11.9117 -8.25284
-5.19364 5.71953 -3.23301
0.999536 -22.3087 -9.36083
1.23137 -20.8 -8.72923
14.0997 7.56187 -6.69104
18.3756 19.1489 -11.0868
3.7788 -8.94572 -4.04987
14.698 7.69115 -6.90421
17.7535 18.9601 -10.7773
-9.54483 -1.09546 -3.96613
4.00477 -8.49736 -3.8488
13.9667 7.7118 -6.54856
6.82723 -10.9605 -5.27963
-13.7031 2.55985 -5.70296
-8.07565 15.6471 -7.15681
19.0582 20.7079 -11.3995
14.9987 7.20674 -6.70375
-5.3384 14.5833 -6.22762
13.8903 -10.9817 -6.93594
1.52748 19.1568 -7.4624
-8.87655 16.0335 -7.12315
18.8839 5.75888 -7.64882
-1.76275 13.3711 -5.22433
5.28723 -9.3792 -4.1524
-2.40043 13.6012 -5.30537
19.3699 22.4063 -11.3548
4.65577 -8.50694 -3.68299
19.3065 5.53863 -7.64238
0.87962 -26.689 -10.1475
14.8329 -11.4303 -7.04788
19.8606 5.38059 -7.70067
9.42128 -3.43248 -3.74871
0.534902 -22.8268 -8.50824
3.24158 -10.7722 -4.20311
19.9566 23.2168 -11.3673
0.910558 -8.73142 -3.25546
13.9655 -11.0601 -6.56942
20.265 5.15416 -7.68772
17.7193 17.5082 -9.10152
-13.1116 2.29707 -4.83974
20.5882 24.5847 -11.6281
2.28235 -13.2348 -4.83881
12.9814 -10.4979 -6.00798
0.796277 15.3967 -5.51548
-8.22109 -2.80547 -3.10716
0.410414 -21.9672 -7.85339
-4.27324 14.0298 -5.21793
0.639041 -22.0174 -7.82729
15.7735 -11.9132 -7.00666
-16.0142 18.5142 -8.62828
5.91747 -11.318 -4.49093
-11.2129 16.9222 -7.09155
0.0928552 -18.6007 -6.53812
14.2009 -11.2546 -6.33635
20.2198 5.32504 -7.29774
0.658668 -23.1533 -7.99893
-5.09143 14.7846 -5.359
3.6362 -8.44124 -3.16391
4.87049 -9.02212 -3.51355
-14.7675 18.3347 -8.05957
2.2733 -10.8796 -3.8091
-9.04076 16.402 -6.38558
3.01753 -13.6548 -4.76839
-15.2516 18.7203 -8.18717
20.0387 5.44822 -6.97935
21.7379 26.8903 -11.5543
35.6354 -20.1166 -13.6765
-5.39204 14.305 -5.07879
1.90497 20.6155 -6.86806
1.26749 -10.2512 -3.41534
-5.33744 14.7006 -5.08103
-12.8145 17.544 -7.04908
18.4446 -13.1434 -7.35559
3.55863 -8.67013 -3.00487
6.20764 -10.0934 -3.79775
2.31288 -11.0068 -3.57926
-4.63806 -34.8248 -11.165
-1.1512 -24.0899 -7.67602
14.9248 10.2787 -5.71825
-13.4511 17.8998 -7.07848
-18.3377 19.7793 -8.47992
6.94311 -11.0653 -4.03902
1.38833 -21.9753 -6.8114
-2.61058 -27.7887 -8.56627
7.08133 32.6906 -10.2045
0.771198 14.9847 -4.55665
-11.3393 17.1099 -6.18798
-2.74267 -26.9168 -8.14674
-14.6121 18.2702 -6.98163
-5.38555 -35.301 -10.6313
0.842153 -25.2398 -7.55039
-5.48853 15.0994 -4.78046
2.069 20.5583 -6.08623
-21.6894 20.224 -8.75027
18.1111 5.76334 -5.59392
-4.36611 14.6703 -4.50178
-8.07008 15.6581 -5.16947
4.25035 -9.13176 -2.9606
4.62689 -11.5941 -3.65041
-12.6864 2.2349 -3.70241
-33.8888 -48.0031 -16.9065
-15.4806 18.6238 -6.96293
6.93835 -11.0509 -3.75693
2.56208 -9.54029 -2.80686
12.8852 -10.4298 -4.71796
-8.47218 -2.46565 -2.50203
20.7844 26.8041 -9.608
-8.60049 -2.26675 -2.51334
-2.59812 -26.4997 -7.47091
-13.096 2.00682 -3.68965
4.37783 -11.3041 -3.36489
-9.48284 16.3092 -5.18066
-13.301 17.7399 -6.09117
-5.492 14.6607 -4.28046
-8.72147 -42.3449 -11.8271
-21.8895 20.4271 -8.0498
-9.91112 16.4358 -5.14472
-27.247 20.9308 -9.1413
11.3604 11.4337 -4.25202
4.31675 -11.2694 -3.19731
46.4463 -13.502 -12.8145
-8.43178 -39.7847 -10.6873
4.08367 -8.64503 -2.51765
11.1349 -9.90399 -3.89867
-14.7247 18.4371 -6.13644
6.523 -10.4027 -3.1783
3.17442 -9.63549 -2.62281
-30.9263 -45.2945 -14.1608
-4.4585 -29.2381 -7.65055
3.5348 -10.3543 -2.8214
4.06231 -9.37375 -2.626
15.529 -11.6767 -4.95784
-7.2948 15.5426 -4.34717
-32.3567 -43.1515 -13.6757
4.3021 -11.1197 -3.0179
4.25066 -7.69627 -2.2377
6.51984 -10.6351 -3.11132
44.1845 -13.3587 -11.5096
-28.846 21.7633 -8.93435
-11.7459 17.2575 -5.14738
-28.2522 -41.2132 -12.2845
-10.1688 -40.0205 -10.1836
-24.9606 20.965 -8.01128
4.34185 -10.3129 -2.74944
-12.2891 17.6034 -5.20639
-7.9921 15.5733 -4.22022
10.2458 -9.24189 -3.30405
39.7815 -13.2145 -10.0318
15.0365 7.51983 -4.00185
-6.4786 -37.0942 -8.96834
3.96094 -9.07692 -2.34677
46.3229 -12.3979 -11.382
-12.5488 -46.2004 -11.3391
3.84577 -11.0305 -2.75352
4.90087 -8.67992 -2.34509
-13.0181 17.741 -5.12205
10.9729 -9.6161 -3.3349
-6.32587 -32.0737 -7.45804
-27.6893 21.386 -7.93138
40.9967 -8.96561 -9.52399
-31.1264 22.5994 -8.62466
-36.0128 -23.6001 -9.64701
40.2057 -12.4289 -9.44949
5.44387 -9.45574 -2.43621
-12.4755 2.84665 -2.80776
40.077 -11.7444 -9.22787
42.015 -11.9881 -9.61324
-5.48641 14.3972 -3.37006
13.3338 -10.7295 -3.7675
37.6069 -12.0856 -8.68459
-23.8375 20.7757 -6.85951
-31.109 -76.6944 -17.9558
4.30054 -9.67959 -2.2971
4.53047 -9.16278 -2.20801
-14.8521 18.5045 -5.06808
-31.5788 22.9383 -8.33474
-32.481 23.0506 -8.51456
-29.7791 -79.0059 -18.0946
-10.8923 17.0207 -4.28582
-8.66646 -36.7849 -8.0349
3.1838 -9.66575 -2.17028
3.9569 -9.80629 -2.2549
45.1286 -10.463 -9.88961
14.8698 7.44799 -3.5253
-15.4403 19.0074 -5.18555
5.15447 -9.03818 -2.18612
26.0517 37.692 -9.57275
14.9075 7.80176 -3.49278
-30.6047 -23.6362 -8.02132
-11.6623 17.1834 -4.22105
-15.9087 18.8096 -5.01599
-35.9402 24.1257 -8.79644
43.8042 -9.55452 -9.14347
-13.7005 -44.0833 -9.38046
4.12665 -9.71274 -2.14728
11.5625 -9.61154 -3.05941
-12.219 17.5355 -4.26732
-20.7918 -59.6705 -12.6263
-13.3501 -41.4691 -8.62368
4.06064 -9.89921 -2.11866
-34.6561 -23.6975 -8.27586
-27.2408 21.3797 -6.81595
-33.6697 -24.0844 -8.06908
-7.02579 15.5266 -3.30909
-27.7588 -65.2228 -13.7663
-34.074 -22.6841 -7.88777
3.42883 -9.34327 -1.92201
45.2115 -10.4752 -8.91234
-12.9787 17.7204 -4.19977
3.98096 -9.32577 -1.93524
-37.0208 -22.4874 -8.19903
-21.7205 -35.2842 -7.87911
-16.1186 -46.5074 -9.31175
37.4383 -12.35 -7.4532
-36.7272 24.6671 -8.28016
-34.221 -23.6338 -7.81233
-33.1575 -24.2593 -7.71173
-22.1307 -54.8256 -11.123
-17.4537 -47.4079 -9.36937
3.81496 -9.19439 -1.83878
41.9995 -11.3196 -8.07817
5.74448 -9.69067 -2.0648
-25.5115 -57.8475 -11.5733
-21.1793 -52.5672 -10.2489
-14.8221 18.4763 -4.20075
-31.5876 -25.4761 -7.21294
-20.6104 -27.4639 -6.1399
-40.2473 25.3965 -8.39701
-27.2527 21.3986 -6.03126
-34.7867 23.8042 -7.31898
3.90032 -10.0265 -1.8657
4.76428 -8.59887 -1.70851
13.9314 7.48153 -2.72693
14.002 8.03492 -2.76444
-31.4296 22.8551 -6.66238
41.6835 -11.7931 -7.37576
41.4903 -10.7456 -7.29665
-31.7446 -25.2112 -6.87636
-21.4394 20.4183 -4.97215
-21.1488 -52.567 -9.57243
14.7819 7.40865 -2.77264
-32.3193 22.8802 -6.61483
-24.5047 -58.4222 -10.467
42.9736 -11.5767 -7.23458
-10.5373 16.729 -3.19123
-21.4557 -53.2277 -9.15164
-35.4496 -24.4711 -6.78739
-23.1742 20.3605 -4.83075
-24.6085 21.0073 -5.015
-40.9623 24.8012 -7.42044
-11.4201 17.0926 -3.17411
3.46465 -9.50861 -1.56532
3.85881 -10.2044 -1.68944
-7.76859 15.7574 -2.68436
-31.6684 23.0491 -5.98761
-32.252 -24.9105 -6.19649
-28.3738 -26.5404 -5.88546
41.6734 -10.8338 -6.54558
44.2595 -9.64253 -6.90169
-6.66925 14.8558 -2.43749
9.81234 -5.14339 -1.6443
-34.0151 -24.5335 -6.24524
10.1638 -9.13833 -2.03707
44.3949 -10.2702 -6.76772
-37.249 -24.7961 -6.58528
-32.0123 -26.405 -6.06997
-13.0911 -43.3744 -6.66523
16.8253 -12.1731 -3.04239
-25.8444 21.2785 -4.8653
-25.666 -57.507 -9.07352
-7.76353 15.5502 -2.48612
-12.9306 17.6303 -3.11779
6.01381 -11.4894 -1.85337
-13.6468 18.2405 -3.2005
-35.4012 23.9142 -6.00636
6.73793 -11.0061 -1.80394
37.1586 -12.263 -5.50413
-31.6317 -25.3464 -5.65673
-33.6672 24.1949 -5.74355
-21.3211 -51.3869 -7.68321
44.5424 -9.96458 -6.29446
-7.00892 15.5014 -2.32577
-23.6643 -61.7598 -8.98339
7.73308 -9.35845 -1.62937
-14.2453 18.189 -3.11493
13.1615 -10.4973 -2.27819
-22.6106 20.5671 -4.11034
41.5934 -10.7539 -5.70412
44.2735 -9.69766 -5.99958
-22.9932 20.2342 -4.00531
-33.1937 -24.8383 -5.41481
-15.152 18.5543 -3.09777
-34.6929 23.1556 -5.41519
-38.8947 -16.4229 -5.45095
6.99631 -10.4049 -1.60896
10.7164 8.77367 -1.77789
-34.3229 -23.6531 -5.33404
-32.0487 23.3962 -5.01947
-36.1276 -22.544 -5.33732
41.4647 -10.7234 -5.36036
6.77636 -10.3377 -1.54475
-7.80346 15.6089 -2.1615
-25.4632 21.3809 -4.07151
-34.0606 24.0048 -5.14014
6.27137 -12.0279 -1.65279
44.2274 -9.43577 -5.53967
14.9208 7.81713 -2.02488
-18.5101 -44.8304 -5.8478
7.06575 -10.5013 -1.52419
-20.7344 9.18921 -2.68426
-14.8016 -44.7734 -5.5441
-32.3378 -24.9319 -4.77432
-31.8169 -25.4454 -4.7672
41.5424 -11.128 -5.05529
11.1938 -9.63986 -1.71169
-30.4511 23.0894 -4.39671
6.62232 -10.7902 -1.4496
7.47219 -9.19967 -1.35586
11.5435 -9.69045 -1.71207
9.432 -4.60134 -1.18841
14.9 7.65668 -1.88766
-10.5348 16.7714 -2.2357
-32.8207 23.9822 -4.55383
38.4295 -12.6505 -4.53771
9.3316 -8.9988 -1.43438
-11.2593 16.8867 -2.20677
6.76404 -12.7347 -1.56228
44.3661 -9.64229 -4.92253
10.7134 8.80376 -1.49404
16.6801 -12.3905 -2.23048
41.7331 -10.8237 -4.62035
9.59246 -8.95385 -1.39039
8.36026 -8.44518 -1.24503
-31.3684 -25.102 -4.18321
-31.4128 -63.0077 -7.34405
14.8974 7.47123 -1.70245
-32.275 -24.8861 -4.18137
-13.0794 17.8299 -2.24563
-12.9914 17.4053 -2.15912
10.1777 -9.06143 -1.33513
-21.6733 -55.0418 -5.79897
6.2901 -12.0458 -1.31555
16.5515 -12.1093 -1.97169
41.6229 -11.1846 -4.13191
-32.001 -64.6861 -6.86009
-21.6866 -56.9118 -5.78352
-23.715 20.7431 -2.94543
45.0462 -10.021 -4.31089
9.68941 -8.96196 -1.22197
39.2408 -12.9445 -3.85107
-15.2779 18.7282 -2.189
-30.0269 -13.6902 -3.00793
-33.6794 -65.6551 -6.80116
15.7751 -11.8074 -1.79284
8.61506 -8.7058 -1.10924
12.8381 -10.5972 -1.44986
44.6375 -10.3461 -3.92583
9.37626 -9.00336 -1.09288
10.9156 -9.61255 -1.22277
-34.8267 23.9171 -3.51558
16.7501 -12.2148 -1.71743
-17.4741 -45.4707 -3.90152
14.612 -11.4256 -1.47943
-12.004 -33.6056 -2.81651
-30.3824 23.1013 -2.95155
-33.7396 23.8483 -3.18947
-23.5362 -53.7627 -4.53074
-52.3971 28.5166 -4.51698
-21.7548 20.4746 -2.17313
-33.9701 24.0281 -3.01536
16.2895 -12.1714 -1.48789
41.646 -11.1444 -3.14146
-41.2431 -78.0355 -6.36966
13.9108 -11.0062 -1.26976
-16.0221 -42.5024 -3.13496
10.7309 -9.58335 -0.985919
-23.7397 20.7862 -2.13098
12.8164 -10.5755 -1.11256
17.8452 -12.943 -1.47005
15.9549 -12.068 -1.32151
-15.1085 -41.8895 -2.88055
43.3669 -11.2787 -2.80152
-33.2347 -67.3387 -4.58255
35.4888 -8.60955 -2.24162
42.5643 -9.74222 -2.68124
6.01771 -13.008 -0.856938
30.5602 -20.2216 -2.19351
-10.0205 16.7277 -1.14652
-16.0113 -41.7667 -2.54708
16.5177 -12.3444 -1.15815
-9.73423 -12.6189 -0.873333
14.8871 7.6376 -0.904443
13.8388 -10.9548 -0.945401
-13.0012 17.6185 -1.14373
-16.9352 -41.9752 -2.40396
14.7815 7.77253 -0.818297
-16.7725 -42.8725 -2.259
-14.3896 18.2387 -1.11096
9.53875 -8.99754 -0.601587
-24.8987 -57.1146 -2.81961
12.4015 -10.195 -0.744505
-16.5374 -46.0995 -2.17465
-17.7156 -43.6477 -2.01695
6.82194 -12.5966 -0.635801
-14.3666 -43.7937 -1.96351
-53.8652 29.2937 -2.48326
18.2221 -13.0912 -0.910946
16.706 -12.4175 -0.810992
-43.6763 -84.7716 -3.59819
-18.8619 -49.4623 -1.95
-34.2706 23.547 -1.5203
42.1216 -10.8532 -1.56683
-36.0257 -71.6615 -2.68402
-26.8538 -58.8501 -2.17844
19.885 22.998 -1.00886
-21.7986 20.4273 -0.973017
8.06774 -14.2389 -0.549937
9.39568 -8.9696 -0.421218
11.2591 -9.912 -0.487795
18.4751 -13.0632 -0.743988
34.4818 -13.0054 -1.22352
21.62 26.1708 -1.08777
-27.6618 -13.875 -0.969826
-23.2853 20.7355 -0.949833
-32.2778 22.8606 -1.23389
-25.9607 -59.6844 -2.01635
-14.1918 -40.148 -1.31198
-22.3427 -56.9929 -1.85404
-17.1618 -46.5121 -1.42083
-34.4911 -20.9127 -1.07418
11.408 -9.67781 -0.400951
16.2489 -12.0857 -0.53414
-41.9171 25.9311 -1.29918
-30.8488 23.4729 -0.958441
-31.3707 22.9908 -0.918893
9.54125 -8.98196 -0.303705
-42.017 14.5221 -0.981894
-32.3923 -54.2412 -1.42342
21.1148 -14.1216 -0.558756
30.1758 -18.2976 -0.797087
14.1681 3.9155 -0.299732
26.6299 46.5345 -0.984374
23.3796 -10.8844 -0.454522
46.5381 -10.7161 -0.888882
-31.0437 -22.3091 -0.69701
-30.0559 -29.5209 -0.668114
-19.5865 -48.0602 -0.864878
12.6685 -10.4177 -0.270068
18.403 -13.2978 -0.34732
-29.5818 -13.1484 -0.42476
-33.3128 -24.9305 -0.578879
-34.8322 -70.219 -1.05922
-28.7963 -61.2877 -0.928747
-34.4221 -23.5085 -0.544133
-30.8698 23.4852 -0.45595
16.8996 -12.6202 -0.250739
29.021 -17.9944 -0.402368
-31.3244 22.9965 -0.431945
-19.6368 -45.036 -0.526315
-12.3316 -37.1167 -0.394462
-34.57 -60.9113 -0.646092
-14.5646 18.4748 -0.180098
-26.9746 -13.5998 -0.243707
-15.2653 18.6081 -0.164113
-22.9306 20.4791 -0.157584
-21.3437 20.0196 -0.132516
-10.6198 -13.6527 -0.0607307
14.6499 7.69594 -0.0198113
11.0689 -9.73318 -0.00791062
-34.9568 -19.1466 0.060994
-11.6181 -34.5291 0.117949
16.8608 -12.2499 0.0902101
-19.3423 -44.4061 0.214482
18.6627 -13.1493 0.120983
7.14465 -12.2814 0.10357
25.8139 -10.5909 0.171337
-56.5523 20.1931 0.573785
16.1602 -11.9763 0.191826
37.0794 -7.57016 0.356792
-29.3699 -8.28165 0.357298
-36.8152 -22.221 0.474387
-11.589 -33.2039 0.376551
-13.0222 -36.0848 0.45599
-10.5192 -32.3334 0.407296
6.29797 -12.873 0.182856
7.18822 -11.0739 0.173494
-28.6912 22.5216 0.559454
11.2727 -9.84487 0.224876
-24.5318 20.979 0.533674
10.8626 -9.69893 0.228432
12.9169 -10.6336 0.263439
36.0464 -7.71435 0.613002
-35.0615 -23.4906 0.767722
-31.8107 22.7447 0.768901
6.11153 -12.7689 0.274622
6.99766 -11.0123 0.251283
8.00469 -9.39293 0.240908
26.4756 54.4397 1.31755
7.70839 -9.4185 0.275078
10.0983 -9.14636 0.328594
-29.1042 -9.33257 0.736558
-23.7064 20.692 0.852344
-28.0769 22.1385 0.960686
-29.2336 -8.77786 0.80468
9.16454 -8.87104 0.344459
9.59695 -8.91961 0.357042
-26.0445 21.9505 0.926495
25.2014 -5.09826 0.715714
12.9266 -10.6044 0.497925
14.5726 23.7397 0.85979
6.15926 -12.7062 0.444295
7.42837 -11.5796 0.431648
-28.7498 -8.10837 0.980468
-12.7317 -19.4936 0.766887
-28.4281 -8.88517 1.03013
15.991 10.9451 0.700505
-30.1953 -18.7109 1.24174
15.47 26.8726 1.10698
-30.8112 -16.8066 1.30075
23.3853 -4.22278 0.858422
-28.1727 -20.0369 1.28107
-7.31619 -7.97716 0.408609
9.02663 -8.80226 0.468571
12.3154 13.4718 0.703996
25.0652 51.7072 2.17684
23.9544 51.0012 2.12241
-11.6098 -9.18965 0.583981
8.70049 -8.64627 0.485142
-26.1251 21.5208 1.37523
21.7058 -2.94168 0.887311
-29.1425 -17.7012 1.39695
9.38702 -8.90068 0.530294
12.3331 14.2042 0.809537
6.54615 -12.397 0.595279
14.6616 19.0505 1.0571
20.392 28.1668 1.52329
-9.55211 -13.8888 0.740855
-10.0522 -15.7211 0.828202
7.57055 -10.9112 0.585034
8.60184 -8.69102 0.552505
24.0244 -3.68029 1.09724
-30.1802 -8.79496 1.43526
6.71777 -11.0438 0.5947
-8.3009 -8.16906 0.548243
20.6653 41.6944 2.22676
-28.901 -17.8619 1.60608
-9.82694 -13.7841 0.805671
9.63137 -8.93617 0.618717
14.8924 41.3846 2.12941
-30.602 -13.5545 1.59774
-6.78177 -8.26798 0.526309
14.1384 32.879 1.82652
-30.0741 -11.7771 1.62114
-7.61342 -7.00079 0.522981
-6.717 -7.61443 0.513792
15.77 28.5672 1.69462
10.4438 12.2121 0.868567
14.0198 19.0785 1.27141
9.31731 -8.899 0.690239
14.6034 19.001 1.32342
15.0077 23.1791 1.52072
-27.985 19.7043 1.87721
-6.99344 -8.21879 0.598573
-26.91 20.648 1.88703
6.06123 -12.7978 0.792287
-7.1302 -9.18894 0.663367
9.85409 12.3084 0.927433
14.6147 24.624 1.67308
6.42741 -12.9089 0.8299
13.5891 22.1702 1.53614
-8.28763 -8.14642 0.700337
11.4269 11.5057 0.967149
14.4514 19.2204 1.44496
-7.42656 -10.0534 0.777399
6.98154 -11.1256 0.800412
11.216 -9.67437 0.897844
5.84506 -10.7149 0.757367
-7.21364 -6.66764 0.614019
14.2442 20.2063 1.56442
16.0273 7.11429 1.13859
-7.05389 -6.16304 0.614846
6.42703 -13.3713 0.988713
9.20215 20.7859 1.53356
10.3055 12.4212 1.10348
13.3501 17.9513 1.56047
12.1792 20.193 1.63185
11.2313 11.8642 1.14681
6.57656 -9.80786 0.836205
11.3805 11.6434 1.17836
9.77505 -6.90021 0.851289
12.2343 11.8438 1.2507
9.88978 -8.35176 0.948201
-6.21075 6.73134 0.684401
10.3451 9.10917 1.03553
11.7363 17.5476 1.58848
11.2874 17.983 1.59989
-6.96571 -7.72109 0.806518
10.6659 18.4091 1.63249
9.47828 -8.92375 1.00598
-6.42781 -4.30708 0.610508
9.01605 18.0634 1.61331
10.0466 -6.87477 0.974661
12.3305 11.4404 1.35979
9.56373 18.5688 1.68189
-7.29301 -9.67356 0.986864
6.69601 -9.34978 0.935765
12.1181 11.5926 1.37419
12.021 11.8222 1.40015
11.3029 11.814 1.35366
-5.07544 -11.584 1.06382
10.1931 12.7529 1.3892
-6.97758 -6.09731 0.79836
-6.8344 -6.71299 0.809393
-5.2365 -11.4848 1.07337
-7.32343 -7.77112 0.919725
9.25444 -7.2324 1.01471
-7.14355 -8.08373 0.944231
-7.03813 -7.71366 0.918499
9.27996 12.3868 1.37224
-6.97505 -8.39978 0.975572
10.7228 8.99711 1.27572
10.3359 13.3121 1.52274
10.4326 9.16251 1.27108
7.60861 13.8113 1.45037
-6.51813 -8.16085 0.957105
-6.92787 -9.051 1.05213
11.0889 10.6949 1.42154
11.1526 9.09936 1.34696
10.7616 10.6968 1.4224
6.37778 14.7381 1.50896
-11.4942 2.94466 1.1133
-6.37266 -4.17835 0.714201
-6.82229 -6.30924 0.86195
9.31526 13.1372 1.55358
-6.07984 6.6065 0.88484
7.94102 -6.59307 1.00584
7.8273 13.0512 1.51167
-7.08981 -7.64039 1.05023
9.20639 11.5115 1.48677
6.91748 12.2822 1.43056
6.96832 12.8376 1.48906
9.45132 9.01437 1.3517
5.76875 13.7519 1.54556
9.03466 12.2878 1.5901
-6.11703 -4.46394 0.794033
5.869 13.4857 1.54909
6.12822 13.4234 1.55124
-6.98448 -4.43668 0.885342
8.69181 8.9402 1.32933
9.049 10.0808 1.47327
7.24913 10.8847 1.42123
5.75385 11.3329 1.38176
-6.31519 -7.42923 1.06595
10.1972 6.40865 1.33257
8.92012 8.07344 1.32624
7.22721 11.5523 1.50463
6.76557 11.4988 1.47497
5.2858 11.7374 1.43209
4.80016 11.9315 1.4387
4.62319 13.4449 1.56391
9.79575 7.00399 1.34463
8.68029 9.22704 1.4156
5.31321 11.3685 1.41302
-6.85824 -6.73999 1.07049
6.79317 10.6031 1.4185
4.24679 12.9546 1.54056
9.72611 -3.18713 1.14113
-6.11454 -5.42326 0.94652
7.27498 -6.10798 1.07822
10.3478 5.67761 1.35373
-7.39787 -0.987992 0.855691
-6.26831 -5.36552 0.950021
5.24152 -5.54972 0.879414
5.00026 11.469 1.45326
-6.89629 -4.56801 0.958876
4.44698 -7.25115 0.983671
10.3438 5.117 1.35422
8.81476 7.82351 1.38356
-6.01098 -4.37474 0.866743
-6.49782 -5.28325 0.989627
4.08512 -7.85263 1.05266
4.96107 -5.84366 0.9196
10.107 4.72592 1.3375
8.44916 8.20436 1.42647
5.20705 11.3438 1.52348
8.98483 6.22425 1.33826
7.94509 8.26854 1.43643
-6.50253 -5.75807 1.0815
3.70175 -7.5632 1.0546
8.61575 6.64307 1.36806
-6.47996 -5.35448 1.06417
9.03159 5.97391 1.38248
8.12397 7.08866 1.37559
8.0527 7.45063 1.40076
5.76915 -5.33819 1.00905
-6.98595 -4.45208 1.06369
8.03726 7.93546 1.46495
-7.374 -1.04472 0.96276
-6.93641 -2.83183 0.978863
8.92918 4.07983 1.28563
8.34504 6.58355 1.39535
4.9927 -6.02113 1.02809
4.91075 -6.1853 1.04574
6.85901 -4.27569 1.0758
-7.14833 -1.72186 0.986182
-7.02359 -2.22442 0.985437
-6.03487 -4.42934 1.00113
8.07988 6.61324 1.41546
8.56463 4.41624 1.31377
8.58173 5.13729 1.36611
7.9707 7.08681 1.45169
-6.82105 -3.74045 1.05669
8.81591 4.13816 1.33304
8.21421 5.79757 1.37679
-6.40898 -4.33654 1.05924
-5.96671 -4.53214 1.02364
5.30657 8.94219 1.43608
3.59258 9.93832 1.46725
-7.38418 -1.09539 1.0343
-6.91716 -3.93445 1.10477
4.94436 -5.53845 1.02599
5.22305 -5.39287 1.0419
7.45062 -3.53086 1.15295
3.33789 10.0098 1.47815
8.35801 4.57434 1.34778
7.36262 -3.67194 1.16707
7.57347 -3.32893 1.17936
7.74734 -3.29948 1.19477
8.89967 2.80226 1.34293
4.82945 -5.63033 1.06616
7.34149 -2.84831 1.14638
-6.97147 -3.30633 1.12508
7.9027 -2.77418 1.22106
8.64374 -1.81567 1.29641
4.96234 8.49602 1.45217
2.91267 9.30918 1.45071
7.71732 -1.88429 1.17071
7.18776 5.72423 1.369
3.41092 9.43569 1.48275
3.14256 9.66039 1.50516
-7.38657 -1.04567 1.10669
-7.0883 -2.02702 1.09922
6.90455 6.25024 1.40604
-6.27299 -2.27526 1.00189
-7.25532 -1.37818 1.11534
7.89873 4.79305 1.40752
5.6679 7.30333 1.40256
5.25186 7.57235 1.40239
5.01468 7.94679 1.42051
6.75038 -3.22131 1.13107
7.23474 -3.11972 1.20647
7.62232 -2.75051 1.23477
-7.33312 -0.734587 1.12604
-7.11112 -1.95829 1.13893
6.77985 -3.08862 1.15208
3.75024 -5.78717 1.06627
-7.06656 -2.07997 1.15538
-7.36207 -1.09526 1.16929
7.3248 4.751 1.37886
-7.21327 -1.44645 1.17104
-7.28676 -1.30381 1.1883
-7.11121 -2.02293 1.20283
7.03516 4.73983 1.38466
-7.11496 -1.94922 1.21238
6.97466 4.84077 1.41012
6.58263 4.8282 1.36224
5.17446 6.20483 1.34579
4.63794 7.11792 1.41866
3.78609 7.85792 1.44956
-7.26425 -1.37635 1.23481
2.79445 -5.781 1.08229
7.10864 4.40792 1.40901
6.47954 5.2109 1.40266
3.87447 -5.36635 1.11584
3.93784 -5.02245 1.08028
-7.28764 -1.25506 1.25505
-6.60906 -2.62952 1.20732
7.38908 2.83725 1.3424
7.00002 3.87456 1.36336
-6.42424 -2.75728 1.18992
6.74486 4.08062 1.35323
5.67907 -3.51752 1.14969
-7.41232 -1.04188 1.29505
-6.36683 -2.28401 1.16342
5.53242 -3.64601 1.14199
5.31681 -3.77249 1.1426
3.56571 7.09989 1.39728
-6.81192 -1.73834 1.23522
4.48034 -4.46773 1.1134
-7.10703 -0.916534 1.27715
4.72485 -4.4574 1.14939
4.29857 6.44763 1.38256
6.56026 3.46022 1.33933
6.59861 3.66746 1.3561
-6.45234 -1.50311 1.19217
3.61028 -5.32839 1.17071
5.04884 5.58087 1.37782
-6.16429 -2.18652 1.19926
3.4152 -5.16162 1.15089
3.35969 6.7149 1.40441
-1.69615 -5.77694 1.14392
6.42277 2.72258 1.32745
-2.14176 -5.7239 1.17515
6.28744 2.78638 1.3239
-2.78646 -5.37467 1.18665
-3.54946 5.39073 1.39967
4.45276 3.87772 1.34738
4.15273 -2.87983 1.17734
4.62861 -2.18625 1.23674
4.18513 3.28037 1.31698
3.71013 -2.93235 1.22457
4.0074 2.5675 1.3294
-1.44123 -4.11283 1.22066
-2.31927 -3.57712 1.21202
3.85038 2.35839 1.30791
-2.87365 3.54225 1.36873
-2.47909 -2.91483 1.18915
-2.37653 -2.93588 1.19404
1.84651 -2.81682 1.18386
1.86945 -2.79485 1.21386
1.99543 -2.53049 1.2
-2.04956 2.8165 1.32594
2.80466 -0.555839 1.2592
2.78363 -0.336899 1.24076
-2.08797 -1.61829 1.21284
-2.07585 -1.45057 1.238
-1.86071 -1.79468 1.28306
-1.99358 -1.1309 1.20458
-1.98514 -1.06991 1.23145
-1.94509 -0.880025 1.23179
-1.9296 -0.708167 1.22221
-1.92849 -0.701278 1.24944
-1.90504 -0.469549 1.22242
-1.87053 -0.345594 1.21972
-1.85531 -0.40104 1.22638
2.37865 -19.7122 -10.0191
-7.62351 -9.00056 0.466488
8.00509 -8.78554 -10.4509
8.25174 -8.61706 -10.4884
8.20347 -8.27836 -9.87173
6.94736 -11.94 -11.3938
8.50184 -8.95861 -9.72527
7.8386 -8.92413 -9.12212
5.8428 -12.7838 -10.7174
9.40905 -8.81733 -9.72642
6.13985 -14.0789 -11.5634
8.27368 -8.66496 -9.00794
8.00479 -9.15436 -9.0941
7.2809 -9.23196 -8.76027
5.90174 -14.1345 -11.1763
7.70575 -9.29106 -8.71042
7.84306 -9.10249 -8.65558
7.11781 -10.565 -9.07031
6.80913 -11.0559 -9.20549
10.0301 -9.17179 -9.54603
6.52901 -11.1582 -8.85105
8.0203 -8.61431 -7.83795
7.34838 -9.26569 -7.85923
8.50136 -8.66655 -8.06985
7.7065 -9.45614 -8.01457
6.47586 -12.7534 -9.34071
7.91955 -9.16514 -7.90051
4.99791 -16.0287 -10.7995
-0.471002 13.9459 -8.92215
7.71472 -9.22922 -7.71393
7.32144 -10.8438 -8.33135
8.36286 -8.55095 -7.62035
10.8471 -9.59596 -9.18662
8.97282 -8.80279 -7.88368
11.7294 -10.0024 -9.66148
8.05825 -8.52062 -7.21542
4.03967 -16.8422 -10.6155
4.24578 -15.3701 -9.79139
7.83046 -9.34238 -7.3057
3.95107 -15.6281 -9.61284
11.4455 -9.7987 -9.02458
6.85135 -11.057 -7.72428
7.75997 -8.80602 -6.95327
5.47923 -13.9788 -8.87162
6.477 -12.6853 -8.33618
8.34749 -8.57969 -6.97622
9.66589 -9.06074 -7.72561
2.78725 -11.7833 -6.94122
5.4666 -13.8691 -8.44168
9.57271 -9.08455 -7.46076
6.60611 -11.0514 -7.25019
3.35206 -20.7375 -11.7729
8.86143 -8.92182 -7.0495
12.1507 -10.1944 -8.88625
6.81162 -10.9873 -7.20239
4.67548 -14.5911 -8.46854
6.21024 -12.5997 -7.72813
0.898017 18.5451 -10.1054
14.551 7.68852 -8.93989
4.19719 -14.2236 -8.01022
14.6609 -11.6017 -10.079
14.9023 7.40503 -8.86197
13.9461 7.68357 -8.45836
4.75918 -14.8321 -8.27736
12.043 -10.1167 -8.27763
1.81497 -20.5253 -10.6009
11.3796 -9.82087 -7.70146
2.08245 -20.2457 -10.3279
0.00763856 14.2787 -7.16622
-7.363 15.3099 -8.51675
10.5633 -9.57265 -7.16353
7.499 -9.40607 -5.99383
-8.58857 16.2864 -8.90162
11.6019 -9.74383 -7.3338
10.4644 -9.55766 -6.80583
14.7173 -11.2833 -8.94566
16.573 15.6983 -10.842
7.46516 -11.0342 -6.34796
14.9358 7.37955 -7.81488
13.8704 -10.9836 -8.26986
-12.0823 17.3043 -9.67291
15.7606 -11.9424 -9.03472
9.75724 -2.44636 -4.6203
-9.13554 -1.66083 -4.22278
18.5521 17.9013 -11.6292
3.909 -9.08951 -4.49116
-10.3185 16.8596 -8.87984
-5.36652 4.46322 -3.13994
6.84097 -11.2631 -5.93319
9.40514 -9.06492 -5.76159
15.932 7.26771 -7.72385
-6.69403 15.2089 -7.26071
1.49934 -18.7537 -8.13748
-11.2972 17.1918 -8.86041
9.56432 -3.36415 -4.34229
7.00044 -11.0193 -5.51939
15.7465 -11.9037 -8.26382
14.5734 7.70353 -6.91257
18.5761 19.3254 -11.1994
1.02135 -22.6976 -9.45874
-4.56341 13.9675 -6.05661
-9.96457 -1.11451 -4.15577
14.0156 7.73879 -6.53536
20.2257 21.9997 -12.1772
-13.133 2.46123 -5.44366
15.0352 7.14347 -6.7306
-5.26539 14.4367 -6.18314
3.63371 -8.79743 -3.78892
13.8788 -10.9587 -6.91161
19.1072 21.383 -11.1202
18.7001 5.7664 -7.58691
1.53586 19.1607 -7.45051
-8.82299 15.9014 -7.0138
11.3634 -10.0194 -5.82779
19.0346 22.0666 -11.2216
0.684329 15.3419 -5.87955
-1.66605 12.8128 -4.97184
2.71258 -12.2431 -4.81152
-8.79316 -1.25586 -3.37647
0.70417 -23.7819 -8.97721
15.1049 -11.5757 -7.1779
9.47367 -3.45678 -3.80387
-7.90874 -3.51323 -3.17418
1.09724 -10.4755 -3.87364
7.01124 -11.21 -4.83584
14.1206 7.88422 -5.8372
-8.31298 -2.85415 -3.16072
0.790386 15.2436 -5.44109
-3.98858 13.4981 -4.98235
5.72473 -10.9633 -4.35307
15.7495 -11.9027 -6.99297
18.9693 5.85864 -6.98354
2.09497 20.421 -7.19512
21.3482 25.8066 -11.6352
-15.0605 18.5927 -8.21607
2.96347 -13.3072 -4.69312
-8.99115 16.2454 -6.3486
18.3565 -13.0017 -7.71095
-5.08569 14.6196 -5.26645
1.36461 -22.3585 -7.42255
1.75225 19.4963 -6.46385
1.44855 -10.3246 -3.44568
38.6015 -19.7326 -14.2296
6.15673 -10.0278 -3.76699
17.4565 -12.326 -6.84544
2.10796 20.5409 -6.56881
-13.5141 18.0437 -7.11089
1.45846 -22.8809 -7.14309
-4.34276 14.8758 -4.81855
-11.0814 16.7926 -6.10077
-2.79741 -28.4456 -8.68175
3.05998 -9.45716 -3.0212
0.798045 -24.4751 -7.36365
18.9841 -13.4749 -6.90913
17.5028 5.53715 -5.38573
-7.97744 15.4467 -5.0643
4.21934 -10.471 -3.28143
3.61215 -10.5444 -3.17279
4.23 -10.9169 -3.28712
-13.4771 18.0155 -6.2614
-9.39912 16.07 -5.06771
-13.3061 1.99465 -3.68946
-17.1433 19.6975 -7.09327
26.0434 -17.1451 -8.45034
-4.00291 -28.5321 -7.72503
3.77759 -9.13299 -2.64467
-9.91805 16.4895 -5.12489
46.5693 -13.5974 -12.866
10.4976 -9.36285 -3.72389
-6.52719 15.1172 -4.30473
-14.5964 18.3018 -6.14573
-8.19524 -38.7644 -10.3181
4.94674 -9.54968 -2.78419
6.54017 -10.4674 -3.18472
-7.30234 15.5017 -4.35897
-10.6826 16.6406 -5.05543
-10.1559 -40.2397 -10.3184
-9.29776 -40.1325 -10.0569
10.9013 -9.60991 -3.57392
-8.06587 15.6574 -4.27381
-11.8744 17.2609 -5.07431
14.5285 7.67434 -3.89897
4.0392 -9.23585 -2.3861
15.1294 7.49267 -3.97795
3.74021 -8.89331 -2.26822
-6.65914 -33.1696 -7.83241
5.61139 -9.85849 -2.62959
44.1324 -10.6799 -10.5548
-12.9726 17.6717 -5.0486
14.7838 7.5712 -3.757
43.1978 -9.34471 -10.0131
-9.91613 16.5194 -4.31513
3.70495 -9.2293 -2.16408
42.375 -10.8707 -9.5493
15.0406 7.46152 -3.5946
-10.7771 16.8243 -4.28207
-22.3342 -35.1112 -8.93872
4.80743 -9.72392 -2.34061
44.4151 -10.3996 -9.76106
-14.9858 18.5676 -5.02223
-32.6793 -24.1201 -8.60851
41.1359 -13.764 -9.17816
14.7664 7.80278 -3.4823
-36.1386 24.4387 -8.92211
-8.58629 -35.1174 -7.3192
3.93676 -11.4629 -2.43696
43.9555 -9.48357 -9.14707
11.7303 -9.70982 -3.05434
42.3961 -10.914 -8.72499
-27.3906 20.6697 -6.81229
6.12241 -10.2476 -2.37712
45.2777 -10.5879 -9.083
-12.9667 17.6929 -4.24114
-27.2754 21.3754 -6.73504
15.9261 12.0465 -3.81568
-6.98504 15.3789 -3.24511
-33.6007 -24.3036 -7.93688
-32.0852 -25.1249 -7.83103
