ply
format ascii 1.0 
element vertex 1870
comment /media/mkaihara/Seagate Backup Plus Drive/model_iterations/model_45.ply
property float32 x 
property float32 y 
property float32 z 
end_header 
16.5144 7.40765 -6.03064
3.45839 -10.2899 -3.61949
1.34906 -10.9251 -3.6389
-6.23459 14.8721 -5.25883
-12.6272 17.3188 -6.97556
15.8381 -12.1719 -6.49854
6.05747 -9.86901 -3.72196
3.34738 -10.1558 -3.429
-1.12576 -23.6144 -7.55177
2.32662 -11.036 -3.593
3.24047 -10.0853 -3.35683
2.82997 -9.05081 -2.99058
13.6766 -10.8144 -5.48014
-17.8407 19.2848 -8.22576
-8.69287 -2.64773 -2.84621
28.85 -15.8252 -10.323
1.36535 -21.4028 -6.62272
19.9456 25.8246 -9.83716
3.23165 -9.89134 -3.13726
3.45332 -8.98487 -2.89723
-14.2735 17.8516 -6.83723
-21.2353 19.8035 -8.59971
-7.90401 15.3695 -5.08447
4.78901 -12.0294 -3.79281
4.15919 -8.94119 -2.89905
2.08378 20.6292 -6.08989
-4.31572 14.5107 -4.43429
4.06504 -8.97519 -2.88082
-15.1843 18.2683 -6.84984
-31.8788 -45.5568 -15.9069
7.15756 -11.145 -3.77877
2.54766 -9.48525 -2.78454
-8.39407 -2.19876 -2.44636
4.45189 -11.05 -3.35862
-2.43884 -24.6063 -6.92996
-9.21406 15.8884 -5.05784
4.37302 -11.2837 -3.33636
8.59704 -8.38552 -3.29991
-12.9975 17.3174 -5.92628
45.9486 -15.2341 -13.1954
-8.71178 -2.43678 -2.44953
-24.2516 20.3548 -8.56391
3.25278 -9.99772 -2.84127
3.40562 -10.0041 -2.85434
-4.20151 -30.2111 -8.19066
-26.6301 20.4237 -8.9458
42.9795 -14.1801 -11.9608
46.3248 -13.4099 -12.7593
-8.41781 -37.8924 -10.2283
-8.17231 -38.5415 -10.3867
-14.3504 17.9832 -5.97023
9.86348 -8.96981 -3.48454
11.3472 -10.0756 -3.942
-10.5654 16.4855 -5.06509
-4.23007 -27.7329 -7.28949
3.26763 -9.87838 -2.68979
3.52699 -10.32 -2.82232
-26.05 20.6516 -8.52645
4.28633 -11.0768 -3.00502
4.41184 -9.69928 -2.68775
9.49442 -9.18176 -3.32952
6.92897 -11.3849 -3.34489
-27.0174 20.8468 -8.52609
44.2775 -12.8885 -11.5064
-11.4396 16.8544 -5.05496
11.8411 -10.1967 -3.86233
3.37238 -10.2576 -2.65691
-24.3557 20.4593 -7.78129
9.99256 -9.02426 -3.23931
-7.79197 15.2007 -4.09992
4.06467 -12.0089 -3.05471
15.1315 7.60004 -4.05243
3.39081 -11.1441 -2.79264
3.17107 -9.88964 -2.47525
4.81356 -12.5474 -3.23545
-6.64561 -38.0153 -9.18607
-11.0157 -42.3193 -10.3695
3.97367 -9.10357 -2.34949
-28.6828 21.4355 -8.45925
14.9413 7.6473 -3.93138
-9.36902 16.184 -4.39141
3.93965 -11.3586 -2.8299
-12.7429 17.3734 -5.03487
-26.2489 20.8283 -7.78173
3.48459 -10.3221 -2.4982
11.0658 -9.50009 -3.36556
15.7057 -11.8399 -4.50551
-37.0853 26.2397 -10.3887
-12.3191 -42.888 -10.1721
10.9344 -9.56063 -3.32271
-11.6087 -41.7252 -9.82719
-6.08 -30.8355 -7.15335
40.9872 -12.6714 -9.72128
-26.8555 20.7468 -7.657
14.7504 -11.4468 -4.19824
-30.5356 22.1811 -8.46911
4.4478 -5.80291 -1.64127
5.30154 -9.19023 -2.37398
-27.4498 -70.8157 -16.7957
-9.57421 16.0278 -4.11177
-12.808 -43.9868 -10.0815
4.11304 -9.79202 -2.33732
13.4935 -10.8849 -3.82223
4.01431 -9.19193 -2.20581
41.3685 -12.2339 -9.44723
-23.3376 20.343 -6.75145
3.39786 -10.1105 -2.28879
4.40568 -9.9173 -2.34807
15.0156 7.54796 -3.61065
-28.7199 21.4898 -7.71082
-21.059 -33.3886 -8.48173
-8.24324 -34.9157 -7.67421
-24.2533 20.4557 -6.76061
-30.8048 22.3746 -8.10273
3.25493 -9.95086 -2.23427
4.87866 -8.87243 -2.14721
14.8276 7.74256 -3.54063
4.24197 -10.5186 -2.41351
42.0498 -10.9583 -9.20832
-10.4612 16.3871 -4.10131
4.34365 -9.15961 -2.12633
3.15339 -9.12859 -2.00127
5.16452 -9.06043 -2.18499
14.8316 7.46313 -3.4596
-37.7231 24.8407 -9.40197
-27.0282 -25.0613 -7.61945
3.02682 -9.47093 -2.06686
-28.4631 -30.0145 -8.52326
-19.6628 -30.7027 -7.50808
3.85951 -9.34307 -2.08586
3.74116 -8.74498 -1.95221
-15.509 18.3397 -4.91597
-24.2064 -64.1636 -14.078
3.9926 -8.79118 -1.97442
-35.1769 23.5576 -8.60798
-13.9304 3.04752 -2.91361
-33.2549 -23.5025 -8.30467
-26.7307 -73.8388 -15.9871
-11.1453 -35.8929 -7.6442
44.2439 -9.66264 -9.19876
14.9869 7.65659 -3.37255
-17.6592 -23.3936 -5.89036
12.3771 -10.1145 -3.21432
-18.4899 -52.8955 -11.1848
4.19095 -10.7822 -2.30713
-11.9454 17.1291 -4.14814
-25.9564 20.4238 -6.54694
-35.1677 -20.8188 -8.12524
-31.9283 -24.9352 -8.0293
-9.06374 -35.1373 -7.22668
14.5822 -11.4967 -3.67897
4.03704 -9.842 -2.09696
3.23094 -9.87584 -2.03699
-35.2601 23.2984 -8.21307
-22.7049 -54.6709 -11.4433
-15.6784 -45.2719 -9.13813
3.49345 -8.91921 -1.83446
-20.0294 -32.4393 -7.23887
-31.7299 -24.7632 -7.58978
-28.7994 -25.5731 -7.25053
-21.5105 -53.1559 -10.8496
3.89294 -9.10809 -1.8864
-16.3898 -44.7033 -8.91178
3.44687 -9.23432 -1.81984
-32.2017 -24.035 -7.31544
-31.0023 -26.582 -7.44332
-32.6571 22.9916 -7.19955
-19.8476 -49.1064 -9.45151
-30.9962 -24.9691 -7.00102
-23.717 -61.4097 -11.598
-33.9116 22.5676 -7.13264
-16.2542 -45.8373 -8.52862
3.40938 -9.58349 -1.77785
14.1442 7.85 -2.80567
-34.6526 23.7456 -7.2861
-28.6484 -25.1092 -6.62593
3.48059 -9.53255 -1.75982
4.80529 -8.67006 -1.71783
-26.623 20.9019 -5.8493
-30.4361 22.1368 -6.49135
-30.7577 -28.3302 -7.21591
3.89655 -10.0272 -1.85612
13.993 7.54348 -2.73186
-23.1358 -53.1602 -9.86075
-20.4728 19.4792 -4.76844
-31.2455 -24.8348 -6.76856
-19.3746 -48.036 -8.7837
5.6229 -11.7816 -2.20416
42.6307 -12.0403 -7.50953
-17.876 -47.7104 -8.57876
41.7338 -10.8585 -7.25361
5.01213 -10.7554 -1.97526
6.70868 -11.1472 -2.19786
-10.2588 16.3102 -3.12595
-30.0917 -23.2938 -6.20175
43.0241 -11.5542 -7.24923
-21.9302 19.9214 -4.80571
-20.0249 -49.5422 -8.48735
-22.7135 19.9708 -4.77058
-23.9135 20.3857 -4.88912
-32.5818 22.9513 -6.1664
3.82234 -10.1249 -1.66304
-31.8299 -24.611 -6.15044
-13.5472 -40.871 -6.61501
-30.7779 22.3987 -5.78688
-22.2724 -53.6043 -8.84086
-7.56472 15.3178 -2.57555
-33.0716 -23.2413 -6.09046
-32.3479 -23.7816 -6.08395
-27.5548 -25.8537 -5.68671
-32.9299 -23.7007 -6.08576
-31.1081 -24.9015 -5.95704
-34.507 -23.0481 -6.16032
-24.6069 20.6564 -4.73639
-32.8466 -24.5801 -6.04634
-31.8348 -24.1076 -5.89744
-25.2658 20.8199 -4.78968
-12.2861 -40.7157 -6.23495
-12.4787 17.0698 -3.04602
-7.58003 15.1648 -2.41731
3.51268 -9.57134 -1.45068
38.8113 -12.7645 -5.81069
-33.1779 -24.4398 -5.82974
-30.3663 -24.134 -5.45938
-29.8399 -25.1678 -5.4974
-20.1295 -48.5028 -7.31885
-6.75054 14.9574 -2.22745
-13.851 17.6967 -3.0485
-11.4937 -40.2348 -5.6988
-7.32727 14.8502 -2.22336
-23.6055 -61.4502 -8.9075
-22.1672 20.1593 -3.99065
-24.1104 -54.649 -7.9377
-31.0822 -23.9938 -5.18346
45.8711 -10.5703 -6.19006
45.2207 -9.94102 -6.09897
-13.1758 -40.9472 -5.65416
6.64934 -10.9586 -1.68577
-14.853 18.1928 -3.05661
-22.5746 19.8828 -3.89987
-32.3648 -24.1616 -5.2001
10.7663 8.83045 -1.79791
-33.2642 22.8721 -5.18348
-29.3726 22.3512 -4.6531
-30.7058 -24.0402 -4.92017
-12.5718 -35.7691 -4.79479
9.68445 -9.06384 -1.65517
12.8213 -10.4784 -2.08455
-33.3787 23.4156 -5.09877
-35.7829 -22.2927 -5.25115
-30.3638 -25.0971 -4.89532
6.78812 -10.3237 -1.54196
-32.6754 -23.096 -4.95889
-13.3275 -41.5802 -5.37163
13.217 -11.0182 -2.1122
42.2279 -10.9752 -5.38696
-16.0145 18.4363 -2.98507
-15.6824 -38.0123 -5.02739
-8.64911 15.4623 -2.15771
44.142 -10.1685 -5.48458
15.0618 7.8627 -2.041
9.4275 -8.9454 -1.55144
-33.4657 -23.3493 -4.83922
-17.6721 19.207 -3.0542
-20.6528 9.13947 -2.67652
-31.4825 -24.3732 -4.69619
-25.0555 -56.7674 -7.29151
11.308 -9.72756 -1.7464
42.5873 -11.4008 -5.19071
14.7464 -11.45 -2.14582
14.9873 7.70382 -1.91617
-29.5859 22.5 -4.24067
7.2797 -11.0545 -1.50201
-10.1419 16.1926 -2.13983
9.46105 -9.32734 -1.47893
12.8003 -10.5133 -1.84697
14.0051 -11.0541 -1.98458
9.464 -9.1268 -1.45925
7.06707 -10.4655 -1.38331
45.1348 -9.8576 -5.02821
-10.7888 16.2066 -2.09952
-32.7879 23.1204 -4.35761
11.734 -9.85853 -1.65484
6.19582 -12.741 -1.49022
7.57023 -11.5878 -1.44036
9.85811 -8.91482 -1.39836
-15.0321 -43.4383 -4.82009
16.6102 -12.3007 -2.16765
-29.7644 -59.7981 -6.9297
14.9291 7.51754 -1.70862
-30.7885 -24.5372 -4.04457
13.8583 -10.9649 -1.81102
-31.542 -24.3986 -4.03531
14.9175 7.79415 -1.6913
-12.5408 16.7713 -2.05808
-19.8943 -50.4409 -5.25517
-31.8042 -64.2479 -6.86437
-23.1666 20.2656 -2.90846
-30.6453 -25.1049 -3.7663
-30.6208 -25.4351 -3.79445
-21.0964 -55.2033 -5.57334
-13.9322 17.8279 -2.11816
-30.9142 -24.1857 -3.66367
-15.3844 -41.9039 -4.15919
-13.6066 -42.2916 -4.14491
9.82887 -9.11022 -1.24534
-32.3737 -63.0623 -6.53178
8.56802 -8.66535 -1.1065
16.5425 -12.3257 -1.8873
-14.8232 18.1838 -2.10496
-35.4836 -22.07 -3.78208
-32.7366 23.1135 -3.53026
-30.7071 -24.7735 -3.48719
14.0705 -11.1911 -1.59594
-31.8605 -19.4152 -3.18394
11.0627 -9.70849 -1.2533
-26.3708 21.3908 -2.8526
-11.1529 -34.7122 -3.08185
9.40552 -9.01839 -1.09409
-33.4474 22.9964 -3.37324
8.6915 -8.69312 -1.00975
16.8067 -12.2572 -1.69918
-16.3703 -42.538 -3.66381
-20.9768 -47.9854 -4.1001
-15.0305 -37.1061 -3.17392
-13.0735 -36.6814 -3.09452
9.20794 -8.94835 -1.00883
11.2988 -9.79471 -1.17232
14.894 -11.6497 -1.497
-29.5935 22.5676 -2.89675
-29.0414 -13.5559 -2.49032
11.8734 -10.059 -1.20619
-22.6538 -50.4525 -4.2367
12.7959 -10.6211 -1.25986
-39.7006 -75.3196 -6.16286
9.95686 -9.13829 -0.979489
10.9185 -9.74605 -1.02009
-32.9268 -20.4407 -2.68159
11.9679 -10.0584 -1.08246
14.7403 -11.6058 -1.30388
-15.2567 -38.5514 -2.82215
-14.8577 -39.3055 -2.88109
18.6251 -13.4602 -1.52547
-23.0654 20.1951 -2.0352
-24.228 -55.8897 -4.02887
12.8921 -10.6052 -1.11598
-14.3709 -39.8695 -2.75477
15.3059 -11.5567 -1.24621
-31.5305 -63.839 -4.47215
-14.6393 -45.376 -2.96334
-32.4604 22.9312 -2.43302
-31.9879 -63.2575 -4.31522
-16.6891 -40.653 -2.68003
31.1235 -20.6349 -2.27289
42.3438 -11.0423 -2.65632
36.7235 -8.85402 -2.28852
-14.8664 -39.9133 -2.57386
-26.688 21.6597 -1.94926
-28.7711 -14.1647 -1.8536
-15.5556 -40.5246 -2.42161
16.9384 -12.639 -1.18384
-26.9558 -16.221 -1.69398
42.9408 -9.56515 -2.26216
-9.36419 -12.512 -0.793545
-15.1496 -40.3178 -2.1457
5.72467 -12.4941 -0.682765
-14.0503 17.8116 -1.10664
-14.7606 -46.3948 -2.39151
14.9354 7.83556 -0.812756
-16.0495 -41.1389 -2.09908
-14.2244 -46.2624 -2.28413
18.7753 -13.3213 -1.10318
-16.8222 -48.7857 -2.40758
37.0206 -9.09255 -1.78597
-28.6725 -14.6616 -1.44135
-23.8263 -54.5953 -2.642
-16.2701 -40.0319 -1.92392
9.66701 -9.12227 -0.592563
12.6224 -10.3602 -0.732843
44.6132 -10.2082 -2.0349
-13.7796 -41.915 -1.87829
-32.3877 22.8955 -1.65235
-52.8065 28.6791 -2.39778
-33.4191 22.9988 -1.48911
-18.4642 -48.2857 -1.94048
-34.2941 -21.5955 -1.44903
9.75409 -9.07755 -0.489844
6.61508 -10.8473 -0.440809
-12.8444 -38.2906 -1.33703
7.47941 -13.1284 -0.515944
18.6679 -13.2221 -0.772474
-26.0404 -57.0329 -2.06452
-13.1463 -37.2961 -1.28142
21.3061 24.5734 -1.04488
-22.8877 20.3193 -0.964356
-20.3968 -52.228 -1.73879
21.1065 -14.3933 -0.776362
-27.4426 -14.1222 -0.935882
-12.7665 -40.8575 -1.27272
-23.8443 20.2606 -0.899169
-23.1904 -53.3702 -1.65526
-17.2037 -46.5615 -1.4319
22.6303 -10.1841 -0.748801
-34.1608 -20.8142 -1.10677
-9.75499 -12.7985 -0.459759
-22.4136 -52.8575 -1.62055
18.0827 -13.4712 -0.573772
31.034 51.7899 -1.56533
-29.7453 22.6954 -0.962455
-30.893 22.5959 -0.947142
-27.0661 -13.005 -0.73621
9.57287 -9.00848 -0.318095
-20.6208 -33.214 -0.91164
-39.837 13.8186 -0.922545
21.3067 -14.2565 -0.544046
-52.5601 18.9568 -1.0321
18.4944 -13.3335 -0.427521
12.8348 -10.5442 -0.2766
-7.13617 15.4471 -0.298114
-32.8749 10.3966 -0.570472
-28.1123 -13.3869 -0.493262
-36.7396 -20.9227 -0.642599
-17.8049 -43.6475 -0.729106
-7.77355 16.3482 -0.246174
-32.2525 -24.0935 -0.558413
-33.5981 -22.904 -0.520675
-33.8855 -68.4676 -0.946266
17.3458 -12.9416 -0.262328
18.2803 -13.1617 -0.285386
29.1069 -17.9481 -0.455897
-20.9172 -53.5734 -0.69734
-29.9241 22.8145 -0.401969
-37.249 -20.8222 -0.471542
-27.1314 -57.8931 -0.680368
-18.3255 -42.0319 -0.490617
-52.492 28.7674 -0.498975
-32.983 -58.1834 -0.615967
-19.6107 -51.432 -0.522483
37.7342 -9.11623 -0.356419
-14.1572 17.9692 -0.161137
-34.193 -76.1447 -0.570603
-17.6225 -42.7428 -0.314539
9.58079 -9.01526 -0.0408816
13.0666 14.9546 -0.0409597
14.8337 7.80892 -0.0286156
-29.2227 -13.0362 -0.0582127
-11.6243 -16.9246 0.024936
-12.8039 -19.2718 0.044008
-18.386 -42.2046 0.190404
9.44616 -8.99352 0.0595283
-32.4226 22.9456 0.205673
-21.2974 -53.7663 0.280613
-30.0087 -13.9275 0.198349
16.8688 -12.3081 0.116947
-13.048 -20.0059 0.155822
14.7311 -11.4751 0.147111
-52.4829 18.8038 0.492503
7.09452 -12.19 0.118452
16.0242 -11.8743 0.169495
-36.1501 -21.8754 0.443022
38.4272 -7.89817 0.408879
-35.0063 -21.9376 0.47037
-12.404 -34.2598 0.425522
-12.8769 -34.6276 0.447947
-11.068 -31.8709 0.410793
-9.52391 -29.4675 0.375043
26.3401 53.3343 0.774374
9.59294 -9.023 0.170336
-12.731 -19.7277 0.319661
-10.7474 -32.6246 0.470821
8.5694 -8.51302 0.18318
6.29875 -12.8862 0.208907
7.15388 -11.0238 0.200645
9.34833 -9.06258 0.188118
8.03034 -9.1118 0.194289
9.72863 -9.00808 0.218473
37.8998 -8.12005 0.636357
-23.7169 20.3386 0.559052
-32.9614 -22.1764 0.683395
-34.2191 -25.1063 0.743135
12.9243 -10.6173 0.274184
13.2356 -10.6756 0.318793
-9.88294 -12.5306 0.301181
6.83094 -11.1952 0.255763
7.98679 -9.38659 0.242395
26.9095 55.3672 1.23345
6.97903 -10.9699 0.261427
9.17976 -8.68575 0.268555
11.5316 -9.91167 0.33332
17.2613 -7.70997 0.380733
7.21317 -10.9441 0.2967
-9.42259 -12.1642 0.389071
-12.7398 -19.557 0.557573
7.64502 -9.30772 0.274416
7.82905 -9.36273 0.283396
-25.4696 21.4068 0.86356
-28.7969 -9.23457 0.758535
9.62072 -8.95155 0.338131
17.5115 -12.7926 0.546951
18.3498 -13.213 0.56259
-22.8305 19.9886 0.789968
-27.5432 21.7679 0.915785
-28.8108 -8.64704 0.787145
-32.9548 -17.5715 1.01403
-13.2978 -20.0803 0.640117
14.7686 -11.4752 0.4992
22.7623 -3.31191 0.647508
-12.148 -18.9422 0.650997
25.008 -4.73755 0.741072
16.4358 25.5067 0.909388
-27.8784 -20.5376 1.02444
7.22684 -11.3204 0.403307
6.96488 -10.6957 0.388782
14.8065 24.1201 0.868884
-7.6076 -8.79069 0.355351
13.0337 -10.665 0.514409
-7.30423 -9.49332 0.366739
-28.4441 -8.02844 0.983213
-11.849 -17.3207 0.702722
7.86797 -9.34563 0.404295
16.1679 11.0462 0.701311
10.8565 -9.45326 0.523064
11.892 -10.0476 0.567407
23.0434 46.4021 1.94579
-7.43611 -8.11844 0.411355
9.64811 -8.9563 0.491564
22.8313 -3.20556 0.885322
27.0243 55.8639 2.40294
-7.43168 -9.86407 0.482955
10.4278 -9.51073 0.553759
12.7275 -10.5117 0.667089
21.5803 -2.64492 0.886613
-29.005 -17.5966 1.38698
8.73473 -8.69551 0.50947
-6.91172 -8.45116 0.46916
9.43349 -8.92386 0.542976
12.6995 14.5784 0.853904
-28.7802 -8.44645 1.31775
14.7624 19.2282 1.08954
15.0896 25.9811 1.33884
21.8096 42.8871 2.12801
6.18013 -13.7696 0.673003
10.8403 -9.51034 0.652322
18.4877 -1.64075 0.849303
19.5665 37.2553 1.97379
15.0321 26.4855 1.42801
-11.1678 2.76999 0.553806
-7.22962 -9.52945 0.576733
9.16354 -8.98157 0.607808
11.393 -8.74094 0.672597
20.1147 -2.30509 0.975512
11.6473 11.8701 0.825907
16.1948 38.9472 2.07372
7.75576 -9.45262 0.601924
10.1802 -9.27189 0.682007
14.632 24.8118 1.44248
20.2316 39.233 2.24077
21.0084 -2.61709 1.07673
-7.39348 -8.4941 0.584114
9.38092 -8.93174 0.674592
16.7613 24.5794 1.563
16.5849 30.0665 1.79231
13.0054 -10.72 0.895678
10.5713 12.3579 0.869825
14.2528 19.3471 1.29097
11.0715 -9.60022 0.792532
15.0422 19.5987 1.3626
-26.1197 20.0224 1.79788
-6.95808 -8.16325 0.593284
10.2666 12.4123 0.902138
-7.24961 -9.35873 0.662937
10.0038 12.4621 0.926874
-27.5698 19.4101 1.91396
6.10787 -12.8994 0.817184
11.1967 12.1039 0.947756
-6.87465 -6.78471 0.560045
11.2865 12.0353 0.97159
-6.79898 -8.40137 0.646738
6.2517 -12.5669 0.820184
14.6751 19.5255 1.46882
14.1639 23.1579 1.61947
13.4716 31.1339 2.03606
-6.12243 6.52086 0.548918
-8.15716 -7.72919 0.679594
-7.10762 -8.1537 0.664192
5.72282 -12.4459 0.828388
-7.47291 -6.88016 0.631792
7.0029 -11.1576 0.814634
6.9842 -10.5554 0.790049
11.3362 -9.78554 0.925041
12.126 -10.1439 0.979882
16.2284 7.18722 1.131
14.9216 19.3301 1.54508
-7.23014 -6.30108 0.621897
10.2612 -9.3718 0.896997
-7.37127 -6.25347 0.633951
11.4898 12.1242 1.1382
9.57174 21.5481 1.60558
-7.26099 -9.63819 0.806146
11.651 12.6366 1.17918
-6.95013 -4.45394 0.567631
-6.7447 -8.19166 0.723538
-6.69498 -4.43057 0.55359
9.2702 -8.86297 0.892988
9.99631 -7.84283 0.895155
12.7334 16.0487 1.48135
-6.66397 -6.65641 0.654325
9.80939 -8.28363 0.93897
11.4876 17.1768 1.55357
11.4214 18.2089 1.60574
9.61701 18.3042 1.55931
9.03842 19.5334 1.61885
7.36527 21.9518 1.74077
10.7956 18.6338 1.6407
10.0138 -7.59758 0.961228
-7.02139 -7.18226 0.769525
-17.1618 -6.22469 1.42724
9.47161 -7.67871 0.955964
9.35636 18.6875 1.64955
-6.3768 -4.25788 0.60773
-6.82253 -8.21121 0.846231
4.83313 -5.73138 0.596144
9.04208 19.8932 1.73327
7.78536 19.0355 1.65369
5.02675 -5.79352 0.618056
12.7962 11.5467 1.39671
11.7955 11.8485 1.36909
6.72933 -9.38783 0.93899
12.2526 11.7194 1.39379
6.69986 19.6683 1.70089
-6.35296 -4.38556 0.628978
-7.15235 -9.46607 0.973731
11.5644 12.1156 1.38587
10.4845 9.17219 1.18626
-5.03052 -11.4771 1.05859
6.12587 -6.04597 0.751378
9.21688 -7.18029 1.005
-6.78965 -6.68738 0.809534
10.4484 12.3824 1.41443
8.79676 -7.33 0.995475
10.8464 12.2269 1.43052
-7.3021 -7.75639 0.933814
8.18994 -7.29117 0.973681
10.2246 12.4976 1.45171
-7.06451 -7.73403 0.92866
-6.93076 -8.33158 0.972545
10.6165 12.341 1.47832
10.5215 13.5722 1.55596
-7.10929 -8.31927 0.996757
11.2361 10.8533 1.43702
-6.31122 -4.22897 0.698412
-6.85387 -8.58419 1.00495
-6.32503 -4.39202 0.70965
11.0981 8.56472 1.31562
10.6559 9.34153 1.32139
6.50896 15.4621 1.57803
10.5266 11.3247 1.46316
-11.2132 2.87339 1.09344
6.15756 -5.96536 0.817428
8.00521 -6.63641 0.998867
10.756 9.21068 1.37482
9.54673 12.5616 1.52784
9.73193 12.4892 1.56005
7.68344 12.2881 1.43975
7.93089 13.2582 1.53796
11.2394 8.07107 1.41034
7.15687 12.7355 1.4745
9.07815 11.3768 1.48111
7.01618 13.5833 1.5648
5.88642 13.9873 1.55811
9.21412 10.5046 1.44432
9.05141 12.3313 1.58948
11.403 7.66796 1.43362
9.268 10.023 1.42146
4.97268 -5.8189 0.821816
-6.84216 -4.65351 0.872709
5.59528 13.9402 1.59461
-7.05495 -4.50401 0.89248
8.94447 10.7174 1.49897
-6.76153 -6.77115 1.02348
5.90988 -5.83328 0.897061
9.70598 8.5456 1.39404
8.97661 9.37582 1.39623
9.27451 10.3389 1.50604
4.79993 13.9113 1.58853
4.23677 -8.0577 0.986216
6.48095 10.8427 1.39023
-6.79799 -3.9229 0.863775
6.36425 11.9332 1.50075
-6.89166 -3.86106 0.874991
9.72456 7.21555 1.35427
6.68631 11.4114 1.4732
9.8194 7.0404 1.35751
5.45065 11.6198 1.45145
5.45685 12.1338 1.50295
4.71975 12.2829 1.48912
9.84855 6.69386 1.35728
-6.88844 -4.56134 0.946059
7.40879 -6.23184 1.10364
-7.32574 -0.784926 0.844622
-6.27234 -5.38833 0.952237
5.24987 -5.56882 0.883207
8.89095 7.90428 1.38614
4.41952 -7.18556 0.977339
10.4272 5.16213 1.3627
8.97473 7.80758 1.39849
5.20123 -5.61245 0.904125
8.61806 7.93286 1.39002
8.92024 9.07487 1.48895
-7.04397 -5.64796 1.0682
10.1539 4.7546 1.33599
-6.91539 -3.84994 0.953537
9.15474 6.15421 1.33804
5.22922 11.4625 1.52756
-6.88991 -3.06408 0.916083
-6.87436 -3.25002 0.919414
4.88195 -5.95383 0.939864
5.976 -6.13124 1.04256
9.38731 5.63067 1.35334
8.47778 7.23785 1.37839
-6.94717 -4.3085 1.0069
-6.87873 -4.53293 1.01521
8.27627 8.60363 1.48128
5.04995 11.3572 1.54366
-6.54765 -5.61549 1.07341
3.71017 -7.57735 1.05148
8.5197 7.75787 1.44197
6.08002 -5.61941 1.03812
9.18148 6.07081 1.39503
-6.1328 -5.41148 1.03198
8.56399 6.6252 1.38097
8.10384 7.52414 1.40687
-7.0965 -1.78178 0.935728
-7.00964 -2.30473 0.942254
-6.44322 -5.31683 1.06574
8.8425 5.66904 1.34671
8.1717 8.06202 1.47969
-7.2583 -1.25233 0.944358
-6.89483 -4.11709 1.03812
7.44419 6.23164 1.25753
8.09319 7.05393 1.39229
7.98556 8.14234 1.47805
-6.90684 -2.82476 0.971391
-6.90814 -2.96458 0.971776
4.56825 10.1167 1.45908
9.00836 4.1158 1.30378
-7.24246 -1.60498 0.974763
6.84178 -4.26056 1.07131
4.92985 -5.94564 1.02411
-7.32731 -1.11625 0.992003
-7.00993 -2.19798 0.982621
-7.04701 -2.26719 0.988891
-5.99309 -4.39684 0.993288
5.19022 -6.56716 1.11568
6.91265 -4.17746 1.08749
8.08783 7.18303 1.4656
-7.14627 -1.71699 0.987977
-7.07789 -1.95438 0.987484
8.80536 4.86132 1.36625
8.34451 5.88204 1.38825
-6.91773 -3.61728 1.06365
8.87755 4.16652 1.34526
3.36076 10.563 1.51789
-7.30689 -1.19897 1.0135
-6.00827 -4.44005 1.02742
-5.98879 -4.53885 1.02867
7.15073 -3.93571 1.12199
8.08519 6.49658 1.43463
5.37116 9.07843 1.46093
-6.37975 -4.31973 1.05617
4.93446 -5.5276 1.02944
7.18842 -3.83142 1.13381
7.56327 -3.68813 1.16443
3.63417 10.0823 1.49268
3.44899 10.3782 1.52509
-7.36304 -1.08121 1.03886
-7.06878 -2.00239 1.02374
4.97372 -5.28917 1.01507
7.25024 -3.73945 1.14621
7.36683 -3.67416 1.16773
7.877 -3.35846 1.21749
-7.14949 -1.87333 1.05102
-7.00398 -2.94411 1.10094
-6.00613 -4.37208 1.06839
7.91177 -2.78461 1.22733
8.24483 4.62759 1.38542
5.008 8.57931 1.45625
8.38221 4.51391 1.40723
7.83728 -2.34282 1.20596
7.15898 5.699 1.37047
2.97522 9.49729 1.48848
-7.08859 -2.01798 1.10453
7.49006 -3.11229 1.2229
8.24131 4.55464 1.4275
5.80125 7.46094 1.43536
5.30622 7.65524 1.4196
5.14243 7.96745 1.44068
5.09602 8.0769 1.44569
7.33996 -3.17249 1.22145
7.68649 -2.7587 1.24376
-6.75094 -1.68147 1.04786
7.83931 -2.25904 1.25122
7.24888 5.43664 1.39157
-7.09805 -1.95089 1.14226
-6.91541 -2.78405 1.15861
6.82824 5.53859 1.3793
-7.34886 -1.09476 1.16044
-7.13869 -1.82271 1.15383
-7.04128 -2.06595 1.14971
-7.1154 -1.87101 1.1545
-6.89067 -2.93236 1.17556
4.8257 7.48269 1.41632
3.44553 -6.03068 1.10917
-7.2696 -1.29831 1.18292
3.52702 -5.70603 1.08076
3.5639 -5.61146 1.07016
7.09252 4.7809 1.39402
4.6789 7.40555 1.42597
-7.06587 -2.02199 1.19772
-7.08781 -1.94547 1.20603
6.98782 4.84225 1.40624
3.83578 7.96894 1.46461
6.05753 -3.32166 1.15095
6.65502 4.88901 1.37709
4.68067 7.19431 1.43203
3.8355 -5.29934 1.0996
7.12773 4.43856 1.41406
7.49439 2.86575 1.35619
6.34213 5.30185 1.40128
-7.27313 -1.25469 1.25679
6.77374 4.09544 1.35963
-6.44705 -2.7703 1.19726
5.51238 -3.6316 1.13407
5.69426 -3.52074 1.14956
2.77073 7.89686 1.44734
-7.36638 -1.03866 1.28967
5.33613 -3.78509 1.14055
-6.30722 -2.25831 1.16164
-6.26785 -2.41535 1.17611
4.28077 -4.66429 1.1072
4.49412 -4.47732 1.11291
4.59203 -4.44937 1.12186
-6.79639 -1.73137 1.23542
4.35068 6.52747 1.39969
-7.15388 -0.927545 1.28941
-6.14082 -2.25651 1.1653
6.65928 3.70303 1.36613
6.11952 4.37587 1.36482
3.60758 -5.32587 1.16995
5.16756 5.70729 1.40855
2.53012 7.24098 1.44135
6.50285 3.0606 1.35913
-1.70755 -5.78596 1.14179
6.43426 -1.38766 1.24902
6.28977 2.78531 1.32461
6.23378 2.38745 1.33203
-4.44675 3.93475 1.39569
4.33706 3.54428 1.34
4.22165 3.30062 1.32694
4.66633 -1.67814 1.24536
4.82062 -1.38148 1.25467
-2.13954 4.793 1.31072
3.72547 -2.95177 1.22209
3.67165 -2.54854 1.19336
3.40455 -2.95995 1.22528
4.01041 2.57347 1.33194
-2.59585 -3.53589 1.25133
-2.32746 -3.57251 1.21679
3.75896 2.06016 1.30352
3.73541 1.98232 1.30289
-2.84026 3.48249 1.38587
-2.29763 -2.42043 1.18771
1.95257 -2.77729 1.21148
-2.12273 2.76586 1.3239
-2.02784 2.75402 1.3301
2.24846 -1.86786 1.22447
2.37822 -1.49706 1.22175
-2.01553 1.8764 1.29549
-2.06533 -1.44348 1.22861
1.44728 -2.06722 1.24424
-1.99316 -1.08806 1.21457
-1.9255 -0.707804 1.22002
-1.92723 -0.703585 1.2456
-1.95619 -0.344403 1.22883
-1.89341 -0.564783 1.22989
-1.89301 -0.530983 1.23496
8.2328 -8.71285 -7.47675
12.1446 -10.3032 -8.81347
-8.72782 15.5786 -6.92798
20.6463 25.1429 -11.6889
-8.79547 -2.51888 -2.57804
-34.2773 -22.8974 -7.61522
-33.885 -22.1599 -5.9743
-33.6132 -22.8429 -6.03563
-31.0338 -19.903 -2.77277
9.29923 -8.85731 -0.392339
-7.60945 16.4023 -0.446253
-29.3434 -11.3549 0.724627
-6.91244 -8.26149 0.460045
16.8051 24.1314 1.59761
11.4433 16.0936 1.63338
-6.69028 -6.66329 0.882846
4.24924 12.3303 1.50322
8.75534 9.12001 1.47891
7.98893 -8.78191 -10.4006
8.85152 -8.55827 -10.5201
6.97076 -11.9598 -11.5356
6.88595 -11.3715 -10.9159
8.16949 -8.28182 -9.55229
7.03518 -12.0505 -11.3462
7.0804 -10.9944 -10.4764
8.0191 -8.39527 -9.223
6.74124 -11.3068 -10.3087
6.4581 -11.7195 -10.2323
7.77388 -8.86921 -8.99085
6.21825 -14.3436 -11.8301
8.31731 -8.72036 -9.12148
6.31248 -11.9319 -10.1945
6.15906 -12.1096 -10.1305
7.50809 -9.46628 -9.02091
7.92636 -9.07511 -8.94546
10.496 -9.47545 -10.5164
6.13117 -14.1371 -11.3894
6.11087 -13.6875 -11.0206
6.14317 -12.5998 -10.3097
9.21818 -8.84645 -9.37222
9.30632 -9.09377 -9.48982
5.87642 -12.5284 -10.0522
9.38227 -9.01017 -9.28324
6.87712 -11.1504 -9.29716
5.62646 -12.9934 -10.0212
9.71573 -9.10325 -9.43531
7.62563 -9.36426 -8.49051
10.0221 -9.20941 -9.56184
10.9457 -9.51789 -10.1778
11.4726 -9.72539 -10.1003
8.40369 -8.62732 -7.97355
7.44777 -9.31974 -7.88237
8.18682 -8.73894 -7.91482
7.64559 -9.37321 -7.91344
7.85496 -9.42344 -7.86247
8.33993 -8.55508 -7.63742
0.356595 15.8708 -10.1289
7.54512 -9.34548 -7.64335
10.9401 -9.63288 -9.26771
7.24399 -10.7283 -8.19261
8.17415 -8.51702 -7.44461
4.62009 -15.426 -10.1271
8.7329 -8.71973 -7.63526
7.9396 -9.053 -7.42726
4.05425 -18.0382 -11.3881
8.21663 -8.64725 -7.29221
4.08957 -17.3161 -10.8565
0.142659 14.8746 -9.05109
6.67071 -11.2893 -7.98318
7.76 -9.28861 -7.34369
10.1535 -9.338 -8.37003
6.83698 -11.2777 -7.91698
8.07963 -9.22607 -7.36132
11.3004 -9.72372 -8.91287
5.41238 -13.8847 -8.83794
7.75295 -9.28748 -7.17448
9.37419 -9.05575 -7.72303
6.91921 -11.142 -7.76223
8.00207 -9.14915 -7.13192
9.77825 -9.21138 -7.82869
14.9027 7.44701 -9.67653
8.689 -8.85305 -7.1676
6.94928 -10.9899 -7.47257
2.64438 -11.229 -6.6344
7.87826 -9.09267 -6.89028
9.63012 -9.16382 -7.55105
10.8217 -9.52049 -8.13069
3.27902 -20.5825 -11.7209
6.81627 -11.0062 -7.25735
10.1326 -9.3155 -7.70785
12.3787 -10.3866 -9.06139
9.26331 -9.0297 -7.22836
4.62582 -14.3214 -8.38998
8.02365 -9.23899 -6.79588
14.8256 7.5799 -9.14239
9.72239 -9.13035 -7.32474
0.833926 17.4766 -9.555
2.73987 -19.8298 -10.9155
11.1608 -9.67143 -8.01818
4.24433 -14.4565 -8.15525
14.7386 7.70788 -8.95984
15.1373 10.4516 -9.87764
14.0708 7.76289 -8.58766
10.9805 -9.64399 -7.77122
13.307 -10.8363 -9.12841
3.04189 -19.3081 -10.2756
11.3873 -9.85206 -7.66143
2.16803 -20.358 -10.3335
10.2888 -9.36722 -6.9965
14.3149 -11.3222 -9.16323
13.8521 -11.2039 -8.91855
11.0386 -9.682 -7.31492
7.52515 -9.35826 -5.94668
3.56694 -8.47706 -4.53239
-8.69193 -1.90843 -4.3751
2.22087 -20.1218 -9.92932
4.53642 -9.30783 -5.06393
0.401057 13.6626 -6.69136
7.62416 -9.28983 -5.8642
-8.45603 16.1339 -8.82063
-9.19112 -2.42977 -4.58064
15.0466 -11.6193 -9.13534
19.4479 5.56452 -9.67436
-10.301 -2.55038 -5.01932
1.90927 -20.5329 -9.80567
17.2942 16.2528 -11.2418
7.6005 -11.2361 -6.40052
20.1045 5.42662 -9.80723
14.0714 -11.1403 -8.34566
2.93529 -17.3608 -8.18659
19.427 5.74806 -9.36007
17.9127 -13.054 -10.2377
9.87551 -2.49446 -4.70654
20.3607 5.16068 -9.69161
17.4217 16.3836 -11.0216
1.80863 -20.1887 -9.27669
9.69298 -9.06368 -6.07647
-9.20068 -1.67002 -4.2645
9.46169 -3.47186 -4.59053
6.72867 -11.3426 -5.99833
9.92293 -2.62103 -4.65554
19.3198 5.89124 -9.0938
17.8178 17.6744 -11.2838
9.37749 -3.08911 -4.4444
15.485 -11.9155 -8.7678
7.05367 -11.5887 -6.06777
7.16581 -10.9385 -5.82845
9.56828 -3.408 -4.52655
-9.96418 16.3289 -8.51491
17.7218 -12.9334 -9.74865
19.6077 5.6485 -9.04477
16.1615 7.33073 -7.8593
17.9279 18.1091 -11.2712
16.4847 -12.2598 -9.05406
-11.1976 17.0256 -8.9553
-6.53638 14.9334 -7.14582
-5.22563 4.90094 -3.12086
20.2098 5.48736 -9.10492
9.56718 -3.40826 -4.3833
18.328 18.5773 -11.2179
15.8775 -12.2184 -8.6205
14.9138 7.45699 -7.11706
3.84331 -9.31317 -4.28043
-11.1241 16.9165 -8.56976
6.95826 -10.9279 -5.46249
-13.554 3.3217 -5.87927
0.743173 -22.3289 -9.41512
15.8581 -12.0069 -8.31804
-5.15308 5.67382 -3.20604
0.997695 -22.1884 -9.31088
1.23253 -20.7645 -8.71421
14.2191 7.62629 -6.74953
18.6668 19.4542 -11.2666
3.7867 -8.96385 -4.05785
14.826 7.7585 -6.96614
18.0291 19.2563 -10.9487
-9.50187 -1.09055 -3.94798
4.00993 -8.5077 -3.85346
14.086 7.77806 -6.60632
6.85773 -11.0086 -5.30227
-13.5951 2.5396 -5.65747
-7.93728 15.3738 -7.02947
19.3859 21.0659 -11.5998
15.1294 7.2698 -6.76382
-5.26095 14.362 -6.13112
13.9974 -11.0662 -6.98852
1.53424 19.3135 -7.52607
-8.71687 15.7407 -6.99074
19.0651 5.81427 -7.72348
-1.75229 13.2549 -5.1781
5.30352 -9.40764 -4.16468
-2.38137 13.4666 -5.25186
19.7299 22.8249 -11.5703
4.66527 -8.52394 -3.69022
19.4947 5.59268 -7.71802
0.873493 -26.3694 -10.0274
14.9562 -11.5252 -7.1055
20.0574 5.43398 -7.77807
9.45232 -3.44386 -3.76141
0.531703 -22.5457 -8.40506
3.25529 -10.8162 -4.21961
20.3399 23.665 -11.5901
0.909147 -8.71534 -3.24974
14.0716 -11.1438 -6.61843
20.4683 5.20594 -7.76592
17.9935 17.7804 -9.24571
-13.013 2.27976 -4.80296
21.0067 25.0868 -11.8692
2.29162 -13.2813 -4.85513
13.0725 -10.5715 -6.04942
0.794882 15.4703 -5.54359
-8.19333 -2.79601 -3.09653
0.409505 -21.7464 -7.77561
-4.20642 13.7986 -5.12988
0.63753 -21.8502 -7.76857
15.9145 -12.0195 -7.06825
-15.678 18.1241 -8.44438
5.93809 -11.356 -4.50563
-10.9893 16.5823 -6.94686
0.0944365 -18.4413 -6.48303
14.3096 -11.3404 -6.38399
20.4235 5.37879 -7.37232
0.656538 -22.9524 -7.93037
-5.00073 14.5117 -5.25782
3.64298 -8.45668 -3.16955
4.88259 -9.04405 -3.5219
-14.4559 17.9462 -7.88671
2.27758 -10.8965 -3.81478
-8.85952 16.0694 -6.25377
3.03808 -13.7426 -4.79798
-14.9295 18.3232 -8.01145
20.241 5.50329 -7.05083
22.2435 27.5178 -11.8278
36.3548 -20.5222 -13.95
-5.29151 14.031 -4.97912
1.92039 20.8453 -6.94753
1.26772 -10.248 -3.41426
32.6937 -20.5525 -12.6988
-5.23985 14.4234 -4.98302
-12.5472 17.1762 -6.89923
18.647 -13.2876 -7.43511
3.56184 -8.67714 -3.00731
6.23106 -10.1309 -3.8115
2.31502 -11.013 -3.58119
-4.52042 -33.9733 -10.8944
-1.13027 -23.7163 -7.55861
15.0864 10.3904 -5.78201
-13.1674 17.5205 -6.9265
-17.9216 19.3295 -8.28518
2.99905 -9.67204 -3.19499
6.97849 -11.1211 -4.05884
1.38303 -21.8367 -6.76891
-2.55607 -27.2438 -8.40024
7.24989 33.498 -10.4614
0.770127 15.0629 -4.5821
-11.0961 16.7409 -6.05244
-2.68002 -26.3298 -7.97129
-14.2943 17.8716 -6.82744
-5.25818 -34.4947 -10.3904
0.83538 -24.9174 -7.45512
-5.37536 14.7804 -4.6771
2.08837 20.8075 -6.16279
-21.1882 19.756 -8.54624
18.2833 5.8182 -5.6481
-4.28516 14.3867 -4.41267
-7.90074 15.326 -5.05763
4.26216 -9.15673 -2.96845
4.64731 -11.6437 -3.66551
-12.5942 2.21864 -3.67531
-32.619 -46.2062 -16.2764
-15.1407 18.2136 -6.80783
6.97756 -11.113 -3.77744
2.56628 -9.55448 -2.81088
12.9735 -10.501 -4.74966
-8.4425 -2.45702 -2.49322
21.2624 27.423 -9.83325
-8.56946 -2.25859 -2.50423
-2.53058 -25.8359 -7.28625
-12.9996 1.99203 -3.66234
4.39937 -11.3585 -3.38052
-9.27522 15.9497 -5.06442
-13.0091 17.3494 -5.95527
-5.37373 14.3384 -4.18408
-8.41627 -40.8822 -11.4215
-21.3715 19.9433 -7.85771
-9.69366 16.073 -5.0292
-26.5783 20.4168 -8.9157
11.4901 11.5649 -4.30261
4.33869 -11.3255 -3.21267
47.5302 -13.817 -13.1118
-8.09966 -38.2297 -10.273
4.0961 -8.67137 -2.52507
11.2026 -9.96415 -3.9219
-14.3905 18.0177 -5.99518
6.54997 -10.4451 -3.1909
3.18301 -9.66063 -2.6294
-29.7936 -43.6363 -13.645
-4.3161 -28.3161 -7.41215
3.54867 -10.3938 -2.83177
4.07531 -9.40334 -2.63401
15.6695 -11.7824 -5.00193
-7.1226 15.1724 -4.24138
-31.2331 -41.6536 -13.2033
4.32295 -11.1724 -3.03172
4.2607 -7.71471 -2.24293
6.55309 -10.689 -3.12662
45.1831 -13.6607 -11.7681
-28.1076 21.206 -8.70454
-11.4804 16.866 -5.02888
-27.3534 -39.9034 -11.8961
-9.77942 -38.4965 -9.79881
-24.3489 20.451 -7.81372
4.35822 -10.351 -2.75924
-12.011 17.2037 -5.08652
-7.81107 15.2177 -4.12192
10.3002 -9.29078 -3.3212
40.5826 -13.4805 -10.2324
15.1765 7.59005 -4.04026
-6.24226 -35.7572 -8.64789
3.97063 -9.09866 -2.35222
47.3954 -12.685 -11.644
-11.9917 -44.1578 -10.841
4.2104 -9.00895 -2.37216
3.87274 -11.1074 -2.772
4.9163 -8.70724 -2.35225
-12.7207 17.3347 -5.00319
11.0372 -9.67238 -3.35404
-6.13494 -31.1165 -7.23761
-26.9937 20.8485 -7.7312
41.8277 -9.14755 -9.71598
-30.2968 21.997 -8.39395
-35.2204 -23.0809 -9.43577
41.0173 -12.6797 -9.63889
5.46438 -9.49115 -2.44505
-12.3824 2.82539 -2.78676
40.8933 -11.9838 -9.41453
42.8939 -12.2389 -9.813
27.7449 39.077 -10.4987
-5.34983 14.034 -3.2829
13.4374 -10.8129 -3.79621
38.3159 -12.3134 -8.84706
-23.2533 20.2664 -6.69041
-28.8815 -71.2071 -16.6757
4.31779 -9.71815 -2.30592
4.54701 -9.19618 -2.21578
-14.5039 18.07 -4.94774
-30.721 22.3151 -8.10757
-31.5889 22.4175 -8.28001
-27.4831 -72.9186 -16.7054
-10.6336 16.6153 -4.18215
-8.34802 -35.4409 -7.74377
3.19673 -9.70452 -2.17864
3.97501 -9.85099 -2.26478
46.1462 -10.6991 -10.1113
15.0082 7.51747 -3.55916
-15.0736 18.5553 -5.06093
5.17248 -9.06969 -2.1935
26.9613 39.0105 -9.91175
-27.4982 -26.9099 -7.98932
15.0502 7.87662 -3.52729
-29.9812 -23.1546 -7.85881
-32.0805 -82.2578 -18.2814
40.7862 -10.9762 -8.7346
-11.3859 16.7753 -4.11935
-15.5344 18.3665 -4.89666
-34.8992 23.4269 -8.54108
44.7578 -9.76269 -9.34135
-13.0689 -42.0534 -8.95145
4.14385 -9.75298 -2.15584
11.6371 -9.67363 -3.07876
-11.9291 17.1187 -4.16453
-19.5574 -56.1316 -11.8811
-12.817 -39.8171 -8.28246
4.07779 -9.94063 -2.1272
-33.9093 -23.1869 -8.09844
-26.5506 20.8379 -6.64258
-32.9497 -23.5694 -7.89743
-6.84455 15.1232 -3.22127
-26.0857 -61.2943 -12.9405
-33.3632 -22.2109 -7.72409
3.44216 -9.37944 -1.92916
46.2224 -10.7094 -9.11036
-12.6697 17.298 -4.09842
3.9965 -9.36209 -1.9425
-36.2196 -22.0009 -8.02247
-21.0976 -34.2727 -7.65463
-15.3652 -44.3357 -8.87954
38.1527 -12.5857 -7.59422
-35.6414 23.9378 -8.03495
-33.4902 -23.129 -7.64635
-32.4491 -23.741 -7.54784
-20.9802 -51.9776 -10.548
-16.6528 -45.2348 -8.94233
3.82555 -9.21949 -1.84363
42.8849 -11.5583 -8.24726
5.76944 -9.73268 -2.07345
-24.1221 -54.6982 -10.946
-20.15 -50.015 -9.75374
-14.4644 18.0302 -4.09828
-30.91 -24.9297 -7.05905
-20.1796 -26.89 -6.01247
-39.0048 24.6126 -8.13756
-26.5578 20.853 -5.87702
-33.7932 23.1245 -7.10966
3.91779 -10.071 -1.87366
4.77904 -8.62556 -1.71364
14.0598 7.55055 -2.75298
14.1365 8.11222 -2.79197
-30.574 22.233 -6.48066
42.5615 -12.0416 -7.5299
42.3494 -10.9682 -7.44662
-31.0676 -24.6736 -6.73052
-20.9118 19.9158 -4.84915
-20.0782 -49.9071 -9.09041
14.9207 7.47832 -2.79955
-31.4357 22.2546 -6.43371
-23.17 -55.2423 -9.8996
43.9091 -11.8288 -7.39086
-10.2762 16.3139 -3.11089
-20.3533 -50.4941 -8.68382
-34.6667 -23.9306 -6.63827
-22.6077 19.8628 -4.71224
-23.9907 20.48 -4.88874
-39.7073 24.0415 -7.19314
-11.1391 16.6716 -3.09491
3.47937 -9.54884 -1.57167
3.87909 -10.2578 -1.69792
-7.55291 15.3188 -2.60816
-30.7975 22.4153 -5.8228
-31.5644 -24.3794 -6.06512
-27.774 -25.9794 -5.76176
42.5436 -11.06 -6.68115
45.231 -9.85427 -7.0521
-6.48356 14.4405 -2.36784
9.84796 -5.16205 -1.65029
-33.2787 -24.0024 -6.11078
-25.9162 -65.5306 -10.4525
10.2204 -9.18926 -2.04813
45.3777 -10.4976 -6.91641
-36.4034 -24.2332 -6.43653
-31.3089 -25.8248 -5.93731
-12.4982 -41.4128 -6.36557
16.9919 -12.2936 -3.07187
-25.1872 20.7374 -4.74134
-24.3064 -54.4619 -8.59488
-7.55185 15.1252 -2.41685
-12.6154 17.2004 -3.04096
6.05469 -11.5674 -1.86548
-13.3075 17.7867 -3.12011
-34.3806 23.2249 -5.83326
6.77963 -11.0742 -1.81469
37.8711 -12.4982 -5.60859
-30.9572 -24.806 -5.5368
-32.6969 23.4978 -5.57804
-20.2843 -48.8891 -7.31135
45.5315 -10.186 -6.43316
-6.80427 15.0475 -2.25624
-22.2112 -57.9689 -8.43399
7.76859 -9.40137 -1.63661
-13.8971 17.7444 -3.03815
13.2635 -10.5787 -2.29542
-22.0493 20.0565 -4.00807
42.4683 -10.9803 -5.82305
45.2505 -9.91178 -6.13092
-22.4316 19.7401 -3.90732
-32.4803 -24.3045 -5.29909
-14.7809 18.0998 -3.02136
-33.7182 22.5052 -5.26323
-38.1034 -16.0888 -5.34074
7.03535 -10.463 -1.61761
10.8197 8.85852 -1.79604
-33.5921 -23.1495 -5.22112
-31.1532 22.7426 -4.87933
-35.3546 -22.0616 -5.22378
42.3253 -10.946 -5.47058
6.81402 -10.3951 -1.55302
-7.58471 15.1706 -2.09969
-24.8109 20.8333 -3.96719
-33.0818 23.3151 -4.99261
6.31722 -12.1155 -1.66438
45.201 -9.6436 -5.6606
15.0672 7.89387 -2.04547
-17.7279 -42.9367 -5.60188
7.10583 -10.5608 -1.53252
-20.4374 9.05765 -2.64611
-14.1152 -42.6987 -5.28842
-31.6494 -24.4011 -4.67327
-31.1374 -24.902 -4.66596
42.4135 -11.3614 -5.16024
11.2641 -9.70043 -1.72213
-29.6135 22.4544 -4.27595
6.66114 -10.8534 -1.45776
7.50478 -9.23975 -1.36156
11.6186 -9.75357 -1.7229
9.46421 -4.61709 -1.19252
15.0447 7.73112 -1.90669
-10.2617 16.3364 -2.17703
-31.8828 23.2971 -4.42395
39.1969 -12.9032 -4.62727
9.3794 -9.04492 -1.44151
-10.9746 16.4596 -2.15041
6.82033 -12.8404 -1.57476
45.3451 -9.85514 -5.03014
10.819 8.89067 -1.50967
16.8483 -12.5154 -2.25238
42.6131 -11.0521 -4.71675
9.64268 -9.00078 -1.39745
8.39624 -8.48155 -1.25022
-30.7073 -24.5729 -4.09555
-29.617 -59.406 -6.92529
15.041 7.54331 -1.7195
-31.5922 -24.3596 -4.09343
-12.7507 17.3818 -2.18883
-12.6731 16.979 -2.10592
10.2339 -9.11147 -1.34227
-20.4951 -52.0503 -5.48472
6.34118 -12.1437 -1.32581
16.7158 -12.2296 -1.99071
42.5023 -11.421 -4.21819
-30.1216 -60.8875 -6.45808
-20.4436 -53.6506 -5.45303
-23.1203 20.2231 -2.87179
46.0636 -10.2474 -4.40723
9.74052 -9.00927 -1.2282
40.0437 -13.2095 -3.92882
-14.8964 18.2606 -2.13423
-29.554 -13.4745 -2.96106
-31.6974 -61.7917 -6.40174
15.9242 -11.9191 -1.80928
8.65505 -8.74625 -1.11421
12.9356 -10.6777 -1.4605
45.6465 -10.5801 -4.01355
9.42465 -9.04986 -1.09831
10.9828 -9.67173 -1.23002
-33.8239 23.2286 -3.41498
16.9172 -12.3366 -1.73403
-16.6862 -43.4206 -3.72608
14.7403 -11.5259 -1.49198
-11.609 -32.4999 -2.72421
-29.5441 22.4641 -2.87067
-32.7719 23.1645 -3.09865
-22.3449 -51.042 -4.30185
-50.5023 27.4857 -4.35473
-21.2106 19.9625 -2.11913
-32.9976 23.3404 -2.92974
16.4515 -12.2926 -1.50219
42.5324 -11.3818 -3.20735
-38.3913 -72.64 -5.92958
14.0272 -11.0984 -1.27999
-15.344 -40.7037 -3.00254
10.7966 -9.64213 -0.991708
-23.1428 20.2638 -2.07789
12.9142 -10.6562 -1.12071
18.0389 -13.0835 -1.48545
16.1115 -12.1865 -1.33401
-14.4655 -40.107 -2.75816
44.3272 -11.5286 -2.86256
-31.1991 -63.2144 -4.30193
36.1154 -8.76169 -2.28049
43.4735 -9.95041 -2.7376
6.07864 -13.1397 -0.865233
31.1754 -20.6287 -2.23653
-9.74572 16.2692 -1.115
-15.3565 -40.0588 -2.44295
16.6847 -12.4693 -1.16938
-9.66121 -12.5242 -0.866926
15.0337 7.71285 -0.913824
13.9531 -11.0453 -0.952848
-12.6749 17.1764 -1.11525
-16.2518 -40.2813 -2.30691
14.928 7.8496 -0.826872
-16.0712 -41.0802 -2.16445
-14.0284 17.7811 -1.0834
9.58897 -9.04497 -0.604569
-23.5437 -54.0065 -2.66588
12.4921 -10.2696 -0.749657
-15.7533 -43.9139 -2.07132
-16.9702 -41.8111 -1.93185
6.88545 -12.7142 -0.641416
-13.6997 -41.7613 -1.87216
-51.8764 28.2124 -2.3931
18.4285 -13.2396 -0.92075
16.8785 -12.5458 -0.818912
-40.362 -78.3389 -3.32445
-17.9237 -47.0019 -1.85259
-33.3014 22.8813 -1.4784
43.0158 -11.0836 -1.59919
-33.691 -67.0174 -2.50939
-25.378 -55.6159 -2.05815
20.361 23.5486 -1.0341
-21.2534 19.9165 -0.949466
8.15932 -14.4008 -0.555821
9.44449 -9.01625 -0.423235
11.3334 -9.97748 -0.490772
18.6851 -13.2119 -0.751946
35.1113 -13.2428 -1.24503
22.2081 26.8829 -1.11858
-27.2576 -13.6722 -0.956061
-22.6988 20.2135 -0.926767
-31.3888 22.2312 -1.201
-24.4834 -56.2882 -1.90097
-13.6222 -38.5372 -1.25893
-21.0938 -53.8078 -1.74977
-16.3519 -44.3171 -1.35323
-33.8073 -20.4981 -1.05324
11.4828 -9.74138 -0.403349
16.41 -12.2055 -0.539022
-40.5801 25.1044 -1.25913
-29.9876 22.8179 -0.932818
-30.5075 22.3584 -0.894763
9.59133 -9.02915 -0.30513
-40.9798 14.1637 -0.95894
-30.9293 -51.7916 -1.35854
21.3886 -14.3048 -0.565434
30.7481 -18.6448 -0.81131
14.2758 3.94527 -0.302216
28.0077 48.9429 -1.03736
23.6698 -11.0196 -0.459664
47.6476 -10.9718 -0.909118
-30.4473 -21.8805 -0.683843
-29.358 -28.8353 -0.652579
-18.6847 -45.8477 -0.824285
12.7633 -10.4957 -0.271819
18.6155 -13.4515 -0.350859
-29.1326 -12.9487 -0.418757
-32.6041 -24.4 -0.566734
-32.6118 -65.7427 -0.990499
-27.1741 -57.8353 -0.875383
-33.7017 -23.0164 -0.532978
-30.0048 22.8274 -0.444443
17.0768 -12.7526 -0.252953
29.5472 -18.3208 -0.408846
-30.4685 22.3682 -0.421428
-18.8152 -43.1518 -0.503504
-11.8695 -35.7263 -0.37898
-32.7788 -57.7557 -0.611621
-14.1962 18.0077 -0.176354
-26.5926 -13.4072 -0.240638
-14.8809 18.1398 -0.160821
-22.3659 19.9749 -0.154815
-20.8196 19.5282 -0.130329
-10.5307 -13.5381 -0.060277
14.7952 7.7723 -0.0202898
11.1408 -9.79648 -0.0077589
-34.283 -18.7775 0.0594761
-11.2106 -33.3181 0.114654
17.0349 -12.3764 0.0915141
-18.5455 -42.577 0.206682
18.876 -13.2996 0.122796
7.20508 -12.3855 0.104595
26.1617 -10.7336 0.174152
-54.7112 19.5358 0.553186
16.3211 -12.0957 0.19408
37.763 -7.70985 0.364012
-28.9537 -8.16424 0.351641
-36.0375 -21.7515 0.464119
-11.2094 -32.1162 0.365099
-53.6738 29.4166 0.747636
-12.5647 -34.8173 0.440955
-10.177 -31.2819 0.394947
6.3606 -13.0013 0.184783
7.23666 -11.1486 0.174789
-27.9262 21.9213 0.543043
11.3472 -9.90997 0.226557
-23.9123 20.4493 0.518818
10.932 -9.76107 0.230076
13.018 -10.7169 0.265744
36.6968 -7.85371 0.624683
-34.3246 -22.9969 0.751447
-30.944 22.1253 0.746346
6.17189 -12.8953 0.277412
7.04409 -11.0855 0.253059
8.04499 -9.44031 0.242238
28.2365 58.0611 1.4038
7.74688 -9.46564 0.276561
10.1558 -9.19856 0.330619
-28.6908 -9.19994 0.725539
-23.1169 20.1776 0.829685
-27.3362 21.5547 0.933751
-28.8195 -8.65344 0.792699
9.21131 -8.9164 0.346346
9.64783 -8.96698 0.359073
-25.3633 21.3765 0.900712
25.503 -5.15933 0.724634
13.0277 -10.6874 0.502045
14.9773 24.3992 0.883111
6.2182 -12.8279 0.448585
7.48313 -11.6651 0.434928
-28.3514 -7.99595 0.966282
-12.5594 -19.2298 0.756765
-28.0372 -8.76295 1.0154
16.1935 11.0837 0.709186
-29.6769 -18.3896 1.22023
15.961 27.7257 1.14156
-30.2972 -16.5262 1.27877
23.6419 -4.26915 0.868144
-27.6946 -19.6969 1.25924
-7.28983 -7.94837 0.40694
9.07193 -8.84652 0.471042
12.5013 13.6752 0.714327
26.6578 54.9933 2.31431
25.4958 54.2833 2.25812
-11.5392 -9.1337 0.580201
8.74182 -8.68743 0.487558
-25.4547 20.9687 1.33826
21.9253 -2.9715 0.896533
-28.665 -17.4111 1.37386
9.43619 -8.94739 0.533197
12.5306 14.4317 0.822223
6.60349 -12.5057 0.600522
14.9731 19.4553 1.07924
21.0142 29.0262 1.56936
-9.4731 -13.7739 0.734789
-9.952 -15.5645 0.820108
7.62 -10.9826 0.588938
8.64228 -8.73194 0.555209
24.2959 -3.72194 1.10995
-29.7423 -8.66731 1.41382
6.76237 -11.1172 0.598699
-8.26648 -8.13515 0.545761
21.7247 43.8323 2.34043
-28.4285 -17.5699 1.57965
-9.74623 -13.6709 0.79911
9.68307 -8.98424 0.622166
15.8109 43.9378 2.26033
-30.1242 -13.3429 1.57239
-6.75804 -8.239 0.524292
14.7734 34.356 1.90822
-29.6221 -11.6 1.5963
-7.58813 -6.9775 0.520991
-6.69628 -7.59092 0.511999
16.316 29.5566 1.75298
10.5919 12.3854 0.880685
14.3226 19.4907 1.29864
9.36569 -8.94529 0.69394
14.9135 19.4045 1.3513
15.4101 23.8008 1.56125
-27.317 19.234 1.83062
-6.96848 -8.18941 0.596254
-26.2464 20.1389 1.83869
6.12026 -12.9226 0.799952
-7.10029 -9.15035 0.660453
9.99752 12.4876 0.940763
15.0436 25.3468 1.72197
6.48972 -13.0342 0.837906
13.948 22.7558 1.57651
-8.25344 -8.11276 0.697235
11.5761 11.656 0.97963
14.7635 19.6357 1.476
-7.39034 -10.0043 0.77352
7.02846 -11.2005 0.805823
11.2892 -9.73766 0.903859
5.88165 -10.7821 0.762105
-7.19217 -6.64775 0.611922
14.5717 20.671 1.60024
16.1889 7.18604 1.15008
-7.03474 -6.14627 0.612883
6.49161 -13.5056 0.998562
9.47459 21.4016 1.57895
10.4548 12.6013 1.11936
13.6231 18.3184 1.5923
12.4776 20.6878 1.67176
11.3835 12.0251 1.16227
6.60987 -9.85765 0.840474
11.5313 11.7978 1.19391
9.81704 -6.92989 0.855062
12.3977 12.0021 1.26735
9.94026 -8.39446 0.953161
-6.14396 6.65884 0.676085
10.455 9.20593 1.04646
11.9811 17.9138 1.62158
11.5343 18.3766 1.63487
-6.94281 -7.69565 0.80365
10.913 18.8358 1.67032
9.52828 -8.97092 1.0114
10.5142 14.1137 1.37982
-6.41537 -4.29873 0.608941
9.23814 18.5086 1.65314
10.0918 -6.90578 0.97917
12.49 11.5884 1.37737
9.8006 19.029 1.72363
-7.25976 -9.6294 0.982264
6.72623 -9.39205 0.940028
12.2771 11.7448 1.39221
12.1818 11.9804 1.41888
11.4554 11.9735 1.37192
-5.04596 -11.5167 1.05776
10.3463 12.9446 1.41008
-6.95917 -6.08117 0.795941
-6.81546 -6.69434 0.806877
-5.2071 -11.4204 1.06745
-7.29795 -7.74403 0.916303
9.29347 -7.26296 1.01909
-7.1182 -8.05498 0.940679
-7.01483 -7.68807 0.915237
9.41903 12.5726 1.39285
-6.94966 -8.36914 0.971843
10.8355 9.0917 1.28915
10.4984 13.5214 1.54673
10.5441 9.2605 1.28469
7.75155 14.071 1.47777
-6.49658 -8.1338 0.953757
-6.90008 -9.01462 1.04778
11.225 10.8262 1.43903
11.2708 9.19584 1.36128
10.8942 10.8287 1.43998
6.52224 15.0723 1.54342
-11.4148 2.9243 1.10475
-6.36071 -4.17049 0.712452
-6.80449 -6.29274 0.859399
9.46483 13.3483 1.57864
-6.01611 6.53707 0.874476
7.96637 -6.61417 1.00915
7.96185 13.2757 1.53783
-7.06639 -7.61509 1.04653
9.33363 11.6707 1.50743
7.03401 12.4894 1.45487
7.09278 13.0671 1.51589
9.55178 9.11026 1.36615
5.8946 14.0524 1.57967
9.16999 12.472 1.61409
-6.10641 -4.45615 0.792249
5.99246 13.7698 1.58206
6.25332 13.6977 1.58326
-6.96832 -4.42638 0.882873
8.78463 9.03578 1.34362
9.15762 10.2019 1.49109
7.35182 11.0391 1.44156
5.84986 11.5224 1.40512
-6.29747 -7.40832 1.06273
10.2794 6.46037 1.34341
9.00616 8.15139 1.33913
7.33769 11.7291 1.52786
6.87159 11.6792 1.49834
5.38292 11.9535 1.4588
4.89521 12.1684 1.46767
4.73598 13.7735 1.60266
9.87955 7.06396 1.35623
8.77622 9.3291 1.43137
5.40667 11.5689 1.43825
-6.83907 -6.72109 1.0672
6.88903 10.7529 1.43875
4.34804 13.2645 1.57798
9.76105 -3.19861 1.14535
-6.10291 -5.4129 0.944354
7.29343 -6.1235 1.08105
10.4255 5.72028 1.36399
-7.37568 -0.985038 0.85251
-6.25569 -5.35466 0.94774
5.2461 -5.5546 0.880268
5.09262 11.6813 1.48056
-6.88062 -4.55759 0.956274
4.4533 -7.26151 0.985118
10.4171 5.1533 1.36392
8.89744 7.89697 1.39667
-6.00097 -4.36741 0.864878
-6.48388 -5.27187 0.987126
4.09281 -7.8675 1.05466
4.96491 -5.84821 0.920398
10.1751 4.7578 1.34662
8.53254 8.28542 1.4407
5.29972 11.5461 1.55106
9.05446 6.27255 1.34875
8.02508 8.3519 1.45108
-6.4878 -5.74497 1.0787
3.70631 -7.57259 1.05594
8.68593 6.69725 1.37935
-6.46606 -5.34294 1.06151
9.09953 6.01891 1.39302
8.19406 7.14991 1.38762
8.12563 7.5182 1.41361
5.77618 -5.34473 1.01038
-6.96973 -4.4417 1.06078
8.11467 8.01199 1.47926
-7.35218 -1.04164 0.959273
-6.92057 -2.82535 0.976092
8.98206 4.10403 1.29337
8.41245 6.63681 1.40678
4.99728 -6.02671 1.02912
4.91548 -6.19131 1.04684
6.87123 -4.28333 1.07783
-7.12957 -1.71734 0.982989
-7.00651 -2.219 0.982465
-6.02466 -4.42179 0.998998
8.14543 6.66698 1.42713
8.6168 4.44319 1.32192
8.63929 5.17181 1.37543
8.03967 7.14823 1.46445
-6.80623 -3.73229 1.0539
8.86824 4.16276 1.34109
8.27401 5.83985 1.38698
-6.39659 -4.32811 1.05674
-5.95682 -4.52457 1.02151
5.37468 9.05726 1.45492
3.65819 10.1207 1.49483
-7.36245 -1.09218 1.0306
-6.90173 -3.92564 1.10181
4.94753 -5.54205 1.02675
5.2273 -5.3973 1.04286
7.46654 -3.53843 1.15554
3.40241 10.2044 1.50759
8.40961 4.60263 1.35626
7.37797 -3.67962 1.16963
7.59032 -3.33636 1.18212
7.76549 -3.30724 1.1977
8.9445 2.8164 1.34984
4.83229 -5.6337 1.0669
7.35662 -2.85419 1.14887
-6.95563 -3.29878 1.12199
7.92212 -2.78102 1.2242
8.66998 -1.82119 1.30049
5.02391 8.60174 1.47065
2.96706 9.48443 1.47882
7.73619 -1.88891 1.17371
7.2393 5.76537 1.37903
3.47125 9.60339 1.50982
3.20219 9.84486 1.53469
-7.36468 -1.04258 1.10273
-7.07051 -2.02192 1.09585
6.9583 6.29902 1.41723
-6.26087 -2.27085 0.999366
-7.23511 -1.37433 1.11158
7.94848 4.8233 1.41658
5.72294 7.37445 1.41652
5.30674 7.65173 1.41743
5.07163 8.03733 1.43708
6.76152 -3.22665 1.13306
7.24912 -3.12594 1.20901
7.63967 -2.75678 1.23772
-7.31081 -0.732363 1.12191
-7.09306 -1.95331 1.13541
6.79118 -3.0938 1.15414
3.74886 -5.78512 1.06601
-7.049 -2.07479 1.15188
-7.34051 -1.09206 1.16518
7.37003 4.78041 1.38758
-7.19354 -1.44249 1.16717
-7.26624 -1.30014 1.18427
-7.09326 -2.01781 1.19916
7.07832 4.76899 1.39338
-7.09687 -1.94426 1.20866
7.01808 4.871 1.41914
6.62353 4.85828 1.37095
5.21718 6.25629 1.35726
4.68548 7.19118 1.43369
3.83502 7.96003 1.46899
-7.24405 -1.37253 1.23069
2.79043 -5.77289 1.08093
7.15003 4.43366 1.41744
6.52244 5.24551 1.41221
3.87274 -5.36404 1.1155
3.93563 -5.0197 1.07984
-7.26701 -1.25151 1.2508
-6.59527 -2.62401 1.2042
7.4225 2.85013 1.34866
7.03705 3.89513 1.37079
-6.41162 -2.75183 1.18699
6.78157 4.10291 1.36083
5.6838 -3.52047 1.1508
-7.3904 -1.03881 1.2905
-6.35412 -2.27943 1.16048
5.53638 -3.64864 1.14296
5.31969 -3.77456 1.14338
3.60706 7.1828 1.41418
-6.7955 -1.73413 1.23157
4.47974 -4.46718 1.11341
-7.08702 -0.91397 1.27282
4.72535 -4.45792 1.14968
4.33872 6.5082 1.396
6.59184 3.47696 1.34601
6.63176 3.68596 1.36316
-6.43791 -1.49974 1.18882
3.60769 -5.32466 1.17005
5.08638 5.62256 1.38846
-6.15275 -2.18241 1.19637
3.41163 -5.15635 1.14989
3.39689 6.78989 1.42073
-1.6983 -5.78347 1.14485
6.44928 2.73388 1.33316
-2.14373 -5.72865 1.17576
6.31346 2.79798 1.32962
-2.78795 -5.37722 1.18681
-3.51597 5.33879 1.3846
4.47574 3.89791 1.35478
