ply
format ascii 1.0 
element vertex 1870
comment /media/mkaihara/Seagate Backup Plus Drive/model_iterations/model_50.ply
property float32 x 
property float32 y 
property float32 z 
end_header 
4.05699 -11.9864 -3.0492
15.1034 7.58589 -4.04468
3.38602 -11.1287 -2.78893
3.16821 -9.88101 -2.47317
-6.70294 -38.3396 -9.2638
-11.1211 -42.7226 -10.4676
3.9706 -9.09666 -2.34776
-28.8372 21.5509 -8.50485
14.9134 7.63298 -3.9238
-9.41485 16.2634 -4.41328
3.93294 -11.3395 -2.82531
-12.8033 17.4558 -5.05899
-26.3859 20.937 -7.8224
3.48202 -10.3149 -2.49652
11.0509 -9.48728 -3.36113
15.6751 -11.8169 -4.49692
-37.3292 26.4122 -10.4571
-12.4402 -43.3085 -10.2711
10.9199 -9.54803 -3.31843
-11.7257 -42.1449 -9.9253
-6.12522 -31.0632 -7.2056
40.8169 -12.6188 -9.68126
-26.9953 20.8548 -7.69691
14.724 -11.4263 -4.19088
-30.7057 22.3046 -8.51631
4.44655 -5.80126 -1.64078
5.29665 -9.1818 -2.37187
-27.8733 -71.9074 -17.0537
-9.62029 16.1052 -4.13189
-12.9211 -44.3734 -10.1695
4.10868 -9.78178 -2.33496
13.4706 -10.8664 -3.81589
4.01009 -9.18232 -2.20359
41.1956 -12.1827 -9.4081
-23.4563 20.4464 -6.78587
3.39472 -10.1014 -2.28681
4.4007 -9.9062 -2.34553
14.9875 7.5338 -3.60368
-28.8756 21.6063 -7.75263
-21.1819 -33.5833 -8.53083
-8.30597 -35.1798 -7.73175
-24.3774 20.5603 -6.79525
-30.9789 22.5011 -8.14853
3.25081 -9.93844 -2.23158
4.87458 -8.86506 -2.14548
14.7998 7.72803 -3.53378
4.23591 -10.5036 -2.41021
41.8727 -10.9122 -9.16986
-10.5119 16.4667 -4.12148
4.33966 -9.15126 -2.12445
3.15225 -9.12562 -2.00062
5.15964 -9.05191 -2.183
14.8045 7.44946 -3.45307
-37.9638 24.9992 -9.46191
-27.1457 -25.1702 -7.65231
3.02529 -9.46652 -2.06592
-28.6097 -30.1691 -8.56686
-19.7653 -30.8626 -7.54689
3.85583 -9.33426 -2.08396
3.73823 -8.73821 -1.95074
-15.5842 18.4286 -4.93997
-24.5541 -65.0845 -14.2792
3.98932 -8.78403 -1.97286
-13.9541 3.05269 -2.9185
-33.4063 -23.6095 -8.3422
-27.1934 -75.1164 -16.2627
-11.2289 -36.1611 -7.70086
44.0488 -9.62001 -9.15852
14.9587 7.64213 -3.36599
-17.7261 -23.4822 -5.91245
12.3581 -10.099 -3.20951
-18.7089 -53.5215 -11.3165
4.18524 -10.7677 -2.30413
-12.0038 17.2128 -4.16861
-26.0901 20.5289 -6.58066
-35.3245 -20.9116 -8.16119
-32.0758 -25.0504 -8.06613
-9.14312 -35.4444 -7.28928
14.5553 -11.4755 -3.67235
4.03258 -9.83126 -2.09475
3.22733 -9.86503 -2.03484
-35.472 23.4384 -8.26237
-22.9673 -55.3024 -11.5748
-15.8375 -45.7307 -9.23017
3.49001 -8.91049 -1.83273
-20.1419 -32.6214 -7.27922
-31.8752 -24.8765 -7.62427
-28.9282 -25.6874 -7.28271
-21.7529 -53.7544 -10.9712
3.88831 -9.09723 -1.88423
-16.5509 -45.1423 -8.99877
3.4435 -9.2254 -1.81814
-32.3471 -24.1435 -7.34823
-31.1502 -26.7089 -7.4786
-32.8481 23.1261 -7.24159
-20.0544 -49.6178 -9.54942
-31.137 -25.0826 -7.0326
-24.0387 -62.242 -11.7545
-34.1093 22.6991 -7.17412
-16.4242 -46.3162 -8.61721
3.40571 -9.5733 -1.77603
14.1177 7.83525 -2.80021
-34.8614 23.8886 -7.32989
-28.7754 -25.2205 -6.65508
3.47655 -9.5216 -1.75787
4.80099 -8.6623 -1.71634
-26.7628 21.0116 -5.87997
-30.6072 22.2612 -6.52777
-30.9095 -28.4701 -7.25129
3.89172 -10.0149 -1.85392
13.9674 7.52964 -2.72666
-23.3927 -53.7502 -9.96969
-20.5745 19.5759 -4.79213
-31.3879 -24.9479 -6.79916
-19.5742 -48.5306 -8.87368
5.61416 -11.7634 -2.20088
42.4456 -11.988 -7.47726
-18.0562 -48.1908 -8.66469
41.5586 -10.8129 -7.22347
5.00517 -10.7406 -1.97263
6.69797 -11.1294 -2.19447
-10.3112 16.3936 -3.14208
-30.221 -23.394 -6.2282
42.8345 -11.5033 -7.2176
-22.0412 20.0222 -4.83002
-20.2395 -50.0728 -8.57782
-22.8285 20.0719 -4.79469
-24.0368 20.4909 -4.91429
-32.7725 23.0855 -6.20236
3.81712 -10.1111 -1.66086
-31.9749 -24.7231 -6.17823
-13.6728 -41.2496 -6.6759
-30.953 22.5261 -5.81969
-22.5279 -54.2191 -8.94182
-7.60766 15.4049 -2.59041
-33.2197 -23.3454 -6.11752
-32.4934 -23.8885 -6.11109
-27.6778 -25.9691 -5.71189
-33.0787 -23.8078 -6.11305
-31.2494 -25.0146 -5.98389
-34.664 -23.1529 -6.18812
-24.7354 20.7642 -4.76104
-32.9977 -24.6932 -6.07393
-31.9778 -24.2159 -5.92371
-25.3988 20.9294 -4.8148
-12.4035 -41.104 -6.29406
-12.5408 17.1547 -3.06124
-7.62249 15.2499 -2.43106
3.50877 -9.56078 -1.44913
38.6534 -12.7125 -5.78736
-33.3309 -24.5525 -5.85641
-30.4991 -24.2395 -5.48306
-29.9748 -25.2816 -5.52205
-20.3366 -49.0016 -7.39377
-6.79098 15.0472 -2.24104
-13.9203 17.7851 -3.06377
-11.6063 -40.6286 -5.75424
-7.36879 14.9344 -2.23615
-23.9363 -62.3114 -9.03188
-22.281 20.2628 -4.01106
-24.3879 -55.2779 -8.0287
-31.2194 -24.0998 -5.20616
45.6579 -10.5211 -6.16159
45.0152 -9.89581 -6.07155
-13.3042 -41.346 -5.70891
6.63932 -10.9421 -1.68332
-14.9279 18.2845 -3.07203
-22.6889 19.9835 -3.91953
-32.5111 -24.2709 -5.22342
10.7459 8.81372 -1.79429
-33.4596 23.0064 -5.21374
-29.5375 22.4766 -4.67906
-30.8399 -24.1452 -4.94148
-12.6694 -36.0465 -4.83173
9.67282 -9.05295 -1.65325
12.8005 -10.4613 -2.08126
-33.5784 23.5557 -5.12909
-35.9462 -22.3945 -5.27492
-30.5002 -25.2099 -4.91714
6.77912 -10.31 -1.53999
-32.8198 -23.198 -4.9806
-13.4603 -41.9941 -5.42482
13.1947 -10.9996 -2.10873
42.0462 -10.9279 -5.36407
-16.0945 18.5284 -2.99996
-15.8038 -38.3066 -5.0661
-8.69564 15.5455 -2.16942
43.9448 -10.123 -5.46037
15.0322 7.84724 -2.03684
9.41666 -8.93512 -1.54971
-33.6159 -23.4541 -4.86075
-17.7618 19.3044 -3.06964
-20.714 9.16652 -2.68429
-31.6233 -24.4822 -4.71701
-25.352 -57.4391 -7.37752
11.2921 -9.7139 -1.74403
42.4018 -11.3512 -5.1684
14.7186 -11.4283 -2.14189
14.9583 7.68885 -1.9123
-29.7537 22.6275 -4.26454
7.2688 -11.038 -1.49985
-10.1953 16.2779 -2.15115
9.44926 -9.31571 -1.47714
12.7794 -10.4962 -1.84407
13.9801 -11.0343 -1.98115
9.45257 -9.11578 -1.45754
7.0577 -10.4517 -1.38155
44.9315 -9.81318 -5.00584
-10.8439 16.2893 -2.11025
-32.9812 23.2566 -4.38307
11.7162 -9.84358 -1.65241
6.18331 -12.7154 -1.48734
7.55841 -11.5698 -1.43821
9.84626 -8.9041 -1.39674
-15.1846 -43.8788 -4.86875
16.5746 -12.2743 -2.16315
-30.1272 -60.527 -7.01396
14.9004 7.50306 -1.70519
-30.9256 -24.6464 -4.06242
13.8337 -10.9455 -1.80792
-31.6833 -24.5079 -4.05321
14.8884 7.77888 -1.68785
-12.6028 16.854 -2.0682
-20.1168 -51.0048 -5.31374
-32.2244 -65.0967 -6.95487
-23.286 20.37 -2.92328
-30.7834 -25.218 -3.78311
-30.76 -25.5507 -3.81155
-21.3607 -55.8949 -5.64298
-14.0033 17.9189 -2.12892
-31.0496 -24.2917 -3.67956
-15.5285 -42.2962 -4.19798
-13.7457 -42.724 -4.18712
9.81669 -9.09893 -1.24385
-32.7838 -63.8611 -6.61436
8.55885 -8.65608 -1.10536
16.5073 -12.2995 -1.88342
-14.8983 18.2759 -2.11554
-35.643 -22.1692 -3.79889
-32.9294 23.2496 -3.55079
-30.8442 -24.8841 -3.50261
14.0447 -11.1706 -1.59312
-31.9867 -19.4921 -3.19638
11.0472 -9.6949 -1.25162
-26.5134 21.5064 -2.86782
-11.2431 -34.993 -3.10666
9.39427 -9.0076 -1.09283
-33.6451 23.1323 -3.3929
8.68202 -8.68364 -1.00869
16.7707 -12.231 -1.69568
-16.5239 -42.9371 -3.69809
-21.1854 -48.4624 -4.14078
-15.1477 -37.3955 -3.19859
-13.1806 -36.9819 -3.11978
9.19712 -8.93783 -1.00769
11.2826 -9.78066 -1.1707
14.8651 -11.6271 -1.4942
-29.7622 22.6961 -2.913
-29.1355 -13.5998 -2.49822
11.8553 -10.0436 -1.20442
-22.892 -50.983 -4.28117
12.7745 -10.6033 -1.25784
-40.3047 -76.4655 -6.25656
9.94438 -9.12683 -0.978313
10.9031 -9.73235 -1.01872
-33.0619 -20.5246 -2.69243
11.9495 -10.0429 -1.08086
14.7118 -11.5834 -1.30147
-15.3821 -38.8682 -2.8453
-14.9862 -39.6453 -2.90594
18.5803 -13.4278 -1.52195
-23.1841 20.299 -2.04545
-24.5129 -56.5468 -4.07622
12.8705 -10.5875 -1.11419
-14.5001 -40.2281 -2.77951
15.2754 -11.5336 -1.24383
-31.9429 -64.6739 -4.53063
-14.8016 -45.8791 -2.99617
-32.65 23.0651 -2.44691
-32.3974 -64.0673 -4.37046
-16.8329 -41.0034 -2.70311
30.9925 -20.548 -2.26363
42.1606 -10.9945 -2.6451
36.5876 -8.82124 -2.28025
-14.9977 -40.2659 -2.59657
-26.834 21.7782 -1.95965
-28.8652 -14.2111 -1.8595
-15.6932 -40.8833 -2.44305
16.9008 -12.6109 -1.18134
-27.0438 -16.274 -1.69937
42.7526 -9.5232 -2.2525
-9.37973 -12.5328 -0.794801
-15.285 -40.6781 -2.1649
5.71195 -12.4663 -0.681316
-14.1223 17.9028 -1.11214
-14.9292 -46.9245 -2.41886
14.9056 7.81993 -0.811028
-16.1915 -41.5028 -2.11768
-14.3907 -46.8033 -2.31088
18.7289 -13.2883 -1.10059
-17.0143 -49.3428 -2.43514
36.8811 -9.05827 -1.77945
-28.7658 -14.7093 -1.44589
-24.1034 -55.2302 -2.6728
-16.4084 -40.3722 -1.94031
9.6548 -9.11073 -0.591858
12.6016 -10.3431 -0.73171
44.4084 -10.1613 -2.02582
-13.9154 -42.3279 -1.89685
-32.5761 23.0286 -1.66161
-53.2157 28.9013 -2.41584
-33.6145 23.1332 -1.49744
-18.6643 -48.8089 -1.9616
-34.4419 -21.6886 -1.45514
9.74186 -9.06616 -0.489271
6.60501 -10.8307 -0.440179
-12.9585 -38.6308 -1.34899
7.46303 -13.0996 -0.514882
18.6224 -13.1898 -0.770722
-26.3487 -57.708 -2.08909
-13.2556 -37.6063 -1.29216
21.1998 24.4508 -1.03941
-23.0059 20.4241 -0.969038
-20.6273 -52.818 -1.75858
21.0481 -14.3535 -0.774372
-27.5287 -14.1665 -0.93867
-12.8948 -41.2684 -1.28563
-23.9673 20.365 -0.903498
-23.4537 -53.9763 -1.67421
-17.3866 -47.0565 -1.44726
22.5738 -10.1587 -0.747058
-34.3052 -20.9022 -1.11131
-9.7716 -12.8203 -0.460489
-22.6663 -53.4533 -1.63896
18.0393 -13.439 -0.572524
30.7023 51.2362 -1.54808
-29.9151 22.8249 -0.96758
-31.069 22.7246 -0.95216
-27.1475 -13.0442 -0.738273
9.56129 -8.99758 -0.317747
-20.7403 -33.4065 -0.91696
-40.0341 13.8869 -0.926708
21.248 -14.2172 -0.542697
18.4494 -13.3011 -0.426607
12.8134 -10.5267 -0.276206
-7.18423 15.5511 -0.299986
-33.0074 10.4385 -0.572426
-28.2005 -13.4289 -0.494656
-36.9025 -21.0155 -0.645302
-17.9698 -44.0517 -0.736019
-7.82641 16.4593 -0.247685
-32.3949 -24.1999 -0.560785
-33.745 -23.0042 -0.522842
-34.3567 -69.4197 -0.959712
17.3062 -12.912 -0.26184
18.2361 -13.1299 -0.284816
28.9975 -17.8807 -0.454407
-21.1677 -54.215 -0.705936
-30.096 22.9455 -0.403876
-37.4144 -20.9146 -0.473488
-27.4473 -58.5671 -0.688535
-18.4832 -42.3936 -0.495001
-52.8969 28.9892 -0.502234
-33.3464 -58.8246 -0.622967
-19.8337 -52.0167 -0.528669
37.5881 -9.0809 -0.35524
-14.23 18.0615 -0.1617
-34.7538 -77.3935 -0.580356
-17.7802 -43.1252 -0.317541
9.56903 -9.00418 -0.0408642
14.8039 7.79323 -0.028483
-29.316 -13.0779 -0.0582383
-11.6529 -16.9662 0.025012
-12.8414 -19.3284 0.0441356
-18.5444 -42.5683 0.191829
9.4348 -8.98269 0.0594264
-32.6089 23.0775 0.20731
-21.552 -54.4093 0.283637
-30.1083 -13.9738 0.199163
16.8315 -12.2809 0.116593
-13.0884 -20.0679 0.156292
14.7029 -11.4531 0.146753
-52.8223 18.9254 0.496246
7.0807 -12.1662 0.118193
15.9902 -11.849 0.169048
-36.3102 -21.9723 0.445103
38.2774 -7.86735 0.407092
-35.1591 -22.0333 0.472533
-12.4942 -34.5087 0.428414
-12.9694 -34.8763 0.450964
-11.144 -32.0897 0.413427
-9.58599 -29.6595 0.377315
26.0171 52.6801 0.765258
9.58109 -9.01184 0.170096
-12.7696 -19.7875 0.320612
-10.8261 -32.8635 0.474062
8.56026 -8.50393 0.182965
6.28416 -12.8563 0.208405
7.14258 -11.0064 0.200307
9.33685 -9.05143 0.187859
8.02114 -9.10135 0.194047
9.71657 -8.9969 0.218173
37.753 -8.08857 0.633703
-23.8374 20.442 0.562299
-33.1004 -22.2699 0.686369
-34.3771 -25.2222 0.746634
12.9021 -10.5991 0.273657
13.2128 -10.6571 0.318183
-9.89927 -12.5513 0.301718
6.81979 -11.1769 0.255329
7.97727 -9.37539 0.242086
26.5743 54.677 1.21843
6.96807 -10.9526 0.260999
9.16921 -8.67575 0.268223
11.5143 -9.8968 0.332777
17.2303 -7.6961 0.379983
7.20202 -10.9271 0.296223
-9.43743 -12.1834 0.389722
-12.7779 -19.6156 0.559215
7.63605 -9.29678 0.274078
7.81979 -9.35163 0.283044
-25.6052 21.5208 0.868604
-28.8826 -9.26208 0.760981
9.60896 -8.9406 0.337691
17.4707 -12.7627 0.545583
18.305 -13.1807 0.561114
-22.9456 20.0893 0.794365
-27.6932 21.8864 0.921232
-28.8959 -8.67261 0.789666
-33.0803 -17.6385 1.01802
-13.3387 -20.142 0.642054
14.7396 -11.4526 0.498147
22.7124 -3.30463 0.646017
-12.1828 -18.9964 0.652832
24.9465 -4.7259 0.739159
16.3431 25.3627 0.904419
-27.9814 -20.6135 1.02829
7.21492 -11.3017 0.402626
6.95457 -10.6798 0.388195
14.7249 23.9873 0.86426
-7.61505 -8.79932 0.355763
13.0112 -10.6465 0.513464
-7.31191 -9.50332 0.367179
-28.5265 -8.05174 0.986263
-11.8792 -17.3649 0.704503
7.85872 -9.33462 0.403804
16.1267 11.018 0.699588
10.8413 -9.44003 0.522298
11.8735 -10.032 0.566484
22.7923 45.8965 1.92481
-7.44268 -8.12564 0.411789
9.63622 -8.94525 0.490934
22.7809 -3.19848 0.883297
26.6744 55.1406 2.37208
-7.44001 -9.87515 0.483546
10.4135 -9.49762 0.552966
12.7061 -10.4941 0.665921
21.5357 -2.63944 0.884719
-29.1059 -17.6578 1.3919
8.72493 -8.68574 0.508881
-6.91782 -8.45864 0.469637
9.42203 -8.91301 0.542294
12.6586 14.5314 0.851243
-28.8644 -8.47117 1.3218
14.7002 19.1471 1.08505
14.9983 25.824 1.33087
21.5926 42.4603 2.10701
6.16342 -13.7323 0.671199
10.8252 -9.49705 0.651379
18.4554 -1.63788 0.847782
19.3964 36.9316 1.95679
14.939 26.3215 1.4193
-11.183 2.77377 0.554768
-7.23726 -9.53956 0.577394
9.15252 -8.97076 0.607057
11.3776 -8.72909 0.671653
20.0761 -2.30066 0.973589
11.6165 11.8387 0.8238
16.0292 38.5488 2.05267
7.74645 -9.44126 0.601191
10.1668 -9.25968 0.681083
14.5477 24.6687 1.43428
20.0468 38.8747 2.22045
20.9661 -2.61182 1.07451
-7.40029 -8.50195 0.584717
9.36963 -8.92097 0.67376
16.6706 24.4464 1.55464
16.4682 29.8549 1.77982
12.9829 -10.7014 0.894079
10.5415 12.3231 0.867456
14.1917 19.2641 1.28552
11.0557 -9.58645 0.791365
14.9777 19.5147 1.35685
-26.2508 20.1228 1.8074
-6.96397 -8.17019 0.593853
10.2374 12.377 0.899645
-7.25708 -9.3684 0.663672
9.97492 12.4261 0.924273
-27.7052 19.5054 1.92386
6.09383 -12.8698 0.815327
11.1663 12.071 0.945247
-6.87938 -6.78939 0.560513
11.2559 12.0027 0.969028
-6.80485 -8.40866 0.647359
6.23825 -12.5399 0.818437
14.612 19.4415 1.46258
14.088 23.0337 1.61087
13.3614 30.879 2.01949
-6.13508 6.53435 0.550286
-8.16448 -7.73615 0.680284
-7.1137 -8.1607 0.664828
5.71041 -12.4189 0.826618
-7.47856 -6.88539 0.632355
6.99166 -11.1397 0.813329
6.97418 -10.5402 0.788917
11.3194 -9.77101 0.923637
12.1067 -10.1278 0.978289
16.1951 7.17247 1.12869
14.8585 19.2482 1.53861
-7.23507 -6.30539 0.622413
10.2474 -9.35922 0.895771
-7.37638 -6.25783 0.634484
11.4585 12.0911 1.13516
9.51502 21.4203 1.59612
-7.26875 -9.64851 0.807054
11.6181 12.6009 1.1759
-6.95392 -4.45639 0.568053
-6.75031 -8.19849 0.724203
-6.69841 -4.43286 0.553985
9.25919 -8.85242 0.89191
9.98517 -7.83408 0.894139
12.6878 15.9912 1.4761
-6.66829 -6.66075 0.654834
9.79811 -8.27408 0.937871
11.4415 17.1078 1.54738
11.372 18.1302 1.59885
9.57158 18.2177 1.55199
8.99022 19.4292 1.61026
7.313 21.796 1.72844
10.7462 18.5486 1.63325
10.0029 -7.58931 0.960164
-7.02658 -7.1876 0.770174
-17.1909 -6.23527 1.42981
9.46174 -7.6707 0.954953
9.31025 18.5954 1.64146
-6.37976 -4.25988 0.608126
-6.82825 -8.21812 0.847005
4.83173 -5.72972 0.595983
8.99281 19.7847 1.72385
7.74176 18.9288 1.64445
5.02512 -5.79164 0.617866
12.7632 11.5169 1.39314
11.7641 11.817 1.36549
6.72166 -9.37712 0.937926
12.2205 11.6886 1.39017
6.65686 19.5419 1.68998
-6.35593 -4.38763 0.629385
-7.15974 -9.47589 0.974785
11.5329 12.0826 1.38213
10.4624 9.15276 1.18378
-5.03754 -11.4932 1.06006
6.12283 -6.04298 0.75101
9.20799 -7.17335 1.00402
-6.79417 -6.69186 0.810159
10.4187 12.3472 1.41045
8.78846 -7.32307 0.994524
10.8163 12.1929 1.42658
-7.30807 -7.76276 0.934653
8.18275 -7.28475 0.972818
10.1951 12.4614 1.44755
-7.07015 -7.74022 0.929474
-6.93672 -8.33877 0.973444
10.5865 12.3061 1.47418
10.4884 13.5295 1.5511
-7.11549 -8.32655 0.99769
11.2085 10.8266 1.43351
-6.31409 -4.23092 0.698846
-6.85996 -8.59185 1.0059
-6.32796 -4.39407 0.710094
11.0759 8.54759 1.31301
10.633 9.32141 1.31858
6.47869 15.3901 1.57069
10.4994 11.2954 1.45941
-11.2286 2.87732 1.09517
6.15451 -5.9624 0.817027
7.99895 -6.63122 0.99808
10.7331 9.19106 1.37191
9.51841 12.5243 1.52332
9.70346 12.4526 1.55551
7.65936 12.2495 1.43526
7.90388 13.213 1.53273
11.2178 8.05552 1.40764
7.13258 12.6922 1.4695
9.0537 11.3462 1.47714
6.98994 13.5324 1.55895
5.86118 13.9272 1.55141
9.19144 10.4787 1.44078
9.02463 12.2947 1.58478
11.3818 7.65368 1.43097
9.24633 9.99958 1.41815
4.97113 -5.81709 0.821567
-6.84583 -4.65602 0.873293
5.57065 13.8787 1.58755
-7.05888 -4.50654 0.893096
8.92183 10.6903 1.49519
-6.76606 -6.77571 1.02425
5.90722 -5.83066 0.896662
9.68658 8.52849 1.39127
8.95689 9.35519 1.39318
9.25212 10.3139 1.50242
4.77683 13.8443 1.58083
4.23382 -8.05209 0.985554
6.4621 10.8111 1.38619
-6.80144 -3.92491 0.86434
6.34317 11.8936 1.49577
-6.89524 -3.86308 0.875573
9.70765 7.20299 1.35193
6.66589 11.3765 1.4687
9.80261 7.02835 1.3552
5.43169 11.5793 1.44638
5.43676 12.0891 1.49738
4.70064 12.233 1.48304
9.83232 6.68281 1.35505
-6.89214 -4.56382 0.946687
7.40389 -6.22772 1.10291
-7.33043 -0.785436 0.845332
-6.27552 -5.39109 0.952825
5.24814 -5.56699 0.882922
8.8743 7.88946 1.38355
4.41737 -7.18205 0.976878
10.4122 5.15471 1.36075
8.95812 7.79311 1.39591
5.19954 -5.61063 0.903837
8.60183 7.91791 1.38742
8.90121 9.05549 1.48578
-7.04828 -5.65144 1.06896
10.1401 4.74811 1.33418
-6.919 -3.85196 0.954165
9.1407 6.14475 1.336
5.21094 11.4223 1.52218
-6.89344 -3.06566 0.916692
-6.87786 -3.2517 0.92002
4.88036 -5.95189 0.939564
5.97306 -6.12822 1.04205
9.37366 5.62247 1.35138
8.46307 7.22527 1.37601
-6.9509 -4.31083 1.00757
-6.88241 -4.53538 1.01588
8.25931 8.58597 1.47825
5.03218 11.3171 1.53818
-6.55128 -5.61863 1.07411
3.70827 -7.57346 1.05097
8.50396 7.74351 1.43931
6.07728 -5.61687 1.03765
9.16752 6.06156 1.39292
-6.13582 -5.41417 1.03259
8.55019 6.6145 1.37875
8.08923 7.51055 1.40434
-7.10049 -1.78279 0.936414
-7.0134 -2.30598 0.942911
-6.44659 -5.31963 1.0664
8.82976 5.66086 1.34478
8.15595 8.04646 1.47684
-7.26271 -1.2531 0.945098
-6.89845 -4.11927 1.0388
7.43279 6.22207 1.25561
8.07943 7.04192 1.38992
7.96998 8.12643 1.47516
-6.91039 -2.82622 0.972036
-6.91169 -2.96612 0.97242
4.55373 10.0844 1.45439
8.99753 4.11083 1.30221
-7.24673 -1.60594 0.975503
6.83866 -4.25861 1.07082
4.92822 -5.94367 1.02378
-7.33185 -1.11696 0.99279
-7.0137 -2.19918 0.983305
-7.05082 -2.26843 0.989581
-5.99561 -4.39871 0.993826
5.18785 -6.56416 1.11518
6.90945 -4.17553 1.08698
8.07383 7.17058 1.46306
-7.15035 -1.71799 0.988704
-7.08181 -1.95548 0.98819
8.79387 4.85497 1.36447
8.33227 5.87339 1.38622
-6.92131 -3.61917 1.06434
8.86688 4.16149 1.34364
3.34725 10.5203 1.51167
-7.31136 -1.19971 1.01429
-6.01082 -4.44196 1.02798
-5.99134 -4.5408 1.02922
7.14726 -3.9338 1.12144
8.07237 6.48627 1.43235
5.35753 9.05533 1.45718
-6.38274 -4.32178 1.05679
4.93308 -5.52605 1.02916
7.18491 -3.82955 1.13325
7.55923 -3.68616 1.1638
3.62114 10.046 1.48723
3.43562 10.3379 1.51906
-7.36765 -1.08189 1.03968
-7.07266 -2.0035 1.02446
4.97242 -5.2878 1.01481
7.24666 -3.7376 1.14564
7.36308 -3.6723 1.16713
7.87253 -3.35656 1.21679
-7.15352 -1.8744 1.05177
-7.00762 -2.94565 1.10166
-6.00866 -4.37394 1.06896
7.90727 -2.78304 1.22663
8.23458 4.62183 1.38369
4.99579 8.55833 1.45265
8.3719 4.50834 1.40549
7.83288 -2.34151 1.20527
7.14884 5.69091 1.36852
2.96426 9.46206 1.48285
-7.0925 -2.01911 1.1053
7.4862 -3.11069 1.22226
8.23117 4.54902 1.42574
5.79004 7.44648 1.43256
5.29528 7.63941 1.41664
5.13115 7.94991 1.43748
5.08459 8.05873 1.4424
7.33634 -3.17093 1.22084
7.68235 -2.75721 1.24308
-6.7545 -1.68237 1.04858
7.83489 -2.25777 1.2505
7.239 5.42921 1.38967
-7.10198 -1.95199 1.14306
-6.91897 -2.7855 1.15936
6.81879 5.53091 1.37738
-7.35343 -1.09545 1.16135
-7.1427 -1.82375 1.15465
-7.0451 -2.06709 1.1505
-7.11938 -1.87207 1.15531
-6.8942 -2.93388 1.17631
4.81561 7.46698 1.41332
3.44514 -6.03 1.10905
-7.27397 -1.2991 1.18381
3.52677 -5.70563 1.08069
3.56368 -5.61111 1.0701
7.0838 4.77499 1.39229
4.66912 7.39002 1.42294
-7.06974 -2.02311 1.19854
-7.09173 -1.94656 1.20686
6.97916 4.83623 1.40449
3.82604 7.94859 1.46081
6.05561 -3.32061 1.15058
6.64673 4.8829 1.37537
4.67123 7.17973 1.42909
3.83523 -5.29898 1.09953
7.11942 4.43336 1.4124
7.48744 2.86308 1.35492
6.33366 5.29475 1.39939
-7.27752 -1.25546 1.25773
6.76635 4.09095 1.35814
-6.44999 -2.77158 1.19796
5.51105 -3.63073 1.1338
5.69274 -3.51981 1.14925
2.76251 7.87321 1.44289
-7.37099 -1.03932 1.29067
5.33497 -3.78427 1.14029
-6.31004 -2.25934 1.16232
-6.27058 -2.41642 1.17678
4.2804 -4.66389 1.1071
4.49363 -4.47682 1.11279
4.59146 -4.44882 1.12171
-6.79996 -1.73229 1.23625
4.34266 6.51539 1.39706
-7.15818 -0.928111 1.29037
-6.1434 -2.25748 1.16595
6.65252 3.69925 1.36473
6.11262 4.37091 1.36327
3.60747 -5.3257 1.16992
5.15987 5.69877 1.40642
2.52318 7.22088 1.43723
6.49703 3.05784 1.3579
-1.70758 -5.78623 1.14192
6.43166 -1.3871 1.24851
6.28451 2.78296 1.32349
6.22898 2.3856 1.33099
-4.45191 3.9394 1.39764
4.33302 3.54093 1.3387
4.21797 3.2977 1.32573
4.66572 -1.67793 1.24518
4.81978 -1.38125 1.25443
-2.14341 4.80218 1.31363
3.7258 -2.95204 1.22218
3.672 -2.54879 1.19345
3.4051 -2.96042 1.22545
4.00766 2.57167 1.33097
-2.59554 -3.53556 1.25136
-2.32708 -3.57203 1.21676
3.75688 2.05898 1.30274
3.73342 1.98123 1.30214
-2.84312 3.48621 1.38767
-2.29717 -2.42003 1.18768
1.95368 -2.77881 1.21208
-2.1242 2.76807 1.32527
-2.02919 2.75619 1.33146
2.24938 -1.8686 1.22489
2.379 -1.49754 1.22207
-2.0163 1.87732 1.29641
-2.0649 -1.44325 1.22863
1.44827 -2.0685 1.24492
-1.99278 -1.0879 1.21462
-1.92518 -0.707723 1.22012
-1.92692 -0.703509 1.24571
-1.95598 -0.344376 1.22901
-1.89312 -0.564725 1.23001
-1.89273 -0.530929 1.23509
8.22606 -8.70582 -7.4708
12.1288 -10.2899 -8.80227
-8.76115 15.6388 -6.95519
20.5649 25.0432 -11.6419
-8.80249 -2.5209 -2.58005
-34.4327 -23.0012 -7.64951
-34.0346 -22.2577 -6.00044
-33.7638 -22.9453 -6.06245
-31.1563 -19.9816 -2.78356
9.28832 -8.84692 -0.391914
-7.66156 16.5146 -0.449186
-29.4339 -11.3899 0.727033
-6.91837 -8.2686 0.460505
16.7167 24.0044 1.5893
11.4007 16.0337 1.62735
-6.69463 -6.66764 0.883507
4.23081 12.2767 1.49663
8.73653 9.1004 1.47574
7.98336 -8.77595 -10.3936
8.84493 -8.55205 -10.5125
6.96615 -11.9524 -11.5286
6.88143 -11.3644 -10.9093
8.1637 -8.27608 -9.54574
7.03091 -12.0437 -11.34
7.07562 -10.9874 -10.4698
8.01336 -8.38937 -9.2166
6.7367 -11.2996 -10.3023
6.45384 -11.7123 -10.2261
7.76832 -8.86303 -8.98466
6.21418 -14.3352 -11.8233
8.31089 -8.71377 -9.11467
6.30835 -11.9246 -10.1884
6.1553 -12.1028 -10.1249
7.50232 -9.45918 -9.01426
7.92068 -9.06878 -8.9393
10.485 -9.46568 -10.5057
6.12789 -14.1305 -11.3842
6.10822 -13.6826 -11.0167
6.13933 -12.5926 -10.304
9.21003 -8.83874 -9.36416
9.29809 -9.08586 -9.48167
5.87271 -12.5212 -10.0465
9.37401 -9.00236 -9.27529
6.87168 -11.1419 -9.29025
5.62303 -12.9863 -10.0159
9.70629 -9.09451 -9.42638
7.61992 -9.35743 -8.48441
10.0122 -9.2004 -9.55261
10.9345 -9.50833 -10.1677
11.4597 -9.71456 -10.0892
8.39711 -8.62068 -7.96749
7.44193 -9.31258 -7.87642
8.18007 -8.73184 -7.90849
7.63949 -9.3659 -7.90737
7.84871 -9.41611 -7.85645
8.33318 -8.54826 -7.63142
0.357815 15.8769 -10.1326
7.53903 -9.33809 -7.63741
10.9281 -9.62244 -9.25781
7.23757 -10.719 -8.18569
8.16758 -8.51027 -7.43879
4.61813 -15.4211 -10.1239
8.7263 -8.71329 -7.62966
7.93331 -9.04597 -7.42158
4.05278 -18.0344 -11.3858
8.21009 -8.64049 -7.28658
4.08897 -17.3161 -10.8566
0.143762 14.881 -9.05482
6.66503 -11.2801 -7.97678
7.75399 -9.28157 -7.33821
10.1421 -9.32757 -8.36084
6.83128 -11.2687 -7.91077
8.07291 -9.21853 -7.3554
11.287 -9.71233 -8.90259
5.40866 -13.8761 -8.8326
7.74669 -9.28013 -7.16889
9.36549 -9.04746 -7.71606
6.91325 -11.1328 -7.7559
7.99551 -9.14178 -7.12627
9.76834 -9.20215 -7.82096
14.8789 7.43499 -9.6606
8.68103 -8.84501 -7.1612
6.94346 -10.981 -7.46664
2.64285 -11.2235 -6.63126
7.87174 -9.08527 -6.88476
9.62026 -9.15453 -7.54351
10.81 -9.51031 -8.12211
3.27977 -20.5921 -11.7263
6.81092 -10.9979 -7.25198
10.1219 -9.30572 -7.69988
12.3615 -10.3723 -9.04911
9.25451 -9.02123 -7.22168
4.62238 -14.312 -8.38461
8.01644 -9.23079 -6.78996
14.8015 7.56746 -9.12707
9.71246 -9.12111 -7.31745
0.835174 17.4786 -9.55586
2.74087 -19.8423 -10.9223
11.148 -9.66041 -8.00917
4.24027 -14.444 -8.14837
14.7147 7.69525 -8.94484
15.109 10.4319 -9.85864
14.0483 7.75033 -8.57344
10.9677 -9.63286 -7.76239
13.2873 -10.8203 -9.11517
3.04295 -19.3194 -10.2815
11.3735 -9.84025 -7.65239
2.16856 -20.3701 -10.3395
10.2767 -9.35632 -6.98851
14.2933 -11.3052 -9.14971
13.83 -11.1862 -8.90463
11.0249 -9.67001 -7.30602
7.51839 -9.34996 -5.94151
3.56527 -8.4733 -4.53042
-8.69931 -1.91006 -4.37882
2.22215 -20.14 -9.9382
4.53449 -9.30418 -5.06197
0.402084 13.6641 -6.69191
7.61739 -9.2817 -5.85917
-8.48321 16.1869 -8.85001
-9.19938 -2.43196 -4.58474
15.0208 -11.5995 -9.11998
19.4111 5.55394 -9.65577
-10.3116 -2.553 -5.02443
1.90966 -20.5451 -9.81145
17.25 16.2109 -11.2122
7.59259 -11.2247 -6.39415
20.0653 5.416 -9.78785
14.0503 -11.1238 -8.33342
2.93305 -17.3508 -8.18205
19.3896 5.73698 -9.34181
17.8769 -13.028 -10.2175
9.86799 -2.49255 -4.70287
20.3208 5.15054 -9.67238
17.3766 16.3408 -10.9923
1.80945 -20.2058 -9.28447
9.68315 -9.05458 -6.07046
-9.20904 -1.67154 -4.26836
9.45482 -3.46933 -4.58713
6.72137 -11.3305 -5.99212
9.91533 -2.61902 -4.65189
19.2825 5.87986 -9.07601
17.7679 17.6245 -11.2513
9.3708 -3.08689 -4.44115
15.4565 -11.8936 -8.75195
7.04582 -11.5761 -6.06133
7.15875 -10.9279 -5.82296
9.56122 -3.40548 -4.52315
-9.9974 16.3842 -8.5441
17.6858 -12.9073 -9.72923
19.5697 5.63753 -9.027
16.1327 7.31759 -7.84492
17.8768 18.0571 -11.2383
16.4541 -12.2371 -9.03755
-11.2406 17.0916 -8.99045
-6.55768 14.9834 -7.17017
-5.23295 4.90793 -3.12546
20.1698 5.47646 -9.08665
9.56013 -3.40574 -4.38001
18.2739 18.5221 -11.1841
15.8485 -12.1962 -8.60509
14.8883 7.44418 -7.10455
3.84079 -9.30731 -4.27781
-11.1659 16.9808 -8.60268
6.95118 -10.917 -5.45718
-13.5773 3.3274 -5.88939
0.743346 -22.358 -9.42728
15.8314 -11.9868 -8.30428
-5.16134 5.68307 -3.21145
0.99828 -22.2191 -9.3236
1.23248 -20.7761 -8.71909
14.1953 7.61346 -6.73788
18.6091 19.3937 -11.231
3.78448 -8.95879 -4.05563
14.8005 7.74507 -6.9538
17.9746 19.1978 -10.9148
-9.51102 -1.09161 -3.95177
4.00831 -8.50448 -3.85201
14.0622 7.76486 -6.59482
6.85061 -10.9974 -5.29702
-13.6175 2.54378 -5.66681
-7.96612 15.4306 -7.05586
19.321 20.995 -11.5601
15.1033 7.25719 -6.75181
-5.27754 14.409 -6.1516
13.9742 -11.0479 -6.97718
1.53351 19.2899 -7.51635
-8.75004 15.8014 -7.0181
19.0284 5.80305 -7.70837
-1.75498 13.2824 -5.18899
5.29939 -9.40046 -4.16158
-2.38596 13.4976 -5.26416
19.6584 22.7417 -11.5275
4.6626 -8.51919 -3.68821
19.4565 5.58171 -7.70269
0.875075 -26.4463 -10.0563
14.9296 -11.5047 -7.09311
20.0174 5.42313 -7.76236
9.44547 -3.44136 -3.75863
0.532487 -22.6109 -8.42899
3.25191 -10.8054 -4.21557
20.2638 23.5759 -11.5458
0.909379 -8.71864 -3.2509
14.0487 -11.1258 -6.60789
20.427 5.1954 -7.75003
17.9389 17.7262 -9.21698
-13.0333 2.2833 -4.81044
20.9231 24.9864 -11.821
2.28953 -13.271 -4.85152
13.0527 -10.5555 -6.04042
0.795475 15.4617 -5.54017
-8.1994 -2.79808 -3.09879
0.409776 -21.7989 -7.79409
-4.22074 13.8478 -5.14856
0.637996 -21.8917 -7.78313
15.8842 -11.9967 -7.05505
-15.7466 18.2036 -8.48179
5.93313 -11.3469 -4.5021
-11.0351 16.6518 -6.97637
0.0940909 -18.4794 -6.4962
14.2861 -11.3219 -6.37374
20.382 5.36784 -7.35715
0.657167 -23.0022 -7.94734
-5.0199 14.5691 -5.27903
3.64088 -8.45193 -3.16782
4.87931 -9.03812 -3.51965
-14.5196 18.0255 -7.92191
2.27641 -10.8919 -3.81322
-8.89679 16.1377 -6.28074
3.03341 -13.7228 -4.79131
-14.9953 18.4043 -8.04725
20.1999 5.49209 -7.03632
22.1421 27.3919 -11.7729
36.2045 -20.4375 -13.893
-5.31249 14.0879 -4.99977
1.91822 20.8091 -6.93489
1.26757 -10.2483 -3.41436
-5.26039 14.4815 -5.00349
-12.6017 17.2511 -6.92967
18.6036 -13.2568 -7.41813
3.56054 -8.67423 -3.00631
6.2253 -10.1217 -3.80814
2.31431 -11.0107 -3.58046
-4.54686 -34.1654 -10.9554
-1.13504 -23.8022 -7.58557
15.0542 10.3681 -5.76927
-13.2253 17.5979 -6.9574
-18.0063 19.421 -8.32471
6.97013 -11.1079 -4.05417
1.38461 -21.8739 -6.78029
-2.56848 -27.3686 -8.43824
7.21949 33.3515 -10.4147
0.770693 15.054 -4.57908
-11.1456 16.8159 -6.0799
-2.69386 -26.4597 -8.01012
-14.359 17.9526 -6.85867
-5.28717 -34.679 -10.4455
0.83716 -24.9965 -7.47849
-5.39899 14.8467 -4.69853
2.08559 20.7682 -6.15062
-21.2902 19.8511 -8.58762
18.2483 5.80705 -5.6371
-4.30243 14.4468 -4.4315
-7.93546 15.3939 -5.08044
4.25884 -9.14973 -2.96625
4.64226 -11.6314 -3.66178
-12.6131 2.22196 -3.68079
-32.8807 -46.5765 -16.4062
-15.2099 18.2971 -6.83929
6.96828 -11.0983 -3.7726
2.56485 -9.54959 -2.80949
12.9542 -10.4855 -4.74274
-8.44894 -2.4589 -2.49507
21.1669 27.2993 -9.78819
-8.57616 -2.26036 -2.50613
-2.54535 -25.9814 -7.32671
-13.0194 1.99506 -3.66787
4.39399 -11.3449 -3.37661
-9.31746 16.0228 -5.08795
-13.0684 17.4286 -5.98275
-5.39824 14.405 -4.20392
-8.48279 -41.2015 -11.51
-21.4765 20.0413 -7.89653
-9.73787 16.1467 -5.05257
-26.7141 20.5211 -8.96134
11.4645 11.5389 -4.29258
4.33318 -11.3115 -3.20881
47.3029 -13.751 -13.0496
-8.1699 -38.5587 -10.3607
4.09252 -8.66383 -2.52294
11.1875 -9.95075 -3.91674
-14.4582 18.1026 -6.02367
6.54337 -10.4347 -3.18783
3.18045 -9.65312 -2.62743
-30.0261 -43.9768 -13.7509
-4.34653 -28.5132 -7.46311
3.54493 -10.3832 -2.82897
4.07164 -9.39502 -2.63175
15.639 -11.7595 -4.99239
-7.15763 15.2476 -4.26278
-31.4636 -41.9608 -13.3001
4.31765 -11.1591 -3.02821
4.2576 -7.70906 -2.24133
6.54497 -10.6759 -3.12289
44.9729 -13.5972 -11.7138
-28.2568 21.3185 -8.75082
-11.5342 16.9452 -5.05276
-27.5395 -40.1747 -11.9765
-9.86156 -38.8181 -9.88002
-24.4727 20.555 -7.85358
4.35387 -10.3409 -2.75663
-12.0674 17.2847 -5.11073
-7.84796 15.29 -4.14184
10.2879 -9.27973 -3.31734
40.4142 -13.4246 -10.1903
15.1483 7.5759 -4.03252
-6.29317 -36.0455 -8.717
3.96767 -9.09201 -2.35055
47.1707 -12.6248 -11.5892
-12.108 -44.5845 -10.9451
4.20562 -8.9987 -2.36955
3.86591 -11.0879 -2.76732
4.91201 -8.69967 -2.35027
-12.7808 17.4168 -5.02711
11.0227 -9.65973 -3.34975
-6.17618 -31.3234 -7.28526
-27.1347 20.9574 -7.77165
41.653 -9.1093 -9.67569
-30.4646 22.1188 -8.44046
-35.3842 -23.1882 -9.47936
40.8473 -12.6272 -9.59931
5.45901 -9.48189 -2.44274
-12.4014 2.82972 -2.79097
40.7215 -11.9334 -9.37533
42.71 -12.1864 -9.77129
-5.37774 14.1081 -3.3006
13.4146 -10.7945 -3.78991
38.1668 -12.2655 -8.81299
-23.3712 20.3692 -6.72441
-29.3255 -72.301 -16.9309
4.31308 -9.70763 -2.30351
4.54242 -9.18694 -2.21362
-14.5741 18.1575 -4.97188
-30.8943 22.441 -8.15333
-31.7687 22.5451 -8.32713
-27.9378 -74.1244 -16.9806
-10.6858 16.697 -4.20295
-8.41515 -35.7244 -7.80517
3.19301 -9.69341 -2.17623
3.97009 -9.83887 -2.2621
45.9322 -10.6494 -10.0648
14.9803 7.50346 -3.55232
-15.1476 18.6465 -5.08598
5.16761 -9.06118 -2.1915
26.7764 38.7424 -9.84278
15.0215 7.86152 -3.52032
-30.1107 -23.2546 -7.89248
-32.6816 -83.7982 -18.6226
-11.4414 16.8573 -4.13969
-15.6099 18.4558 -4.92061
-35.1083 23.5673 -8.59221
44.5573 -9.71894 -9.29985
-13.1984 -42.4695 -9.0394
4.13912 -9.74192 -2.15349
11.6204 -9.65972 -3.07443
-11.9876 17.2027 -4.18514
-19.8065 -56.846 -12.0315
-12.9277 -40.16 -8.3533
4.07306 -9.92923 -2.12484
-34.0638 -23.2925 -8.13507
-26.69 20.9474 -6.67747
-33.0987 -23.676 -7.93289
-6.88132 15.2049 -3.23898
-26.422 -62.0841 -13.1065
-33.5104 -22.3089 -7.75792
3.43826 -9.36889 -1.92707
46.0102 -10.6603 -9.0689
-12.7318 17.3828 -4.11867
3.99208 -9.35177 -1.94043
-36.3853 -22.1015 -8.0589
-21.2269 -34.4826 -7.70119
-15.519 -44.779 -8.96776
38.0023 -12.5361 -7.56459
-35.8596 24.0843 -8.08406
-33.6412 -23.2333 -7.68058
-32.5957 -23.8483 -7.58168
-21.2136 -52.5554 -10.6647
-16.8166 -45.6791 -9.02965
3.82225 -9.21169 -1.84211
42.6991 -11.5082 -8.21186
5.76303 -9.72189 -2.07123
-24.4017 -55.332 -11.0722
-20.3604 -50.5369 -9.85501
-14.536 18.1194 -4.11868
-31.0505 -25.0429 -7.09089
-20.2702 -27.0107 -6.03924
-39.2547 24.7702 -8.18957
-26.6976 20.9627 -5.90791
-33.993 23.2612 -7.15162
3.91293 -10.0586 -1.87144
4.77481 -8.61792 -1.71217
14.0339 7.53663 -2.74771
14.1094 8.09664 -2.78641
-30.7466 22.3584 -6.51717
42.377 -11.9894 -7.4976
42.1688 -10.9214 -7.41518
-31.2078 -24.7849 -6.76065
-21.0178 20.0167 -4.87374
-20.2952 -50.4463 -9.18813
14.8927 7.46424 -2.79411
-31.6143 22.3811 -6.47019
-23.4397 -55.8849 -10.0143
43.712 -11.7757 -7.35802
-10.3286 16.397 -3.12689
-20.5762 -51.0469 -8.77842
-34.8281 -24.0421 -6.66894
-22.7216 19.9628 -4.73595
-24.115 20.5861 -4.91401
-39.96 24.1945 -7.23874
-11.1954 16.7559 -3.11068
3.47502 -9.53696 -1.56979
3.87354 -10.2432 -1.69559
-7.59593 15.4062 -2.62327
-30.9728 22.5429 -5.85583
-31.7068 -24.4894 -6.09226
-27.8985 -26.0959 -5.78739
42.3606 -11.0125 -6.65272
45.0268 -9.80979 -7.02058
-6.52075 14.5236 -2.3817
9.83985 -5.15781 -1.64894
-33.4308 -24.1121 -6.13848
-26.281 -66.4524 -10.599
10.2074 -9.17761 -2.04561
45.1709 -10.4498 -6.88522
-36.5777 -24.3493 -6.46712
-31.4544 -25.9449 -5.9647
-12.6207 -41.818 -6.42747
16.9559 -12.2675 -3.06551
-25.3191 20.846 -4.7661
-24.5799 -55.0744 -8.69117
-7.59419 15.2101 -2.43062
-12.6785 17.2865 -3.05625
6.04467 -11.5483 -1.86251
-13.3754 17.8774 -3.13608
-34.5855 23.3632 -5.86786
6.76951 -11.0577 -1.81208
37.7208 -12.4486 -5.58662
-31.0969 -24.9179 -5.56157
-32.892 23.6379 -5.61115
-20.4948 -49.3964 -7.38688
45.3233 -10.1394 -6.40405
-6.8452 15.1382 -2.27005
-22.5022 -58.7282 -8.54406
7.75999 -9.39098 -1.63486
-13.9667 17.8333 -3.0534
13.2409 -10.5607 -2.29162
-22.1619 20.159 -4.02847
42.2839 -10.9326 -5.79805
45.0447 -9.86667 -6.10334
-22.5444 19.8393 -3.92688
-32.6277 -24.4148 -5.32293
-14.8551 18.1907 -3.03654
-33.9141 22.6359 -5.29363
-38.2662 -16.1575 -5.36332
7.02584 -10.4489 -1.6155
10.7991 8.84163 -1.79241
-33.7429 -23.2533 -5.24435
-31.3333 22.874 -4.90737
-35.5137 -22.1609 -5.24708
42.1441 -10.8992 -5.44745
6.80478 -10.381 -1.55099
-7.62826 15.2578 -2.1119
-24.9418 20.9431 -3.98799
-33.2789 23.454 -5.02217
6.30616 -12.0944 -1.66159
44.9959 -9.59983 -5.63521
15.0375 7.87833 -2.04129
-17.8883 -43.3251 -5.65232
7.09609 -10.5464 -1.53049
-20.4975 9.08423 -2.65372
-14.2556 -43.1232 -5.34074
-31.7915 -24.5107 -4.69408
-31.2778 -25.0143 -4.68683
42.2298 -11.3121 -5.13818
11.2482 -9.68677 -1.71978
-29.7815 22.5817 -4.30003
6.65163 -10.8379 -1.45576
7.49676 -9.22989 -1.36016
11.6017 -9.73939 -1.72047
9.45685 -4.6135 -1.19158
15.0154 7.71603 -1.90282
-10.3161 16.4229 -2.18861
-32.0714 23.4348 -4.44993
39.0348 -12.8498 -4.60842
9.36826 -9.03418 -1.43985
-11.0312 16.5445 -2.16152
6.80693 -12.8152 -1.57179
45.1391 -9.81036 -5.00758
10.7979 8.87332 -1.50653
16.8118 -12.4883 -2.24765
42.4275 -11.0039 -4.6965
9.63104 -8.9899 -1.39581
8.38762 -8.47285 -1.24898
-30.8439 -24.6823 -4.11361
-29.9757 -60.1254 -7.00893
15.0119 7.52869 -1.71603
-31.7334 -24.4685 -4.11155
-12.8162 17.4711 -2.20005
-12.7364 17.0637 -2.1164
10.221 -9.10002 -1.34064
-20.7325 -52.653 -5.54805
6.32879 -12.1199 -1.32331
16.68 -12.2034 -1.9866
42.3166 -11.3711 -4.20005
-30.4966 -61.6454 -6.5383
-20.693 -54.3049 -5.51935
-23.2393 20.3271 -2.8864
45.8491 -10.1997 -4.387
9.72868 -8.99832 -1.22676
39.8737 -13.1534 -3.91243
-14.9721 18.3533 -2.14499
-29.6516 -13.5191 -2.97066
-32.0917 -62.5602 -6.4812
15.8917 -11.8947 -1.80571
8.64555 -8.73665 -1.11303
12.9139 -10.6598 -1.45815
45.4334 -10.5307 -3.9951
9.41338 -9.03903 -1.09705
10.9676 -9.65832 -1.22838
-34.0248 23.3665 -3.43498
16.8809 -12.3102 -1.73045
-16.8464 -43.8376 -3.76177
14.7121 -11.5039 -1.48924
-11.6908 -32.7288 -2.74331
-29.712 22.5918 -2.88674
-32.9664 23.3019 -3.11675
-22.5859 -51.5923 -4.34816
-50.8812 27.6918 -4.38698
-21.3193 20.0648 -2.1298
-33.1918 23.4777 -2.94669
16.4162 -12.2662 -1.49909
42.3451 -11.3317 -3.19351
-38.9514 -73.6997 -6.01603
14.0015 -11.078 -1.27774
-15.4824 -41.0707 -3.02955
10.7817 -9.62876 -0.990395
-23.262 20.3681 -2.08837
12.8924 -10.6382 -1.1189
17.9969 -13.053 -1.48214
16.0773 -12.1606 -1.33129
-14.5965 -40.4703 -2.78311
44.1241 -11.4757 -2.84973
-31.603 -64.0329 -4.35762
35.9832 -8.72958 -2.27234
43.2817 -9.9065 -2.72578
6.06401 -13.1081 -0.863237
31.0439 -20.5417 -2.22739
-9.80018 16.36 -1.12116
-15.4896 -40.406 -2.46412
16.6483 -12.4421 -1.16695
-9.67738 -12.5452 -0.868313
15.0039 7.69755 -0.911903
13.9278 -11.0253 -0.951215
-12.7392 17.2636 -1.12077
-16.3912 -40.6268 -2.3267
14.8982 7.83394 -0.825114
-16.2138 -41.4445 -2.18367
-14.1002 17.872 -1.08878
9.57728 -9.03394 -0.603875
-23.8148 -54.6283 -2.69665
12.4718 -10.2529 -0.74851
-15.9126 -44.358 -2.09232
-17.1219 -42.1849 -1.94917
6.87026 -12.6861 -0.64007
-13.8343 -42.1716 -1.89061
-52.2728 28.4279 -2.41087
18.3837 -13.2074 -0.918645
16.8409 -12.5178 -0.817205
-41.0111 -79.5989 -3.37808
-18.1131 -47.4985 -1.87226
-33.4951 23.0143 -1.48662
42.827 -11.035 -1.59243
-34.1529 -67.936 -2.54395
-25.6725 -56.2613 -2.08217
20.2635 23.4358 -1.02889
-21.362 20.0183 -0.954039
8.13808 -14.3632 -0.554458
9.43312 -9.00538 -0.422763
11.3166 -9.96268 -0.490102
18.6396 -13.1796 -0.750244
34.9777 -13.1924 -1.24053
22.0873 26.7366 -1.11221
-27.3413 -13.7142 -0.958848
-22.8158 20.3176 -0.931246
-31.5665 22.357 -1.20743
-24.7796 -56.969 -1.92411
-13.7381 -38.8649 -1.26973
-21.3429 -54.443 -1.77058
-16.5157 -44.761 -1.36691
-33.9481 -20.5835 -1.05748
11.4659 -9.727 -0.40281
16.3748 -12.1794 -0.537975
-40.8484 25.2703 -1.267
-30.1595 22.9486 -0.937791
-30.6798 22.4846 -0.899439
9.57968 -9.01819 -0.304797
-41.1882 14.2357 -0.963407
-31.2247 -52.2864 -1.37164
21.3296 -14.2653 -0.564026
30.6256 -18.5705 -0.808324
14.2537 3.93915 -0.301695
27.7196 48.4393 -1.02622
23.6078 -10.9907 -0.458597
47.4123 -10.9176 -0.904906
-30.5707 -21.9692 -0.68651
-29.502 -28.9768 -0.655742
-18.8664 -46.2936 -0.832473
12.7422 -10.4783 -0.271435
18.5693 -13.4181 -0.350113
-29.225 -12.9898 -0.419922
-32.7499 -24.5092 -0.569177
-33.051 -66.6283 -1.00411
-27.4977 -58.524 -0.886038
-33.8498 -23.1176 -0.53521
-30.1776 22.9588 -0.446603
17.0382 -12.7238 -0.25249
29.4348 -18.2511 -0.407517
-30.6392 22.4936 -0.423386
-18.9823 -43.5349 -0.508143
-11.9642 -36.0112 -0.382154
-33.136 -58.385 -0.618494
-14.2689 18.0999 -0.176992
-26.6718 -13.4471 -0.241212
-14.9572 18.2327 -0.161373
-22.4778 20.0747 -0.155242
-20.924 19.626 -0.130649
-10.5502 -13.5632 -0.060347
14.7656 7.75674 -0.0201744
11.1245 -9.7821 -0.00779448
-34.4213 -18.8533 0.0598564
-11.2946 -33.5677 0.115334
16.9969 -12.3488 0.0912119
-18.7073 -42.9485 0.208265
18.8297 -13.267 0.122379
7.19068 -12.3607 0.104356
26.0874 -10.7031 0.173516
-55.0788 19.667 0.557481
16.2858 -12.0695 0.19357
37.6184 -7.68032 0.362432
-29.039 -8.18833 0.352878
-36.1968 -21.8477 0.466289
-11.288 -32.3416 0.367474
-12.6584 -35.0772 0.444038
-10.2478 -31.4996 0.397506
6.34557 -12.9705 0.184327
7.22496 -11.1306 0.174483
-28.0783 22.0407 0.546441
11.3303 -9.89524 0.226176
-24.0355 20.5547 0.521898
10.9162 -9.7469 0.229702
12.9954 -10.6983 0.265223
36.559 -7.82419 0.622157
-34.4758 -23.0982 0.754846
-31.1167 22.2487 0.75098
6.15735 -12.8648 0.276747
7.03283 -11.0677 0.252636
8.03529 -9.42891 0.241925
27.8622 57.2914 1.38555
7.73753 -9.45419 0.276209
10.1425 -9.18653 0.330155
-28.7758 -9.22723 0.727878
-23.2339 20.2797 0.834306
-27.4837 21.6709 0.939247
-28.9047 -8.67906 0.795239
9.20033 -8.90576 0.345909
9.63601 -8.95598 0.358606
-25.4987 21.4906 0.905965
25.4393 -5.14643 0.722726
13.0051 -10.6689 0.50112
14.8943 24.264 0.878379
6.20404 -12.7987 0.447562
7.47006 -11.6447 0.434152
-28.4333 -8.01906 0.969271
-12.5961 -19.2861 0.758948
-28.1176 -8.78811 1.0185
16.1522 11.0554 0.707437
-29.7837 -18.4558 1.22472
15.8603 27.5507 1.13452
-30.403 -16.5839 1.28335
23.5877 -4.25936 0.86607
-27.7935 -19.7672 1.26381
-7.29603 -7.95516 0.407358
9.06126 -8.8361 0.470467
12.4636 13.634 0.71227
26.3196 54.2955 2.2852
25.1671 53.5834 2.22926
-11.5545 -9.14588 0.581058
8.73201 -8.67766 0.486993
-25.5881 21.0785 1.34574
21.8789 -2.96521 0.894573
-28.7635 -17.471 1.37868
9.4247 -8.93648 0.532525
12.4905 14.3855 0.819686
6.58973 -12.4796 0.599271
14.9095 19.3726 1.07475
20.8856 28.8487 1.55989
-9.49045 -13.7992 0.736146
-9.97383 -15.5986 0.821896
7.60811 -10.9654 0.588007
8.63267 -8.72222 0.554576
24.2385 -3.71315 1.10725
-29.832 -8.69345 1.41829
6.75152 -11.0994 0.597736
-8.27433 -8.1429 0.546355
21.5021 43.3829 2.31661
-28.5259 -17.6301 1.58515
-9.76393 -13.6957 0.800574
9.67105 -8.97307 0.62137
15.6172 43.3993 2.2328
-30.2227 -13.3865 1.57768
-6.76372 -8.24595 0.524797
14.6405 34.047 1.8912
-29.715 -11.6364 1.60147
-7.59404 -6.98295 0.521482
-6.70127 -7.59659 0.512453
16.203 29.3517 1.74095
10.562 12.3504 0.878279
14.2608 19.4066 1.29313
9.35438 -8.93447 0.693082
14.8501 19.322 1.34564
15.3273 23.673 1.55297
-27.4499 19.3276 1.84002
-6.97441 -8.1964 0.596828
-26.3783 20.2401 1.84843
6.10605 -12.8925 0.798114
-7.10732 -9.15943 0.66116
9.96861 12.4515 0.938115
14.9554 25.1981 1.71197
6.4748 -13.0042 0.835996
13.8744 22.6357 1.56828
-8.26123 -8.12045 0.697969
11.546 11.6257 0.977146
14.6997 19.5508 1.4697
-7.39873 -10.0157 0.774442
7.0171 -11.1823 0.804523
11.2726 -9.7233 0.902496
5.8725 -10.7653 0.760934
-7.19726 -6.65248 0.612443
14.5048 20.5761 1.59297
16.1557 7.17132 1.14774
-7.03931 -6.15028 0.613374
6.47623 -13.4736 0.996223
9.41865 21.2752 1.56969
10.4247 12.565 1.1162
13.5674 18.2436 1.58585
12.4166 20.5867 1.66366
11.3527 11.9925 1.15918
6.60158 -9.84527 0.839425
11.5007 11.7665 1.19079
9.80732 -6.92302 0.854198
12.3646 11.97 1.26401
9.9286 -8.3846 0.952023
-6.1569 6.67288 0.67776
10.4328 9.18641 1.04429
11.9313 17.8393 1.61489
11.4841 18.2964 1.62779
-6.94827 -7.70173 0.804355
10.8626 18.7488 1.66266
9.51664 -8.95994 1.01014
-6.41839 -4.30077 0.609341
9.19293 18.4179 1.64508
10.0814 -6.89866 0.978144
12.4577 11.5584 1.37383
9.75235 18.9352 1.71518
-7.26749 -9.63969 0.983355
6.71866 -9.38147 0.938975
12.2449 11.7139 1.38859
12.1493 11.9484 1.41512
11.4245 11.9412 1.36826
-5.053 -11.5328 1.05922
10.3153 12.9059 1.4059
-6.96357 -6.08505 0.79654
-6.82003 -6.69885 0.807503
-5.21411 -11.4358 1.06888
-7.30394 -7.75041 0.917129
9.28433 -7.25581 1.01808
-7.12419 -8.06178 0.941539
-7.02036 -7.69416 0.916033
9.39104 12.5352 1.38874
-6.95568 -8.37641 0.972747
10.8127 9.07256 1.28646
10.4655 13.479 1.54192
10.5216 9.24072 1.28198
7.72266 14.0185 1.47228
-6.5018 -8.14036 0.954585
-6.90663 -9.02322 1.04883
11.1975 10.7996 1.43553
11.2468 9.17628 1.35841
10.8674 10.802 1.43646
6.49301 15.0047 1.5365
-11.4307 2.92837 1.10653
-6.36362 -4.17242 0.712896
-6.80878 -6.29673 0.860033
9.43464 13.3057 1.57363
-6.02841 6.55047 0.87654
7.96017 -6.60902 1.00836
7.93474 13.2305 1.53261
-7.07194 -7.6211 1.04743
9.30798 11.6386 1.50331
7.01057 12.4477 1.45003
7.06771 13.0209 1.51054
9.53153 9.09093 1.36327
5.86918 13.9917 1.57284
9.14261 12.4347 1.60928
-6.10907 -4.45811 0.792709
5.96755 13.7125 1.57546
6.22814 13.6425 1.57687
-6.97211 -4.42881 0.883473
8.76599 9.01658 1.34079
9.13575 10.1775 1.48754
7.33118 11.0081 1.43752
5.83056 11.4843 1.40047
-6.30184 -7.41348 1.06354
10.2627 6.44988 1.34124
8.98885 8.1357 1.33658
7.3155 11.6936 1.52324
6.85027 11.6429 1.49369
5.36337 11.91 1.45348
4.87603 12.1206 1.46188
4.7133 13.7074 1.59492
9.86261 7.05183 1.35392
8.75692 9.30856 1.42824
5.3879 11.5286 1.43323
-6.84368 -6.72565 1.06801
6.86979 10.7228 1.43473
4.32751 13.2017 1.57045
9.75324 -3.19605 1.14442
-6.10585 -5.41553 0.944912
7.28874 -6.11956 1.08035
10.4097 5.7116 1.36194
-7.38037 -0.985673 0.853219
-6.25883 -5.35737 0.948321
5.24438 -5.55278 0.879986
5.07407 11.6386 1.47513
-6.88432 -4.56005 0.956907
4.45103 -7.25782 0.984633
10.4021 5.1459 1.36197
8.88079 7.88217 1.39406
-6.0035 -4.36927 0.865359
-6.48729 -5.27466 0.987752
4.0902 -7.86248 1.05401
4.96331 -5.84633 0.92011
10.1613 4.75129 1.34479
8.51578 8.26913 1.43788
5.28114 11.5055 1.54558
9.04039 6.26279 1.34666
8.00903 8.33516 1.44818
-6.49141 -5.74819 1.0794
3.70442 -7.56873 1.05542
8.6718 6.68634 1.37711
-6.46946 -5.34577 1.06217
9.0858 6.00981 1.39092
8.17998 7.13759 1.38523
8.11099 7.50462 1.41107
5.77398 -5.34269 1.00999
-6.97353 -4.44414 1.06148
8.09912 7.99661 1.47642
-7.35679 -1.0423 0.960047
-6.92414 -2.82682 0.97674
8.97129 4.0991 1.29182
8.39887 6.62608 1.40451
4.99553 -6.02459 1.02877
4.91367 -6.18903 1.04646
6.86806 -4.28136 1.07733
-7.13363 -1.71833 0.983711
-7.01027 -2.22021 0.983148
-6.02723 -4.42371 0.999545
8.13224 6.65616 1.42482
8.60621 4.43771 1.32029
8.62764 5.16481 1.37357
8.02582 7.13588 1.46192
-6.80968 -3.73419 1.05457
8.85759 4.15775 1.33948
8.26196 5.83132 1.38496
-6.3996 -4.33016 1.05736
-5.95933 -4.5265 1.02206
5.36109 9.03429 1.45121
3.64504 10.0842 1.48935
-7.36704 -1.09287 1.03142
-6.90531 -3.9277 1.10252
4.94613 -5.54047 1.02646
5.22568 -5.39563 1.04254
7.46268 -3.5366 1.15494
3.38947 10.1654 1.50174
8.39915 4.59689 1.35457
7.37421 -3.67774 1.16903
7.58628 -3.33459 1.18148
7.76118 -3.30541 1.19703
8.93528 2.81348 1.34845
4.83095 -5.63213 1.06661
7.353 -2.85279 1.1483
-6.95924 -3.30051 1.12272
7.91761 -2.77943 1.2235
8.66414 -1.81997 1.2996
5.01163 8.58066 1.46701
2.95614 9.44928 1.47323
7.73189 -1.88786 1.17305
7.22894 5.7571 1.37705
3.45919 9.5699 1.50446
3.19023 9.80789 1.52882
-7.3693 -1.04324 1.1036
-7.07439 -2.02304 1.09662
6.94752 6.28923 1.41502
-6.26363 -2.27186 0.99996
-7.23942 -1.37516 1.11242
7.93842 4.81718 1.41478
5.71196 7.36027 1.41378
5.29581 7.63592 1.41448
5.0603 8.01931 1.43382
6.75869 -3.2253 1.13259
7.24563 -3.12443 1.20842
7.63559 -2.75532 1.23705
-7.31549 -0.732841 1.12281
-7.09699 -1.9544 1.13621
6.78833 -3.09251 1.15365
3.74842 -5.78445 1.06589
-7.05284 -2.07593 1.15268
-7.34507 -1.09275 1.16609
7.36091 4.77447 1.38586
-7.19775 -1.44335 1.16803
-7.2706 -1.30093 1.18516
-7.09717 -2.01894 1.19999
7.06963 4.76311 1.39166
-7.1008 -1.94535 1.2095
7.00934 4.86491 1.41736
6.61532 4.85224 1.36924
5.20869 6.24606 1.35502
4.67604 7.17662 1.43075
3.82529 7.93973 1.46518
-7.24836 -1.37335 1.2316
2.79061 -5.77325 1.081
7.14168 4.42845 1.41577
6.51383 5.23856 1.41033
3.87242 -5.3636 1.11541
3.93544 -5.01946 1.07979
-7.27139 -1.25227 1.25173
-6.59839 -2.62527 1.20493
7.41566 2.84749 1.34741
7.02956 3.89096 1.36932
-6.41452 -2.7531 1.18769
6.77416 4.0984 1.35933
5.68229 -3.51954 1.15049
-7.39502 -1.03946 1.2915
-6.35699 -2.28047 1.16116
5.53502 -3.64775 1.14268
5.31855 -3.77375 1.14313
3.59884 7.16633 1.41087
-6.79907 -1.73506 1.23239
4.47926 -4.4667 1.11329
-7.09124 -0.914521 1.27377
4.72464 -4.45725 1.1495
4.33075 6.49618 1.39337
6.58544 3.47356 1.3447
6.62506 3.68221 1.36177
-6.44105 -1.50048 1.18957
3.60758 -5.3245 1.17002
5.07891 5.61427 1.38639
-6.15537 -2.18335 1.19705
3.41175 -5.15653 1.14993
3.3895 6.775 1.41754
-1.69833 -5.78373 1.14498
6.44387 2.73157 1.33203
-2.14383 -5.72903 1.17591
6.30816 2.79562 1.32849
-2.78816 -5.3777 1.18701
-3.52222 5.3485 1.38747
4.47116 3.89389 1.35334
4.15065 -2.87843 1.17699
4.62865 -2.1863 1.23699
4.19976 3.29199 1.322
3.70685 -2.92982 1.22377
4.01835 2.57465 1.33346
-1.44439 -4.12084 1.22255
-2.32255 -3.58182 1.2131
3.86001 2.36442 1.31162
-2.86076 3.52548 1.36113
-2.48225 -2.91829 1.19
-2.37969 -2.93947 1.19494
1.84089 -2.80874 1.18091
1.86392 -2.78707 1.21094
1.99001 -2.52399 1.19737
-2.04308 2.80624 1.32
2.80291 -0.555501 1.25894
2.7823 -0.336726 1.2407
-2.0907 -1.62017 1.21348
-2.07839 -1.45213 1.23853
-1.86362 -1.79711 1.28402
-1.9959 -1.13204 1.20494
-1.98738 -1.07095 1.23177
-1.94713 -0.880815 1.23197
-1.93144 -0.708753 1.22223
-1.9303 -0.701842 1.24944
-1.9066 -0.469907 1.22223
-1.87196 -0.345871 1.21942
-1.85684 -0.401363 1.22616
2.37754 -19.6831 -10.0044
-7.59836 -8.97084 0.464856
8.02626 -8.80852 -10.4779
8.27206 -8.63795 -10.5137
8.2235 -8.29832 -9.89542
6.96535 -11.9695 -11.4216
8.52583 -8.98359 -9.75214
7.85829 -8.94621 -9.14449
5.85613 -12.8109 -10.7396
9.43879 -8.84495 -9.75663
6.15423 -14.109 -11.5876
8.29635 -8.68848 -9.03215
8.02669 -9.17907 -9.11837
7.29955 -9.25527 -8.78209
5.91675 -14.1675 -11.2019
7.72679 -9.3161 -8.7336
7.86403 -9.12651 -8.67816
7.13591 -10.591 -9.09237
6.82724 -11.0843 -9.22877
10.0669 -9.2053 -9.58051
6.5463 -11.1867 -8.87328
8.04147 -8.63683 -7.85824
7.36823 -9.29043 -7.8799
8.52534 -8.69077 -8.0922
7.72905 -9.48351 -8.03741
6.49475 -12.7889 -9.36618
7.94197 -9.19081 -7.92235
5.00602 -16.0492 -10.813
-0.474682 13.9323 -8.91393
7.73588 -9.25423 -7.73456
7.34382 -10.8762 -8.35584
8.38699 -8.57547 -7.64196
10.8908 -9.63432 -9.22294
8.99956 -8.82876 -7.90675
11.7838 -10.0486 -9.70555
8.08164 -8.54527 -7.23601
4.04333 -16.8497 -10.6201
4.25276 -15.3898 -9.80364
7.8534 -9.36947 -7.32658
3.95478 -15.6364 -9.61777
11.4969 -9.84256 -9.06447
6.87184 -11.0892 -7.74637
7.77901 -8.8273 -6.96995
5.49356 -14.0124 -8.89248
6.49583 -12.7205 -8.35885
8.37093 -8.60359 -6.99547
9.70029 -9.09282 -7.75263
2.79329 -11.8059 -6.954
5.48719 -13.919 -8.47122
9.60746 -9.1174 -7.48738
6.6248 -11.0818 -7.26974
3.3484 -20.6981 -11.7509
8.88931 -8.94968 -7.07127
