ply
format ascii 1.0 
element vertex 1872
comment /media/mkaihara/Seagate Backup Plus Drive/model_iterations/model_48.ply
property float32 x 
property float32 y 
property float32 z 
end_header 
21.0702 -14.3686 -0.775112
-27.4957 -14.1495 -0.937637
-12.8457 -41.1111 -1.28071
-23.9205 20.3253 -0.901883
-23.3532 -53.7449 -1.667
-17.3168 -46.8675 -1.44142
22.5953 -10.1684 -0.747707
-34.2501 -20.8686 -1.10962
-9.76523 -12.8119 -0.460226
-22.5696 -53.2253 -1.63195
18.0557 -13.4511 -0.572985
30.8265 51.4436 -1.55452
-29.8506 22.7757 -0.965673
-31.0022 22.6758 -0.950296
-27.1166 -13.0293 -0.737523
9.56571 -9.00174 -0.317878
-20.6947 -33.333 -0.914956
-39.9593 13.8609 -0.925177
21.2702 -14.2321 -0.543195
-52.77 19.0325 -1.03596
18.4664 -13.3134 -0.426942
12.8216 -10.5333 -0.276351
-7.16597 15.5116 -0.299291
-32.9571 10.4226 -0.571725
-28.1668 -13.4129 -0.494159
-36.8404 -20.9801 -0.644315
-17.9068 -43.8973 -0.733402
-7.8064 16.4172 -0.24713
-32.3406 -24.1593 -0.55992
-33.689 -22.966 -0.522057
-34.177 -69.0565 -0.954621
17.3212 -12.9232 -0.262014
18.2529 -13.142 -0.285022
29.0389 -17.9062 -0.454948
-21.0719 -53.9696 -0.702675
-30.0306 22.8956 -0.40319
-37.3515 -20.8794 -0.472792
-27.3264 -58.3092 -0.685442
-18.4229 -42.2553 -0.493348
-52.7431 28.9049 -0.501059
-33.2078 -58.5801 -0.620336
-19.7483 -51.7927 -0.526325
37.6433 -9.09423 -0.355655
-14.2024 18.0265 -0.16151
-34.5389 -76.9151 -0.576658
-17.7198 -42.979 -0.316417
9.57352 -9.00841 -0.0408691
13.0399 14.9241 -0.040774
14.8151 7.79914 -0.0285268
-29.2804 -13.062 -0.0582652
-11.6419 -16.9502 0.024964
-12.827 -19.3067 0.0440668
-18.4838 -42.4292 0.191259
9.43913 -8.98682 0.0594668
-32.5383 23.0274 0.206647
-21.4546 -54.1634 0.282453
-30.0703 -13.9561 0.198815
16.8457 -12.2912 0.116736
-13.0729 -20.0442 0.156092
14.7136 -11.4614 0.146896
-52.6935 18.8793 0.494762
7.08599 -12.1753 0.118291
16.0031 -11.8586 0.169226
-36.2492 -21.9354 0.444267
38.334 -7.87898 0.407798
-35.1009 -21.9968 0.471666
-12.4598 -34.4136 0.42729
-12.934 -34.7811 0.449789
-11.1148 -32.0058 0.4124
-9.56223 -29.586 0.376429
26.1381 52.9253 0.768689
9.58562 -9.0161 0.170189
-12.7548 -19.7646 0.320228
-10.796 -32.7721 0.472805
8.56376 -8.5074 0.183048
6.28975 -12.8677 0.208595
7.14691 -11.0131 0.200436
9.34123 -9.05568 0.187959
8.02466 -9.10535 0.19414
9.72117 -9.00116 0.218289
37.8084 -8.10046 0.634737
-23.7918 20.4028 0.561035
-33.0475 -22.2343 0.685197
-34.317 -25.1781 0.745263
12.9106 -10.6061 0.273863
13.2215 -10.6641 0.318421
-9.89299 -12.5433 0.301494
6.82405 -11.1839 0.255494
7.98092 -9.37967 0.242204
26.7002 54.9362 1.22409
6.97226 -10.9592 0.261162
9.17324 -8.67957 0.268351
11.5208 -9.90245 0.332987
17.2421 -7.70138 0.380278
7.20629 -10.9336 0.296405
-9.43177 -12.1761 0.389457
-12.7633 -19.5932 0.558567
7.63949 -9.30097 0.274207
7.82333 -9.35588 0.283179
-25.5538 21.4776 0.866656
-28.8499 -9.25159 0.760012
9.61345 -8.94478 0.337861
17.4862 -12.774 0.546111
18.322 -13.193 0.561686
-22.9019 20.0511 0.792664
-27.6362 21.8414 0.919126
-28.8635 -8.66287 0.78867
-33.0325 -17.613 1.01646
-13.323 -20.1184 0.641293
14.7506 -11.4612 0.498554
22.7313 -3.30737 0.646595
-12.1694 -18.9756 0.652109
24.9698 -4.7303 0.739899
16.3779 25.4168 0.90629
-27.9422 -20.5846 1.02679
7.21948 -11.3088 0.402886
6.95852 -10.6859 0.388419
14.7556 24.0372 0.866004
-7.61217 -8.79597 0.355589
13.0198 -10.6535 0.513828
-7.30894 -9.49944 0.366994
-28.4951 -8.04286 0.985065
-11.8677 -17.348 0.703802
7.86226 -9.33883 0.403991
16.1422 11.0286 0.700244
10.8471 -9.44507 0.522593
11.8805 -10.0379 0.566839
22.8865 46.0863 1.93269
-7.44014 -8.12285 0.411606
9.64076 -8.94946 0.491176
22.7999 -3.20115 0.884078
26.8057 55.412 2.38367
-7.4368 -9.87086 0.483303
10.419 -9.50263 0.553271
12.7142 -10.5008 0.66637
21.5526 -2.6415 0.885448
-29.0674 -17.6345 1.38999
8.72868 -8.68947 0.509107
-6.91546 -8.45574 0.469439
9.4264 -8.91714 0.542556
12.674 14.5491 0.852247
-28.8324 -8.46178 1.32023
14.7236 19.1776 1.08674
15.0326 25.8831 1.33388
21.674 42.6204 2.1149
6.16978 -13.7465 0.671884
10.831 -9.50211 0.651741
18.4676 -1.63896 0.848367
19.4604 37.0533 1.96319
14.9741 26.3833 1.42259
-11.1772 2.77234 0.554384
-7.23431 -9.53565 0.577124
9.15673 -8.97489 0.607345
11.3834 -8.73359 0.672016
20.0907 -2.30233 0.974327
11.6281 11.8505 0.824594
16.0914 38.6985 2.06058
7.75001 -9.44561 0.601471
10.1719 -9.26433 0.681437
14.5794 24.7226 1.43737
20.1162 39.0093 2.22809
20.9821 -2.6138 1.07536
-7.39765 -8.49891 0.584469
9.37393 -8.92507 0.674078
16.7047 24.4964 1.55779
16.5121 29.9346 1.78453
12.9915 -10.7084 0.894692
10.5527 12.3362 0.868348
14.2147 19.2953 1.28757
11.0617 -9.59169 0.791812
15.002 19.5463 1.35902
-26.201 20.0847 1.80375
-6.96169 -8.16749 0.593618
10.2484 12.3902 0.900583
-7.25419 -9.36464 0.663373
9.98577 12.4396 0.925251
-27.6539 19.4693 1.92007
6.09918 -12.8811 0.816034
11.1777 12.0834 0.946193
-6.87754 -6.78756 0.560317
11.2674 12.015 0.969993
-6.80258 -8.40582 0.647104
6.24338 -12.5502 0.819101
14.6357 19.4731 1.46493
14.1165 23.0804 1.61411
13.4028 30.9748 2.02572
-6.13032 6.52926 0.549755
-8.16165 -7.73345 0.680002
-7.11135 -8.15798 0.664568
5.71515 -12.4292 0.827292
-7.47637 -6.88335 0.632122
6.99595 -11.1465 0.813827
6.97801 -10.546 0.789349
11.3258 -9.77653 0.924175
12.114 -10.1339 0.978899
16.2076 7.17804 1.12957
14.8822 19.279 1.54105
-7.23316 -6.30371 0.622199
10.2526 -9.36401 0.89624
-7.3744 -6.25613 0.634263
11.4703 12.1036 1.1363
9.53634 21.4684 1.59968
-7.26574 -9.6445 0.806687
11.6305 12.6143 1.17714
-6.95244 -4.45543 0.567875
-6.74813 -8.19583 0.723931
-6.69708 -4.43196 0.553818
9.26339 -8.85644 0.892322
9.98941 -7.83741 0.894528
12.705 16.0129 1.47808
-6.6666 -6.65903 0.65462
9.8024 -8.27771 0.938292
11.4588 17.1337 1.54971
11.3906 18.1598 1.60145
9.58866 18.2503 1.55474
9.00834 19.4684 1.61349
7.33264 21.8546 1.73307
10.7648 18.5807 1.63606
10.007 -7.59246 0.960571
-7.02457 -7.18552 0.769908
-17.1798 -6.23123 1.42881
9.46551 -7.67375 0.95534
9.3276 18.6301 1.64451
-6.37861 -4.25909 0.607958
-6.82603 -8.21543 0.84669
4.83228 -5.73037 0.596043
9.01133 19.8255 1.72739
7.75816 18.9689 1.64793
5.02576 -5.79237 0.617938
12.7756 11.5282 1.39449
11.7759 11.8288 1.36685
6.72459 -9.38121 0.938332
12.2326 11.7002 1.39154
6.67302 19.5895 1.69408
-6.35477 -4.38681 0.629213
-7.15688 -9.47208 0.974362
11.5448 12.095 1.38354
10.4707 9.16007 1.18472
-5.03482 -11.4869 1.05948
6.124 -6.04412 0.75115
9.21137 -7.17599 1.00439
-6.79241 -6.6901 0.809901
10.4299 12.3604 1.41195
8.79163 -7.32571 0.994888
10.8276 12.2057 1.42806
-7.30576 -7.76028 0.934313
8.1855 -7.2872 0.973148
10.2062 12.475 1.44912
-7.06796 -7.7378 0.929143
-6.93441 -8.33597 0.97308
10.5978 12.3192 1.47574
10.5009 13.5456 1.55293
-7.11308 -8.32372 0.997314
11.2189 10.8367 1.43483
-6.31297 -4.23015 0.698663
-6.8576 -8.58887 1.00552
-6.32682 -4.39327 0.709907
11.0842 8.55402 1.31399
10.6416 9.32899 1.31964
6.49007 15.4172 1.57345
10.5096 11.3064 1.46082
-11.2227 2.87583 1.09449
6.15568 -5.96353 0.817179
8.00134 -6.63319 0.99838
10.7417 9.19845 1.37301
9.52907 12.5383 1.52502
9.71416 12.4664 1.55722
7.6684 12.264 1.43694
7.91403 13.23 1.5347
11.2259 8.06138 1.40866
7.1417 12.7085 1.47137
9.06289 11.3577 1.47863
6.99981 13.5516 1.56115
5.87067 13.9498 1.55393
9.19998 10.4885 1.44211
9.03471 12.3085 1.58655
11.3897 7.65906 1.43197
9.25447 10.0084 1.4194
4.97173 -5.81779 0.821661
-6.84441 -4.65504 0.873052
5.57992 13.9018 1.5902
-7.05736 -4.50555 0.892843
8.93034 10.7005 1.49661
-6.7643 -6.77392 1.02394
5.90825 -5.83166 0.896814
9.69388 8.53494 1.39232
8.9643 9.36296 1.39433
9.26054 10.3233 1.50378
4.78552 13.8695 1.58372
4.23494 -8.05423 0.985803
6.46919 10.823 1.38771
-6.8001 -3.92413 0.864107
6.35109 11.9085 1.49764
-6.89386 -3.86229 0.875333
9.714 7.20772 1.35281
6.67357 11.3897 1.47039
9.80892 7.03289 1.35607
5.43882 11.5945 1.44829
5.44431 12.1059 1.49947
4.70783 12.2518 1.48532
9.83842 6.68697 1.35589
-6.89071 -4.56285 0.946429
7.40578 -6.2293 1.10319
-7.32863 -0.785236 0.845045
-6.27428 -5.39001 0.952582
5.24881 -5.5677 0.88303
8.88056 7.89504 1.38453
4.41819 -7.1834 0.977052
10.4179 5.15751 1.36149
8.96436 7.79856 1.39688
5.2002 -5.61133 0.903946
8.60793 7.92354 1.3884
8.90837 9.0628 1.48697
-7.0466 -5.65008 1.06865
10.1453 4.75056 1.33486
-6.9176 -3.85117 0.953907
9.14598 6.14832 1.33677
5.21781 11.4374 1.5242
-6.89207 -3.06504 0.916443
-6.87651 -3.25104 0.919771
4.88098 -5.95263 0.939677
5.97419 -6.12938 1.04224
9.37879 5.62556 1.35212
8.46859 7.23001 1.37691
-6.94945 -4.30992 1.0073
-6.88098 -4.53442 1.01561
8.26568 8.59262 1.47939
5.03886 11.3322 1.54023
-6.54986 -5.6174 1.07382
3.70899 -7.57494 1.05116
8.50987 7.74892 1.44031
6.07833 -5.61784 1.03783
9.17277 6.06504 1.39371
-6.13463 -5.41311 1.03234
8.55537 6.61853 1.37958
8.09472 7.51567 1.40529
-7.09896 -1.7824 0.936136
-7.01195 -2.30549 0.942643
-6.44527 -5.31853 1.06613
8.83455 5.66395 1.34551
8.16187 8.05232 1.47792
-7.26102 -1.25279 0.944799
-6.89704 -4.11842 1.03852
7.43709 6.22569 1.25634
8.0846 7.04644 1.39081
7.97583 8.13242 1.47625
-6.90902 -2.82565 0.971773
-6.91032 -2.96552 0.972157
4.55919 10.0966 1.45615
9.0016 4.11271 1.3028
-7.24509 -1.60556 0.975204
6.83985 -4.25935 1.07101
4.92885 -5.94443 1.0239
-7.33011 -1.11668 0.992473
-7.01225 -2.19871 0.983027
-7.04935 -2.26795 0.9893
-5.99463 -4.39797 0.993603
5.18876 -6.5653 1.11537
6.91067 -4.17626 1.08717
8.07909 7.17527 1.46401
-7.14878 -1.7176 0.98841
-7.0803 -1.95505 0.987904
8.79819 4.85736 1.36514
8.33687 5.87665 1.38698
-6.91993 -3.61843 1.06406
8.87089 4.16339 1.34425
3.35233 10.5364 1.51401
-7.30965 -1.19942 1.01398
-6.00982 -4.4412 1.02775
-5.99034 -4.54003 1.02899
7.14858 -3.93452 1.12165
8.07719 6.49015 1.4332
5.36266 9.06403 1.45859
-6.38157 -4.32097 1.05654
4.93362 -5.52664 1.02927
7.18625 -3.83026 1.13347
7.56077 -3.68691 1.16404
3.62604 10.0597 1.48928
3.44066 10.3531 1.52133
-7.36588 -1.08163 1.03935
-7.07117 -2.00307 1.02417
4.97292 -5.28833 1.01491
7.24803 -3.7383 1.14585
7.36451 -3.67301 1.16736
7.87422 -3.35727 1.21705
-7.15198 -1.87398 1.05147
-7.00621 -2.94505 1.10137
-6.00767 -4.37321 1.06872
7.90898 -2.78363 1.22689
8.23843 4.624 1.38434
5.00038 8.56623 1.454
8.37577 4.51044 1.40615
7.83455 -2.342 1.20553
7.15265 5.69396 1.36925
2.96839 9.47535 1.48496
-7.091 -2.01867 1.10499
7.48767 -3.1113 1.2225
8.23498 4.55114 1.4264
5.79425 7.45192 1.43361
5.29939 7.64537 1.41775
5.13539 7.95651 1.43868
5.08888 8.06557 1.44363
7.33772 -3.17152 1.22108
7.68392 -2.75777 1.24334
-6.75313 -1.68202 1.04829
7.83657 -2.25824 1.25077
7.24271 5.43201 1.39038
-7.10047 -1.95156 1.14274
-6.91759 -2.78493 1.15906
6.82234 5.5338 1.3781
-7.35168 -1.09518 1.16098
-7.14116 -1.82334 1.15432
-7.04363 -2.06665 1.15018
-7.11785 -1.87165 1.15498
-6.89284 -2.93329 1.17601
4.8194 7.4729 1.41444
3.44529 -6.03026 1.10909
-7.2723 -1.29879 1.18345
3.52687 -5.70578 1.08071
3.56376 -5.61125 1.07012
7.08707 4.77722 1.39294
4.67279 7.39586 1.42408
-7.06825 -2.02267 1.19821
-7.09023 -1.94614 1.20653
6.98241 4.8385 1.40515
3.8297 7.95626 1.46223
6.05634 -3.321 1.15072
6.64984 4.88521 1.37601
4.67478 7.18522 1.43019
3.83534 -5.29912 1.09955
7.12254 4.43532 1.41302
7.49005 2.86409 1.3554
6.33684 5.29743 1.4001
-7.27584 -1.25516 1.25736
6.76912 4.09265 1.35869
-6.44885 -2.77108 1.19768
5.51156 -3.63106 1.1339
5.69332 -3.52016 1.14937
2.7656 7.88212 1.44456
-7.36923 -1.03906 1.29027
5.33542 -3.78458 1.14039
-6.30895 -2.25893 1.16205
-6.26953 -2.416 1.17651
4.28055 -4.66405 1.10714
4.49382 -4.47701 1.11283
4.59168 -4.44903 1.12177
-6.79859 -1.73193 1.23591
4.34567 6.51993 1.39805
-7.15653 -0.927889 1.28999
-6.1424 -2.25709 1.16568
6.65506 3.70068 1.36525
6.11521 4.37278 1.36385
3.60752 -5.32576 1.16993
5.16276 5.70198 1.40721
2.52579 7.22847 1.43878
6.49921 3.05889 1.35836
-1.70754 -5.78598 1.14183
6.43264 -1.38731 1.2487
6.28648 2.78385 1.32391
6.23078 2.3863 1.33138
-4.44998 3.93766 1.39689
4.33453 3.5422 1.33918
4.21935 3.2988 1.32618
4.66595 -1.67801 1.24525
4.8201 -1.38133 1.25452
-2.14199 4.79879 1.31254
3.72568 -2.95194 1.22214
3.67187 -2.54869 1.19341
3.40489 -2.96024 1.22538
4.00869 2.57235 1.33133
-2.59564 -3.53564 1.25132
-2.32719 -3.57215 1.21675
3.75766 2.05943 1.30303
3.73416 1.98164 1.30241
-2.84206 3.48483 1.38699
-2.29732 -2.42015 1.18767
1.95325 -2.77822 1.21185
-2.12366 2.76725 1.32475
-2.0287 2.75539 1.33094
2.24903 -1.86831 1.22472
2.37871 -1.49735 1.22194
-2.01601 1.87698 1.29606
-2.06505 -1.44332 1.2286
1.44788 -2.068 1.24465
-1.99291 -1.08795 1.21459
-1.9253 -0.707744 1.22006
-1.92703 -0.703528 1.24565
-1.95605 -0.344378 1.22893
-1.89323 -0.564738 1.22995
-1.89283 -0.530941 1.23503
8.22867 -8.70853 -7.4731
12.1349 -10.295 -8.80654
-8.74839 15.6158 -6.94479
20.5954 25.0806 -11.6595
-8.79981 -2.52012 -2.5793
-34.3736 -22.9617 -7.6365
-33.9777 -22.2205 -5.99054
-33.7063 -22.9062 -6.05226
-31.1094 -19.9516 -2.77947
9.2925 -8.8509 -0.392075
-7.64181 16.472 -0.448091
-29.3996 -11.3767 0.726084
-6.91606 -8.26582 0.460312
16.75 24.0522 1.59243
11.4167 16.0562 1.62962
-6.69292 -6.66592 0.883234
4.23775 12.2969 1.49911
8.7436 9.10778 1.47693
7.98552 -8.77825 -10.3963
8.84747 -8.55443 -10.5154
6.96795 -11.9553 -11.5313
6.8832 -11.3672 -10.9119
8.16594 -8.27829 -9.54826
7.03257 -12.0463 -11.3424
7.07749 -10.9901 -10.4724
8.01556 -8.39162 -9.21905
6.73847 -11.3024 -10.3048
6.45552 -11.7151 -10.2286
7.77047 -8.86541 -8.98705
6.21578 -14.3385 -11.826
8.31338 -8.71631 -9.1173
6.30997 -11.9274 -10.1908
6.15678 -12.1055 -10.1271
7.50456 -9.46193 -9.01684
7.92288 -9.07122 -8.94168
10.4892 -9.46943 -10.5098
6.12918 -14.1331 -11.3862
6.10927 -13.6845 -11.0182
6.14084 -12.5954 -10.3062
9.21317 -8.8417 -9.36726
9.30126 -9.0889 -9.4848
5.87418 -12.524 -10.0488
9.37719 -9.00535 -9.27834
6.87381 -11.1452 -9.29294
5.62439 -12.9891 -10.018
9.70993 -9.09786 -9.4298
7.62214 -9.36008 -8.48677
10.016 -9.20385 -9.55615
10.9388 -9.512 -10.1715
11.4646 -9.71869 -10.0934
8.39965 -8.62324 -7.96983
7.44421 -9.31536 -7.87874
8.18269 -8.73458 -7.91094
7.64187 -9.36873 -7.90973
7.85114 -9.41894 -7.85878
8.3358 -8.55089 -7.63374
0.357351 15.8742 -10.131
7.54141 -9.34096 -7.63973
10.9327 -9.62644 -9.2616
7.24006 -10.7226 -8.18837
8.17013 -8.51288 -7.44104
4.61893 -15.4231 -10.1252
8.72884 -8.71575 -7.63181
7.93575 -9.04868 -7.42377
4.0534 -18.0361 -11.3868
8.21262 -8.6431 -7.28875
4.08924 -17.3163 -10.8566
0.143346 14.8782 -9.05319
6.66725 -11.2837 -7.97928
7.75633 -9.2843 -7.34034
10.1465 -9.33158 -8.36438
6.83351 -11.2722 -7.91319
8.07552 -9.22145 -7.3577
11.2921 -9.71669 -8.90652
5.41014 -13.8795 -8.83472
7.74912 -9.28297 -7.17106
9.36884 -9.05064 -7.71874
6.91558 -11.1364 -7.75837
7.99805 -9.14463 -7.12846
9.77216 -9.20569 -7.82393
14.8878 7.43949 -9.66654
8.68411 -8.84811 -7.16367
6.94574 -10.9845 -7.46896
2.64349 -11.2258 -6.63258
7.87427 -9.08813 -6.8869
9.62406 -9.1581 -7.54641
10.8145 -9.5142 -8.12539
3.27953 -20.5886 -11.7243
6.81301 -11.0011 -7.25408
10.126 -9.30947 -7.70294
12.3681 -10.3778 -9.05379
9.2579 -9.02448 -7.22424
4.62376 -14.3158 -8.38677
8.01924 -9.23397 -6.79226
14.8105 7.57212 -9.13279
9.71628 -9.12466 -7.32025
0.834684 17.4774 -9.55528
2.74053 -19.8377 -10.9199
11.1529 -9.66462 -8.01261
4.24192 -14.4491 -8.15116
14.7236 7.69998 -8.95044
15.1196 10.4393 -9.86573
14.0567 7.75504 -8.57875
10.9726 -9.63712 -7.76577
13.2948 -10.8264 -9.12023
3.04261 -19.3154 -10.2795
11.3788 -9.84476 -7.65584
2.1684 -20.3658 -10.3374
10.2814 -9.3605 -6.99157
14.3015 -11.3116 -9.15483
13.8385 -11.1929 -8.90993
11.0302 -9.67461 -7.30944
7.52103 -9.3532 -5.94352
3.56597 -8.47487 -4.53125
-8.69647 -1.90943 -4.37741
2.2217 -20.1334 -9.93496
4.5353 -9.3057 -5.06279
0.401687 13.6632 -6.69152
7.62002 -9.28486 -5.86112
-8.47274 16.1665 -8.83872
-9.19622 -2.43111 -4.58319
15.0306 -11.6071 -9.12583
19.4249 5.55792 -9.66274
-10.3076 -2.552 -5.02251
1.90955 -20.5408 -9.8094
17.2665 16.2265 -11.2233
7.59569 -11.2291 -6.39664
20.08 5.42 -9.79512
14.0583 -11.1301 -8.33807
2.93396 -17.3549 -8.18392
19.4037 5.74115 -9.34865
17.8905 -13.0378 -10.2252
9.87085 -2.49327 -4.70426
20.3357 5.15436 -9.67958
17.3934 16.3568 -11.0032
1.80918 -20.1996 -9.28167
9.68697 -9.0581 -6.07279
-9.20584 -1.67095 -4.2669
9.45744 -3.47029 -4.58842
6.72423 -11.3353 -5.99455
9.91822 -2.61978 -4.65327
19.2965 5.88414 -9.08267
17.7866 17.6432 -11.2635
9.37334 -3.08773 -4.44238
15.4674 -11.9019 -8.75799
7.04888 -11.581 -6.06384
7.1615 -10.932 -5.8251
9.56391 -3.40643 -4.52444
-9.9846 16.363 -8.53288
17.6995 -12.9172 -9.7366
19.584 5.64166 -9.03366
16.1435 7.32252 -7.8503
17.8959 18.0766 -11.2506
16.4658 -12.2458 -9.04382
-11.2241 17.0663 -8.97702
-6.54948 14.9642 -7.16082
-5.23014 4.90525 -3.12371
20.1848 5.48057 -9.09349
9.56282 -3.4067 -4.38126
18.2941 18.5428 -11.1967
15.8596 -12.2046 -8.61094
14.8979 7.44899 -7.10923
3.84182 -9.30971 -4.27889
-11.1498 16.9561 -8.59008
6.95395 -10.9212 -5.45925
-13.5684 3.32523 -5.88555
0.74331 -22.3475 -9.4229
15.8415 -11.9944 -8.30948
-5.15817 5.67953 -3.20939
0.998088 -22.2078 -9.31896
1.23254 -20.7723 -8.71747
14.2042 7.61827 -6.74224
18.6307 19.4163 -11.2443
3.7854 -8.96089 -4.05656
14.8101 7.75011 -6.95842
17.995 19.2197 -10.9275
-9.50751 -1.09119 -3.95033
4.00899 -8.50583 -3.85262
14.0711 7.76981 -6.59912
6.8534 -11.0018 -5.29907
-13.6089 2.54219 -5.66326
-7.95506 15.4089 -7.04576
19.3452 21.0215 -11.5749
15.113 7.26192 -6.7563
-5.27113 14.3909 -6.14371
13.9831 -11.0549 -6.9815
1.53374 19.2982 -7.51977
-8.73732 15.7781 -7.00763
19.0422 5.80727 -7.71404
-1.75391 13.2716 -5.18471
5.30103 -9.40331 -4.16281
-2.38415 13.4854 -5.25935
19.6851 22.7728 -11.5435
4.66369 -8.52112 -3.68903
19.4708 5.58584 -7.70844
0.874497 -26.4174 -10.0455
14.9398 -11.5126 -7.09783
20.0324 5.42722 -7.76826
9.44808 -3.4423 -3.75969
0.532206 -22.5864 -8.42
3.25327 -10.8097 -4.2172
20.2923 23.6092 -11.5623
0.909314 -8.71757 -3.25054
14.0574 -11.1326 -6.61189
20.4425 5.19937 -7.75599
17.9594 17.7465 -9.22774
-13.0256 2.28196 -4.80762
20.9545 25.0241 -11.8391
2.2904 -13.2753 -4.85304
13.0603 -10.5616 -6.04385
0.795223 15.4644 -5.54127
-8.19707 -2.79728 -3.09794
0.409689 -21.7793 -7.7872
-4.21521 13.8289 -5.14137
0.637841 -21.8764 -7.77776
15.8957 -12.0054 -7.06007
-15.7204 18.1733 -8.46755
5.93508 -11.3505 -4.50349
-11.0177 16.6253 -6.96512
0.0942297 -18.4649 -6.49121
14.295 -11.329 -6.37764
20.3977 5.37197 -7.36285
0.656951 -22.9837 -7.94106
-5.01252 14.547 -5.27089
3.64175 -8.4539 -3.16854
4.88063 -9.04051 -3.52055
-14.4952 17.9953 -7.90849
2.27693 -10.894 -3.81393
-8.88254 16.1116 -6.27045
3.03529 -13.7308 -4.79401
-14.9702 18.3734 -8.03362
20.2153 5.4963 -7.04176
22.1801 27.4391 -11.7935
36.2611 -20.4694 -13.9144
-5.30443 14.0661 -4.99186
1.91897 20.822 -6.93942
1.26767 -10.2485 -3.41443
32.6126 -20.5016 -12.6677
-5.25248 14.4591 -4.99563
-12.5809 17.2226 -6.91808
18.6201 -13.2685 -7.42457
3.56111 -8.67551 -3.00675
6.22756 -10.1253 -3.80946
2.31465 -11.0119 -3.58085
-4.5368 -34.0924 -10.9323
-1.13323 -23.7699 -7.57545
15.0662 10.3764 -5.77403
-13.2032 17.5684 -6.94563
-17.974 19.3861 -8.30967
6.97339 -11.113 -4.056
1.38404 -21.8602 -6.7761
-2.56373 -27.3209 -8.42373
7.23077 33.4059 -10.432
0.770448 15.0568 -4.58005
-11.1267 16.7873 -6.06945
-2.68863 -26.4107 -7.99549
-14.3343 17.9217 -6.84679
-5.27619 -34.6093 -10.4246
0.836509 -24.9669 -7.46975
-5.38991 14.8212 -4.69032
2.08656 20.7823 -6.155
-21.2513 19.8148 -8.57187
18.2615 5.81125 -5.64123
-4.29576 14.4236 -4.42425
-7.92218 15.3679 -5.07173
4.26018 -9.15256 -2.96714
4.64427 -11.6363 -3.66327
-12.6059 2.2207 -3.67872
-32.7807 -46.435 -16.3566
-15.1835 18.2652 -6.82731
6.97189 -11.104 -3.77448
2.56548 -9.55176 -2.81011
12.9615 -10.4914 -4.74538
-8.44647 -2.45818 -2.49438
21.2027 27.3457 -9.80509
-8.57359 -2.25967 -2.50542
-2.53973 -25.9261 -7.31135
-13.0119 1.99391 -3.66579
4.39613 -11.3503 -3.37817
-9.30133 15.9949 -5.07899
-13.0458 17.3984 -5.9723
-5.38884 14.3795 -4.19633
-8.45745 -41.0799 -11.4763
-21.4365 20.004 -7.88177
-9.72099 16.1186 -5.04367
-26.6623 20.4814 -8.94398
11.4741 11.5486 -4.29633
4.33537 -11.3171 -3.21035
47.3888 -13.7759 -13.0731
-8.14304 -38.4329 -10.3272
4.09396 -8.66686 -2.5238
11.1933 -9.95585 -3.9187
-14.4324 18.0702 -6.01283
6.54595 -10.4387 -3.18903
3.18151 -9.65624 -2.62825
-29.9372 -43.8465 -13.7104
-4.33489 -28.4378 -7.44364
3.54644 -10.3875 -2.83011
4.07312 -9.39838 -2.63267
15.6507 -11.7682 -4.99602
-7.14425 15.2189 -4.25463
-31.3755 -41.8435 -13.2632
4.31976 -11.1644 -3.02961
4.25885 -7.71134 -2.24198
6.54816 -10.6811 -3.12436
45.0524 -13.6212 -11.7342
-28.2001 21.2758 -8.73327
-11.5137 16.915 -5.04368
-27.4687 -40.0715 -11.9459
-9.83016 -38.6952 -9.849
-24.4256 20.5154 -7.83843
4.3556 -10.3449 -2.75767
-12.0459 17.2538 -5.10151
-7.83385 15.2624 -4.13424
10.2926 -9.28395 -3.31881
40.478 -13.4458 -10.2062
15.1589 7.58122 -4.03542
-6.27372 -35.9354 -8.69061
3.96888 -9.09473 -2.35124
47.2553 -12.6475 -11.6098
-12.0636 -44.4215 -10.9054
4.20752 -9.00277 -2.37059
3.86863 -11.0957 -2.76919
4.91372 -8.70268 -2.35106
-12.7579 17.3855 -5.01802
11.0283 -9.66458 -3.35139
-6.16047 -31.2446 -7.26713
-27.0809 20.9159 -7.75626
41.7192 -9.12378 -9.69092
-30.4008 22.0724 -8.4228
-35.3218 -23.1473 -9.4628
40.9113 -12.647 -9.61418
5.46113 -9.48554 -2.44365
-12.3942 2.82808 -2.78938
40.7865 -11.9525 -9.39012
42.7792 -12.2061 -9.78695
27.6191 38.8998 -10.4505
-5.36705 14.0797 -3.29384
13.4233 -10.8016 -3.79231
38.2232 -12.2837 -8.82585
-23.3264 20.3301 -6.71151
-29.1552 -71.8813 -16.833
4.31496 -9.71183 -2.30448
4.54426 -9.19063 -2.21449
-14.5474 18.1242 -4.96272
-30.8283 22.393 -8.13593
-31.7004 22.4966 -8.30925
-27.7628 -73.6603 -16.8747
-10.6659 16.6658 -4.19504
-8.3896 -35.6165 -7.78183
3.19452 -9.69792 -2.17721
3.97205 -9.84371 -2.26317
46.0131 -10.6682 -10.0823
14.9908 7.50873 -3.55488
-15.1194 18.6117 -5.07646
5.16954 -9.06455 -2.1923
26.8456 38.8427 -9.86857
-27.5754 -26.9855 -8.01164
15.0323 7.8672 -3.52293
-30.0612 -23.2164 -7.87965
-32.4503 -83.2056 -18.4914
40.6811 -10.9479 -8.71225
-11.4203 16.8261 -4.13197
-15.5811 18.4218 -4.91151
-35.0289 23.514 -8.57285
44.6331 -9.73547 -9.3155
-13.1486 -42.3096 -9.00563
4.141 -9.74633 -2.15443
11.6268 -9.66505 -3.07609
-11.9653 17.1707 -4.17731
-19.7112 -56.5727 -11.974
-12.8855 -40.0294 -8.32634
4.07495 -9.93379 -2.12579
-34.0049 -23.2522 -8.12115
-26.6369 20.9057 -6.66421
-33.0419 -23.6354 -7.91942
-6.86726 15.1737 -3.23223
-26.2933 -61.782 -13.043
-33.4543 -22.2716 -7.74506
3.43983 -9.37314 -1.92792
46.0902 -10.6788 -9.0845
-12.7082 17.3506 -4.11098
3.99384 -9.3559 -1.94126
-36.3221 -22.0631 -8.04506
-21.1774 -34.4022 -7.68338
-15.4601 -44.6092 -8.934
38.0592 -12.5549 -7.57578
-35.7766 24.0286 -8.06543
-33.5837 -23.1936 -7.66759
-32.5398 -23.8074 -7.56882
-21.1241 -52.3339 -10.62
-16.7539 -45.5091 -8.99626
3.82359 -9.21486 -1.84273
42.7691 -11.527 -8.22515
5.76554 -9.72612 -2.0721
-24.2943 -55.0884 -11.0238
-20.2799 -50.3374 -9.81631
-14.5088 18.0855 -4.11095
-30.9969 -24.9997 -7.07879
-20.2354 -26.9644 -6.029
-39.1596 24.7103 -8.16983
-26.6445 20.921 -5.8962
-33.917 23.2092 -7.13571
3.91487 -10.0636 -1.87233
4.77649 -8.62095 -1.71276
14.0436 7.54186 -2.74968
14.1196 8.1025 -2.78849
-30.6808 22.3106 -6.5033
42.4465 -12.009 -7.50973
42.237 -10.939 -7.42701
-31.1544 -24.7425 -6.74921
-20.9775 19.9783 -4.86442
-20.2121 -50.2397 -9.15072
14.9032 7.46953 -2.79615
-31.5461 22.3328 -6.4563
-23.3367 -55.6395 -9.97051
43.7865 -11.7957 -7.37039
-10.3086 16.3654 -3.12082
-20.4909 -50.8353 -8.74224
-34.7667 -23.9997 -6.65731
-22.6782 19.9248 -4.72696
-24.0677 20.5457 -4.90443
-39.8637 24.1362 -7.22142
-11.174 16.7238 -3.1047
3.47676 -9.54174 -1.57055
3.87574 -10.249 -1.69652
-7.57956 15.373 -2.61754
-30.906 22.4943 -5.84329
-31.6525 -24.4474 -6.08194
-27.8511 -26.0516 -5.77766
42.4296 -11.0304 -6.66341
45.1038 -9.82655 -7.03242
-6.50657 14.4919 -2.37643
9.84295 -5.15943 -1.64945
-33.3729 -24.0703 -6.12798
-26.1418 -66.1005 -10.5431
10.2124 -9.18207 -2.04657
45.249 -10.4678 -6.89695
-36.5112 -24.305 -6.4555
-31.399 -25.8992 -5.95431
-12.5737 -41.6626 -6.40376
16.9695 -12.2774 -3.06791
-25.269 20.8047 -4.75673
-24.4756 -54.841 -8.6545
-7.57805 15.1778 -2.42539
-12.6545 17.2537 -3.05045
6.04857 -11.5557 -1.86367
-13.3495 17.8429 -3.13004
-34.5076 23.3107 -5.85475
6.77342 -11.0641 -1.81309
37.7776 -12.4673 -5.5949
-31.0436 -24.8753 -5.55216
-32.8178 23.5846 -5.5986
-20.4143 -49.2025 -7.35803
45.4019 -10.157 -6.415
-6.8296 15.1036 -2.2648
-22.3906 -58.437 -8.50187
7.7633 -9.39498 -1.63553
-13.9402 17.7995 -3.04762
13.2495 -10.5675 -2.29306
-22.1191 20.12 -4.02074
42.3535 -10.9506 -5.80746
45.1224 -9.8837 -6.11372
-22.5016 19.8016 -3.91948
-32.5715 -24.3727 -5.31389
-14.8269 18.1561 -3.03079
-33.8395 22.5861 -5.2821
-38.2042 -16.1313 -5.35476
7.02951 -10.4543 -1.61632
10.8068 8.84797 -1.79377
-33.6855 -23.2138 -5.23554
-31.2647 22.824 -4.89673
-35.4532 -22.1231 -5.23826
42.2125 -10.9168 -5.45614
6.80835 -10.3865 -1.55177
-7.61169 15.2246 -2.10727
-24.892 20.9013 -3.98011
-33.2037 23.401 -5.01094
6.31042 -12.1025 -1.66267
45.0734 -9.61635 -5.64476
15.0487 7.88418 -2.04285
-17.8269 -43.1764 -5.63303
7.09985 -10.5519 -1.53127
-20.4746 9.07413 -2.65086
-14.202 -42.961 -5.32077
-31.7374 -24.469 -4.68619
-31.2243 -24.9715 -4.67892
42.2992 -11.3307 -5.14648
11.2543 -9.69198 -1.72067
-29.7176 22.5333 -4.29091
6.6553 -10.8439 -1.45654
7.49987 -9.23371 -1.3607
11.6081 -9.74479 -1.72139
9.45966 -4.61486 -1.19194
15.0264 7.72171 -1.90427
-10.2954 16.39 -2.18423
-31.9995 23.3823 -4.44007
39.096 -12.87 -4.61551
9.37253 -9.03829 -1.44048
-11.0097 16.5122 -2.15732
6.81211 -12.8249 -1.57293
45.2167 -9.82722 -5.01605
10.8058 8.87984 -1.50771
16.8257 -12.4986 -2.24944
42.4976 -11.0221 -4.70411
9.6355 -8.99406 -1.39644
8.39094 -8.47619 -1.24945
-30.7918 -24.6406 -4.10677
-29.8381 -59.8495 -6.97689
15.0229 7.53419 -1.71733
-31.6796 -24.427 -4.10468
-12.7913 17.4371 -2.1958
-12.7123 17.0315 -2.11244
10.2259 -9.10438 -1.34125
-20.6415 -52.422 -5.52381
6.33357 -12.1291 -1.32428
16.6936 -12.2133 -1.98815
42.3867 -11.3899 -4.20686
-30.3531 -61.3553 -6.50763
-20.5975 -54.0543 -5.49398
-23.1941 20.2876 -2.88089
45.9301 -10.2177 -4.3946
9.73321 -9.00251 -1.22731
39.9381 -13.1746 -3.91861
-14.9434 18.3182 -2.14094
-29.6145 -13.5021 -2.96705
-31.9403 -62.2652 -6.45073
15.904 -11.904 -1.80706
8.6492 -8.74033 -1.11348
12.9222 -10.6666 -1.45904
45.5139 -10.5493 -4.00203
9.41769 -9.04317 -1.09753
10.9734 -9.66343 -1.229
-33.9484 23.3141 -3.42742
16.8946 -12.3202 -1.7318
-16.7851 -43.6779 -3.74812
14.7228 -11.5123 -1.49027
-11.6593 -32.6408 -2.73598
-29.6481 22.5432 -2.88066
-32.8922 23.2496 -3.10989
-22.4937 -51.3818 -4.33047
-50.7369 27.6134 -4.37476
-21.278 20.0259 -2.12577
-33.1181 23.4255 -2.9403
16.4296 -12.2762 -1.50026
42.4158 -11.3506 -3.1987
-38.7369 -73.294 -5.98298
14.0113 -11.0858 -1.27859
-15.4294 -40.9302 -3.01923
10.7874 -9.63386 -0.990893
-23.2168 20.3285 -2.08442
12.9007 -10.6451 -1.11959
18.0128 -13.0646 -1.48338
16.0903 -12.1705 -1.33232
-14.5464 -40.3314 -2.77359
44.2008 -11.4957 -2.85454
-31.448 -63.7188 -4.33629
36.0331 -8.7417 -2.27539
43.354 -9.92304 -2.7302
6.06963 -13.1202 -0.864006
31.0936 -20.5746 -2.23083
-9.77947 16.3255 -1.11884
-15.4387 -40.2731 -2.45604
16.6621 -12.4524 -1.16786
-9.67118 -12.5371 -0.867798
15.0151 7.70331 -0.912619
13.9374 -11.0329 -0.951829
-12.7149 17.2306 -1.1187
-16.3379 -40.4949 -2.31916
14.9094 7.83984 -0.825769
-16.1592 -41.3051 -2.17634
-14.0729 17.8375 -1.08676
9.58174 -9.03814 -0.604138
-23.711 -54.3902 -2.6849
12.4796 -10.2593 -0.748943
-15.8517 -44.1882 -2.08432
-17.064 -42.0421 -1.94258
6.87609 -12.6968 -0.640587
-13.7828 -42.0145 -1.88357
-52.122 28.3459 -2.40417
18.4007 -13.2196 -0.919433
16.8552 -12.5284 -0.817843
-40.7623 -79.1159 -3.35757
-18.0406 -47.3086 -1.86476
-33.4215 22.9637 -1.48354
42.8981 -11.0533 -1.59494
-33.9762 -67.5847 -2.53077
-25.5599 -56.0145 -2.07302
20.3002 23.4784 -1.03085
-21.3207 19.9796 -0.952334
8.14618 -14.3775 -0.554977
9.43746 -9.00953 -0.422941
11.323 -9.96831 -0.490354
18.6569 -13.1918 -0.750878
35.0282 -13.2115 -1.2422
22.1327 26.7916 -1.11459
-27.3095 -13.6982 -0.957822
-22.7714 20.2781 -0.929578
-31.499 22.3092 -1.20503
-24.6663 -56.7087 -1.91529
-13.6938 -38.7394 -1.26562
-21.2474 -54.1995 -1.76262
-16.4532 -44.5916 -1.36171
-33.8944 -20.5509 -1.05591
11.4724 -9.73249 -0.403012
16.3881 -12.1893 -0.538363
-40.746 25.207 -1.26405
-30.0942 22.8989 -0.935942
-30.6144 22.4367 -0.897705
9.58413 -9.02237 -0.304923
-41.1091 14.2084 -0.961762
-31.1113 -52.0963 -1.36665
21.3519 -14.2803 -0.564545
30.6719 -18.5986 -0.80943
14.262 3.94146 -0.301886
27.8278 48.6284 -1.03039
23.6312 -11.0016 -0.458985
47.5012 -10.9381 -0.906458
-30.5235 -21.9352 -0.685526
-29.4471 -28.9228 -0.654572
-18.7969 -46.1231 -0.829366
12.7502 -10.4849 -0.271576
18.5868 -13.4308 -0.350386
-29.1899 -12.9742 -0.419517
-32.6943 -24.4676 -0.568285
-32.8831 -66.2897 -0.998941
-27.3737 -58.26 -0.881987
-33.7933 -23.079 -0.5344
-30.1119 22.9089 -0.445821
17.0528 -12.7347 -0.252656
29.4773 -18.2774 -0.407996
-30.5743 22.4459 -0.422682
-18.9184 -43.3883 -0.506393
-11.9279 -35.902 -0.380955
-32.9999 -58.1452 -0.615913
-14.2414 18.0649 -0.176774
-26.6415 -13.4319 -0.241026
-14.9282 18.1974 -0.161188
-22.4356 20.037 -0.155114
-20.8843 19.5889 -0.130557
-10.5427 -13.5535 -0.060338
14.7767 7.76261 -0.0202118
11.1307 -9.78758 -0.00777764
-34.3686 -18.8244 0.0596699
-11.2625 -33.4724 0.115057
17.0113 -12.3593 0.0913359
-18.6455 -42.8065 0.207636
18.8473 -13.2794 0.122549
7.19619 -12.3702 0.104447
26.1156 -10.7147 0.173776
-54.9393 19.6172 0.555786
16.2992 -12.0795 0.193772
37.673 -7.69147 0.363059
-29.0066 -8.17918 0.352372
-36.1362 -21.811 0.46542
-11.2579 -32.2553 0.366547
-12.6226 -34.9779 0.442841
-10.2207 -31.4162 0.396509
6.35132 -12.9823 0.1845
7.22944 -11.1375 0.174599
-28.0206 21.9954 0.545114
11.3367 -9.90084 0.226324
-23.9887 20.5147 0.520695
10.9222 -9.7523 0.229848
13.004 -10.7054 0.265427
36.6111 -7.83535 0.623142
-34.4182 -23.0596 0.753511
-31.0512 22.2018 0.749181
6.16291 -12.8765 0.276999
7.03714 -11.0745 0.252797
8.039 -9.43327 0.242045
28.0026 57.5801 1.39241
7.74111 -9.45858 0.276344
10.1476 -9.19111 0.330334
-28.7434 -9.21683 0.72695
-23.1896 20.241 0.832521
-27.4277 21.6268 0.937123
-28.8722 -8.66929 0.794234
9.20452 -8.90981 0.346077
9.64052 -8.96017 0.358786
-25.4473 21.4473 0.903937
25.4634 -5.1513 0.723464
13.0137 -10.6759 0.501477
14.9255 24.3148 0.880161
6.20943 -12.8098 0.447951
7.47505 -11.6525 0.434448
-28.4021 -8.01026 0.968097
-12.5821 -19.2646 0.758094
-28.087 -8.77853 1.01728
16.1677 11.0661 0.708102
-29.743 -18.4306 1.22297
15.8982 27.6166 1.13718
-30.3628 -16.562 1.28157
23.6082 -4.26305 0.86687
-27.7558 -19.7404 1.26203
-7.29363 -7.95253 0.407181
9.06534 -8.84008 0.470688
12.4777 13.6495 0.713045
26.4465 54.5573 2.29613
25.2902 53.8457 2.24009
-11.5486 -9.1412 0.58071
8.73576 -8.68139 0.48721
-25.5375 21.0368 1.34286
21.8964 -2.96757 0.895328
-28.726 -17.4482 1.3768
9.42909 -8.94064 0.532783
12.5056 14.4029 0.820643
6.59498 -12.4896 0.599748
14.9334 19.4037 1.07644
20.9339 28.9154 1.56346
-9.48379 -13.7895 0.735609
-9.96545 -15.5855 0.821192
7.61265 -10.9719 0.588363
8.63633 -8.72592 0.554818
24.2602 -3.71646 1.10828
-29.7979 -8.68351 1.41655
6.75566 -11.1062 0.598103
-8.27131 -8.13991 0.54611
21.5855 43.5514 2.32555
-28.4888 -17.6072 1.58302
-9.75714 -13.6862 0.799995
9.67564 -8.97732 0.621675
15.6899 43.6016 2.24315
-30.1851 -13.3698 1.57562
-6.76152 -8.24324 0.524587
14.6904 34.1631 1.8976
-29.6796 -11.6225 1.59946
-7.59175 -6.98083 0.521277
-6.69934 -7.59439 0.512264
16.2455 29.4288 1.74549
10.5732 12.3636 0.879185
14.284 19.4382 1.29521
9.35869 -8.93859 0.693411
14.8739 19.353 1.34777
15.3585 23.7211 1.55609
-27.3995 19.2921 1.83642
-6.97211 -8.19368 0.596591
-26.3282 20.2017 1.8447
6.11147 -12.904 0.798813
-7.1046 -9.1559 0.660871
9.97947 12.4651 0.939111
14.9886 25.2541 1.71574
6.48048 -13.0156 0.836723
13.9021 22.6809 1.57139
-8.25824 -8.11749 0.697671
11.5573 11.6371 0.978082
14.7237 19.5828 1.47208
-7.39549 -10.0113 0.774071
7.02144 -11.1893 0.805019
11.2789 -9.72876 0.903019
5.87599 -10.7717 0.761379
-7.19528 -6.65064 0.612226
14.53 20.6118 1.59571
16.1682 7.17688 1.14863
-7.03753 -6.14871 0.613169
6.48209 -13.4858 0.997114
9.43968 21.3228 1.57317
10.436 12.5787 1.11739
13.5884 18.2718 1.58828
12.4395 20.6247 1.6667
11.3643 12.0048 1.16035
6.60475 -9.84999 0.839825
11.5122 11.7782 1.19197
9.81103 -6.92564 0.85453
12.377 11.9821 1.26527
9.93303 -8.38834 0.952458
-6.15202 6.66759 0.677113
10.4411 9.19376 1.04511
11.95 17.8673 1.61741
11.503 18.3266 1.63046
-6.94616 -7.69937 0.804068
10.8816 18.7816 1.66555
9.52108 -8.96412 1.01062
-6.41722 -4.29997 0.609172
9.20994 18.4521 1.64812
10.0854 -6.90137 0.978536
12.4699 11.5697 1.37517
9.7705 18.9705 1.71836
-7.2645 -9.6357 0.982918
6.72156 -9.38552 0.939377
12.257 11.7256 1.38995
12.1615 11.9605 1.41654
11.4361 11.9534 1.36964
-5.05026 -11.5265 1.05864
10.327 12.9204 1.40748
-6.96186 -6.08353 0.796293
-6.81825 -6.69708 0.807245
-5.21138 -11.4298 1.06831
-7.30162 -7.74793 0.916794
9.28781 -7.25853 1.01847
-7.12187 -8.05913 0.941191
-7.01821 -7.69179 0.915709
9.40157 12.5493 1.39029
-6.95334 -8.37358 0.972382
10.8212 9.07977 1.28748
10.4779 13.495 1.54373
10.5301 9.24817 1.283
7.73354 14.0383 1.47434
-6.49977 -8.1378 0.954249
-6.90409 -9.01988 1.04841
11.2078 10.8097 1.43685
11.2558 9.18364 1.35949
10.8775 10.8121 1.43778
6.504 15.0302 1.5391
-11.4247 2.92683 1.10583
-6.36248 -4.17166 0.712709
-6.80711 -6.29516 0.859772
9.446 13.3217 1.57551
-6.02378 6.54543 0.875747
7.96254 -6.61098 1.00866
7.94493 13.2475 1.53457
-7.06979 -7.61876 1.04707
9.31762 11.6507 1.50486
7.01937 12.4633 1.45184
7.07714 13.0383 1.51255
9.53914 9.09821 1.36435
5.87874 14.0145 1.5754
9.15293 12.4488 1.61109
-6.10803 -4.45734 0.792516
5.97692 13.7341 1.57794
6.23761 13.6633 1.57927
-6.97064 -4.42786 0.883226
8.77298 9.0238 1.34186
9.14397 10.1867 1.48887
7.33894 11.0198 1.43904
5.83781 11.4986 1.40221
-6.30013 -7.41145 1.06321
10.269 6.45383 1.34206
8.99535 8.14161 1.33754
7.32384 11.707 1.52498
6.85829 11.6566 1.49544
5.37072 11.9264 1.45547
4.88324 12.1386 1.46405
4.72183 13.7323 1.59783
9.86898 7.05641 1.35479
8.76418 9.3163 1.42942
5.39496 11.5438 1.43512
-6.84188 -6.72386 1.06768
6.87702 10.7341 1.43624
4.33524 13.2254 1.57328
9.75621 -3.19701 1.14477
-6.10471 -5.4145 0.944682
7.29054 -6.12106 1.08062
10.4157 5.71488 1.36271
-7.37857 -0.985424 0.852932
-6.25761 -5.35631 0.948081
5.24505 -5.55348 0.880093
5.08105 11.6547 1.47717
-6.88289 -4.55909 0.956648
4.4519 -7.25923 0.984816
10.4078 5.14869 1.36271
8.88705 7.88775 1.39504
-6.00251 -4.36854 0.865158
-6.48596 -5.27356 0.987494
4.09119 -7.86439 1.05426
4.96393 -5.84706 0.920219
10.1665 4.75375 1.34548
8.52208 8.27526 1.43894
5.28813 11.5208 1.54764
9.04568 6.26647 1.34745
8.01506 8.34147 1.44927
-6.49 -5.74692 1.07911
3.70514 -7.57019 1.05562
8.67711 6.69045 1.37795
-6.46814 -5.34466 1.0619
9.09096 6.01324 1.39171
8.18527 7.14223 1.38613
8.11649 7.50974 1.41202
5.77482 -5.34347 1.01014
-6.97206 -4.44318 1.06119
8.10496 8.0024 1.47749
-7.35502 -1.04204 0.959735
-6.92276 -2.82625 0.976476
8.97534 4.10096 1.2924
8.40397 6.63012 1.40537
4.9962 -6.02541 1.0289
4.91437 -6.1899 1.0466
6.86927 -4.28211 1.07752
-7.13207 -1.71794 0.983418
-7.00882 -2.21974 0.982871
-6.02623 -4.42295 0.999318
8.1372 6.66024 1.42569
8.61019 4.43978 1.3209
8.63202 5.16745 1.37427
8.03103 7.14053 1.46287
-6.80834 -3.73345 1.0543
8.86159 4.15964 1.34009
8.26649 5.83454 1.38572
-6.39842 -4.32935 1.05711
-5.95835 -4.52574 1.02183
5.3662 9.04294 1.4526
3.64999 10.0979 1.49141
-7.36528 -1.0926 1.03109
-6.90392 -3.92689 1.10223
4.94667 -5.54108 1.02657
5.2263 -5.39627 1.04266
7.46415 -3.53729 1.15517
3.39434 10.1801 1.50394
8.40308 4.59906 1.3552
7.37564 -3.67845 1.16926
7.58782 -3.33526 1.18172
7.76282 -3.3061 1.19728
8.93875 2.81459 1.34897
4.83147 -5.63274 1.06672
7.35438 -2.85332 1.14852
-6.95784 -3.29984 1.12242
7.91933 -2.78003 1.22376
8.66636 -1.82042 1.29994
5.01624 8.5886 1.46838
2.96025 9.46254 1.47533
7.73352 -1.88826 1.1733
7.23283 5.76022 1.37779
3.46373 9.58252 1.50647
3.19473 9.82182 1.53103
-7.36753 -1.04298 1.10325
-7.0729 -2.0226 1.09631
6.95156 6.29292 1.41585
-6.26256 -2.27146 0.999717
-7.23777 -1.37484 1.11208
7.9422 4.81949 1.41546
5.71608 7.36561 1.41481
5.29991 7.64187 1.41558
5.06455 8.02609 1.43504
6.75977 -3.22581 1.13277
7.24696 -3.125 1.20864
7.63714 -2.75587 1.2373
-7.3137 -0.732652 1.12245
-7.09548 -1.95398 1.13589
6.78941 -3.093 1.15384
3.74859 -5.7847 1.06593
-7.05136 -2.07548 1.15236
-7.34332 -1.09248 1.16572
7.36433 4.77671 1.3865
-7.19614 -1.44301 1.16769
-7.26893 -1.30062 1.1848
-7.09567 -2.0185 1.19966
7.07289 4.76533 1.39231
-7.09929 -1.94492 1.20916
7.01262 4.86721 1.41803
6.6184 4.85452 1.36988
5.21187 6.2499 1.35586
4.67959 7.1821 1.43185
3.82895 7.94738 1.46661
-7.24671 -1.37303 1.23124
2.79054 -5.7731 1.08097
7.14482 4.43042 1.4164
6.51706 5.24118 1.41104
3.87255 -5.36377 1.11544
3.93552 -5.01956 1.0798
-7.26971 -1.25197 1.25136
-6.59718 -2.62478 1.20464
7.41823 2.84849 1.34788
7.03237 3.89253 1.36987
-6.4134 -2.7526 1.1874
6.77694 4.1001 1.35989
5.68287 -3.51989 1.15061
-7.39325 -1.03921 1.2911
-6.35588 -2.28006 1.16089
5.53554 -3.64809 1.14279
5.31899 -3.77406 1.14322
3.60193 7.17254 1.41211
-6.79769 -1.7347 1.23206
4.47945 -4.46689 1.11334
-7.08962 -0.914305 1.27339
4.72492 -4.45751 1.14957
4.33374 6.5007 1.39435
6.58784 3.47484 1.34519
6.62757 3.68363 1.36229
-6.43984 -1.50019 1.18927
3.60762 -5.32456 1.17003
5.08171 5.61739 1.38716
-6.15436 -2.18298 1.19677
3.41171 -5.15645 1.14991
3.39228 6.78061 1.41873
-1.69828 -5.78348 1.14489
6.4459 2.73244 1.33245
-2.14375 -5.72877 1.17582
6.31015 2.79651 1.32891
-2.78804 -5.37744 1.18691
-3.51989 5.34488 1.38639
4.47287 3.8954 1.35388
4.15065 -2.87843 1.17699
4.62883 -2.18637 1.23705
4.20113 3.29308 1.32244
3.70672 -2.92972 1.22373
4.01939 2.57533 1.33382
-1.44451 -4.12106 1.22256
-2.32267 -3.58195 1.21309
3.86092 2.365 1.31194
-2.85969 3.52408 1.36046
-2.48238 -2.91841 1.18998
-2.37983 -2.93959 1.19493
1.84045 -2.80809 1.18066
1.86349 -2.78644 1.21069
1.98959 -2.52347 1.19714
-2.04257 2.80541 1.31948
2.80281 -0.555474 1.25892
2.78224 -0.336708 1.24069
-2.09085 -1.62025 1.21347
-2.07854 -1.45219 1.23851
-1.86379 -1.79722 1.28402
-1.99604 -1.13209 1.20491
-1.98751 -1.07099 1.23173
-1.94726 -0.880845 1.23192
-1.93156 -0.708773 1.22218
-1.93041 -0.70186 1.24939
-1.90669 -0.469916 1.22216
-1.87205 -0.345877 1.21934
-1.85693 -0.401371 1.22608
2.37731 -19.6789 -10.0023
-7.59545 -8.96738 0.464639
8.0285 -8.8109 -10.4807
8.27414 -8.64004 -10.5162
8.22559 -8.30036 -9.89784
6.96723 -11.9725 -11.4244
8.52837 -8.9862 -9.75493
7.86042 -8.94855 -9.14686
5.85757 -12.8137 -10.742
9.44188 -8.84779 -9.75972
6.1557 -14.1119 -11.59
8.2988 -8.69097 -9.03472
8.02905 -9.1817 -9.12096
7.30161 -9.2578 -8.78446
5.91831 -14.1708 -11.2045
7.72911 -9.31882 -8.73611
7.86633 -9.1291 -8.68059
7.13787 -10.5938 -9.09471
6.82922 -11.0874 -9.23126
10.0708 -9.2088 -9.5841
6.54823 -11.1899 -8.87571
8.04382 -8.63929 -7.86046
7.37047 -9.29318 -7.8822
8.52796 -8.69337 -8.0946
7.73157 -9.48653 -8.03992
6.4968 -12.7927 -9.36888
7.94446 -9.19362 -7.92474
5.00678 -16.051 -10.8142
-0.474944 13.9291 -8.91193
7.73824 -9.25699 -7.73684
7.34629 -10.8798 -8.35849
8.38966 -8.57815 -7.64432
10.8954 -9.63834 -9.22673
9.00243 -8.83152 -7.90919
11.7895 -10.0534 -9.71012
8.08425 -8.54799 -7.23828
4.04364 -16.85 -10.6203
4.25348 -15.3917 -9.80483
7.856 -9.3725 -7.32891
3.95516 -15.6371 -9.6182
11.5024 -9.84716 -9.06864
6.87415 -11.0928 -7.74883
7.78116 -8.82967 -6.9718
5.49511 -14.0159 -8.89468
6.4979 -12.7243 -8.3613
8.37354 -8.60623 -6.99759
9.70401 -9.09626 -7.75553
2.79403 -11.8085 -6.95553
5.48952 -13.9245 -8.47453
9.61125 -9.12096 -7.49026
6.62694 -11.0853 -7.27195
3.34783 -20.6927 -11.7478
8.89238 -8.95273 -7.07364
12.2155 -10.2485 -8.93281
6.83307 -11.0209 -7.22402
4.69025 -14.6329 -8.49213
6.23174 -12.6415 -7.75318
0.895164 18.5944 -10.1338
14.6555 7.74422 -9.00608
4.21025 -14.2635 -8.03202
14.7598 -11.6796 -10.1459
15.0106 7.45925 -8.92825
14.0452 7.73861 -8.52041
4.77171 -14.8664 -8.29604
12.1046 -10.1682 -8.31922
1.81386 -20.4809 -10.5781
11.4355 -9.86886 -7.73861
2.08161 -20.2106 -10.3101
13.9936 -11.1074 -9.03671
0.00305838 14.2768 -7.16601
-7.27072 15.112 -8.40459
10.6116 -9.61626 -7.19571
7.52521 -9.43874 -6.01425
-8.47394 16.0636 -8.77783
11.6632 -9.7952 -7.3719
10.5116 -9.60049 -6.83592
14.8171 -11.3597 -9.00541
16.758 15.875 -10.9663
7.49644 -11.0799 -6.37365
15.0477 7.43516 -7.87512
13.9547 -11.05 -8.31922
-11.8941 17.0317 -9.51837
15.8743 -12.0282 -9.09886
9.7869 -2.45387 -4.63483
-9.10242 -1.65481 -4.20716
18.7985 18.1403 -11.7871
3.91736 -9.10856 -4.5003
-10.1645 16.6041 -8.74318
-5.3371 4.43815 -3.12147
6.86958 -11.3095 -5.95704
9.44146 -9.0997 -5.78341
16.0564 7.32476 -7.78574
-6.60291 14.9954 -7.15674
1.50195 -18.7565 -8.13837
-11.1186 16.9169 -8.71658
9.59232 -3.37407 -4.35535
7.02887 -11.0634 -5.54098
15.8574 -11.987 -8.32103
14.6839 7.76227 -6.96657
18.835 19.5964 -11.3591
1.01982 -22.5936 -9.41584
-4.51591 13.8115 -5.98756
-9.92355 -1.10994 -4.13837
14.121 7.79732 -6.58609
20.5548 22.3592 -12.3792
-13.046 2.44485 -5.40708
15.15 7.19824 -6.78345
-5.19815 14.2438 -6.09872
3.64147 -8.81604 -3.79667
12.4167 -10.2903 -6.31752
13.9702 -11.0307 -6.95635
19.3959 21.7081 -11.2919
18.8558 5.81452 -7.65117
1.54141 19.2931 -7.50418
-8.68387 15.6469 -6.89947
11.4197 -10.0688 -5.85613
19.3367 22.4187 -11.4036
0.682115 15.3955 -5.90153
-1.65866 12.7238 -4.93666
2.71526 -12.2508 -4.81443
-8.76261 -1.25152 -3.3645
0.702483 -23.6144 -8.91476
15.2163 -11.6609 -7.23002
9.50094 -3.46679 -3.81512
-14.491 17.8646 -8.57406
-7.88722 -3.50367 -3.16541
1.09596 -10.4577 -3.86726
7.03988 -11.2551 -4.85483
14.2303 7.94574 -5.88399
-8.28833 -2.84569 -3.15121
0.789184 15.3079 -5.46552
-3.93361 13.3017 -4.90794
5.74559 -11.0025 -4.36819
15.8699 -11.9935 -7.04559
19.1311 5.90868 -7.04409
2.12011 20.7111 -7.30075
21.7655 26.3128 -11.8667
-14.7842 18.2499 -8.06279
2.97506 -13.3547 -4.70926
-8.8346 15.9593 -6.23471
18.5261 -13.1217 -7.78116
-5.01103 14.3965 -5.18423
1.35915 -22.2189 -7.37678
1.76315 19.6726 -6.52463
1.4485 -10.3204 -3.4443
39.3292 -20.1044 -14.4957
6.17561 -10.058 -3.77806
17.6076 -12.4326 -6.9038
2.12339 20.7405 -6.63504
-13.2648 17.7092 -6.97734
1.44951 -22.691 -7.08461
-4.2777 14.6417 -4.74098
-10.8772 16.4812 -5.9858
-2.73797 -27.8687 -8.50778
3.06638 -9.47624 -3.02707
0.793411 -24.2313 -7.2912
19.1724 -13.6086 -6.97666
17.6432 5.58163 -5.42979
-7.83342 15.1647 -4.96994
4.23232 -10.5023 -3.29092
3.62466 -10.5799 -3.1831
4.24637 -10.9583 -3.29914
-13.2154 17.6644 -6.13772
-9.21905 15.7601 -4.96817
-13.2196 1.98167 -3.66533
-16.7972 19.2989 -6.94828
26.3953 -17.3765 -8.56307
-3.89173 -27.7508 -7.51612
3.78536 -9.15137 -2.64982
-9.72901 16.1732 -5.02486
47.5096 -13.8719 -13.1243
10.5485 -9.40818 -3.74159
-6.39729 14.8124 -4.21593
-14.3126 17.9449 -6.02443
-7.93746 -37.5566 -9.99932
4.96193 -9.57877 -2.7924
6.56515 -10.5069 -3.19643
-7.15216 15.1799 -4.2665
-10.4774 16.3193 -4.95621
-9.79963 -38.8348 -9.96098
-8.94628 -38.6217 -9.68139
10.9585 -9.66029 -3.59228
-7.90575 15.3441 -4.18654
-11.6394 16.9181 -4.97203
14.6474 7.73726 -3.93189
4.04814 -9.2559 -2.39112
15.252 7.55358 -4.01117
3.7483 -8.91234 -2.27292
-6.4797 -32.2857 -7.62565
5.62979 -9.89049 -2.63787
44.9669 -10.8818 -10.7532
-12.7139 17.3184 -4.94631
14.9047 7.63322 -3.78867
43.9963 -9.51755 -10.1972
-9.71469 16.1824 -4.22556
3.71652 -9.25808 -2.17057
43.1541 -11.0706 -9.7238
15.164 7.52289 -3.62501
-10.5566 16.479 -4.19277
-21.7881 -34.2531 -8.72164
4.82397 -9.7572 -2.34835
45.2648 -10.5986 -9.94672
-14.6776 18.1853 -4.91766
-32.078 -23.6764 -8.45095
41.8807 -14.0131 -9.34308
14.8896 7.86801 -3.51228
-35.2146 23.8139 -8.69342
-8.29311 -33.9214 -7.07218
3.95589 -11.5176 -2.44814
44.7872 -9.66312 -9.31916
11.7975 -9.7655 -3.07148
43.1766 -11.115 -8.88457
-26.799 20.2232 -6.66456
6.14909 -10.2922 -2.38712
46.1641 -10.7953 -9.25975
-12.6975 17.325 -4.15182
-26.6704 20.9013 -6.58505
16.1031 12.1806 -3.85932
-6.82523 15.0247 -3.16871
-32.9721 -23.849 -7.78918
-31.4849 -24.6549 -7.68532
-35.4404 23.616 -8.0203
-33.4827 -22.0873 -7.58029
18.0668 5.68011 -3.53495
-34.0101 -20.5206 -7.41825
-14.9052 -42.9731 -8.47392
3.77355 -9.82888 -1.98253
-24.2347 -60.3352 -12.0931
-16.6305 -44.8029 -8.74178
3.9781 -9.6421 -1.88153
13.0921 -10.2302 -2.99652
45.6384 -10.1558 -8.39837
-14.6368 18.1536 -4.16736
-26.8188 21.0343 -6.018
15.1281 8.00811 -2.98143
-30.1563 -26.2791 -6.97214
43.0368 -11.0237 -7.62759
-7.87304 15.1669 -2.89537
-9.66991 17.8089 -3.42404
44.9044 -10.5706 -7.8009
-30.5374 22.2435 -6.36095
-30.1469 -23.1933 -6.35758
-20.6748 19.7686 -4.75957
-32.1361 22.6954 -6.56383
15.9591 -11.9076 -3.26312
-10.2589 16.2873 -3.06287
-43.0613 25.3386 -7.92723
-31.5119 -23.6729 -6.30993
-33.343 -22.9989 -6.37988
3.43575 -9.50231 -1.58033
-23.6213 20.1784 -4.79825
16.9572 -11.9877 -3.21689
-11.0932 16.6027 -3.03412
46.3047 -10.8521 -7.21865
-22.6455 -52.4795 -8.63701
-29.3029 21.9766 -5.47718
-38.1352 23.7782 -6.67098
-31.5312 -24.4757 -5.95529
44.9028 -9.62242 -6.83783
-33.6154 -24.311 -6.06186
-49.5734 27.6789 -8.1643
-35.4081 -23.6177 -6.12675
6.74596 -12.9458 -2.11987
-36.0924 -20.9771 -5.90833
-6.88524 15.1804 -2.31547
-13.0272 17.5859 -3.04547
-31.9657 23.014 -5.50594
-24.377 -54.2887 -8.20649
-15.9825 -46.7226 -6.7916
36.8782 -12.2643 -5.33011
-23.0387 20.2454 -4.08128
-32.1586 -24.0831 -5.24553
-30.525 -25.0417 -5.2203
-33.7831 -23.2666 -5.25466
7.45503 -9.44266 -1.55576
43.0914 -11.0304 -5.70761
-33.3076 22.6651 -5.12245
-29.7015 -15.849 -4.29157
6.0454 -7.82923 -1.26359
45.0516 -10.5889 -5.86735
-30.8997 22.7096 -4.78546
14.54 -11.3279 -2.26459
-29.8343 22.4704 -4.51854
-32.4083 22.9097 -4.77878
-10.2864 16.3603 -2.23312
-31.4125 -22.5923 -4.55253
13.0195 -10.5301 -1.96028
35.9748 -11.8877 -4.38413
6.35265 -10.3596 -1.3969
11.2144 -9.718 -1.672
16.4896 -12.2773 -2.31674
-10.9957 16.4878 -2.19465
6.77423 -12.6219 -1.5699
11.6234 -9.70673 -1.67714
42.9296 -11.0085 -4.8657
-38.7967 24.1902 -4.90729
45.1141 -10.5419 -4.98834
14.9535 -11.4826 -2.0059
-12.8766 17.3965 -2.22333
14.8128 7.84024 -1.67498
14.038 -11.0743 -1.78621
-13.9222 17.806 -2.19249
6.41564 -12.2949 -1.33511
9.41842 -8.93376 -1.2548
17.0635 -12.477 -2.06313
-28.8139 -13.7687 -3.00859
-14.8939 18.2385 -2.19526
-36.6038 -71.3109 -7.46178
-33.8633 -21.1898 -3.53736
16.1808 -12.1247 -1.8196
38.7002 -12.8769 -3.65041
11.1336 -9.89686 -1.23112
43.3413 -11.0775 -3.73103
-16.0944 -41.8821 -3.60426
-39.4712 -77.1807 -6.75329
17.6682 -12.8748 -1.72662
-30.0296 22.7273 -2.88083
7.45697 -9.18575 -0.915897
-32.6873 23.1384 -2.9752
-16.4851 -40.7813 -3.28776
-36.396 -68.4884 -5.51624
-35.2736 -70.6476 -5.40985
12.5987 -10.4848 -1.10334
17.1172 -12.4672 -1.43158
-39.2407 24.4286 -3.02254
43.5996 -11.1625 -2.9542
-28.6139 -13.455 -1.89378
-39.8418 -76.973 -5.2495
14.544 -11.3384 -1.11126
31.3049 -20.6222 -2.04858
31.271 -19.7089 -2.02046
15.3869 7.59929 -0.890486
14.8243 7.86077 -0.862813
-12.7991 17.4661 -1.09894
-24.4916 -54.046 -3.04901
-13.4035 -36.482 -1.92683
-41.751 -78.687 -4.3506
9.67106 -9.10828 -0.664539
13.4809 -10.7207 -0.846045
16.018 10.1899 -0.896972
16.3195 11.4385 -0.927981
6.84611 -12.5565 -0.680173
-20.0138 -5.90543 -0.896082
-29.679 -52.891 -2.67632
10.2586 -13.8497 -0.704518
18.1063 -13.0573 -0.912358
42.8105 -10.9354 -1.75825
-9.38306 -12.4102 -0.600288
44.352 -10.3857 -1.7911
22.3174 26.8304 -1.19055
-32.5961 22.2825 -1.3687
-36.4029 -20.4132 -1.35887
-18.1116 -45.1383 -1.56305
16.5262 -12.3294 -0.672782
14.4174 3.90522 -0.440583
-25.68 -59.0098 -1.93015
-22.7227 20.2412 -0.869495
-12.2701 -37.2061 -1.05375
43.2275 -9.18283 -1.23565
-41.858 26.0359 -1.33297
-54.2615 19.5116 -1.38173
43.9221 -10.1992 -0.969736
-30.8969 23.3502 -0.774269
-30.3882 9.66569 -0.666944
31.7668 55.6187 -1.17743
-30.1712 22.2673 -0.718391
12.9986 -10.6508 -0.291199
-34.5779 -21.5187 -0.631487
-30.3526 -61.0424 -1.01507
17.5374 -12.6475 -0.314152
-12.5373 -37.9032 -0.515459
-14.1991 18.0251 -0.234006
-19.971 -45.8977 -0.544274
